ply
format ascii 1.0
comment PCL generated
element vertex 947
property float x
property float y
property float z
property uchar red
property uchar green
property uchar blue
property uchar alpha
element camera 0
property float view_px
property float view_py
property float view_pz
property float x_axisx
property float x_axisy
property float x_axisz
property float y_axisx
property float y_axisy
property float y_axisz
property float z_axisx
property float z_axisy
property float z_axisz
property float focal
property float scalex
property float scaley
property float centerx
property float centery
property int viewportx
property int viewporty
property float k1
property float k2
end_header
0.20790254 -0.039308585 0.69800001 49 42 22 255
0.21069449 -0.039474405 0.70100003 54 47 27 255
0.21259269 -0.039471302 0.70100003 56 50 33 255
0.21449071 -0.039468225 0.70100003 58 52 35 255
0.21607994 -0.039408874 0.70000005 52 48 31 255
0.21828631 -0.039462145 0.70100003 53 47 30 255
0.22112623 -0.039628018 0.70400006 54 48 31 255
0.22398221 -0.039793886 0.70700002 57 47 28 255
0.22717385 -0.040016051 0.71100003 58 48 29 255
0.22942039 -0.040069383 0.71200001 60 48 29 255
0.23102236 -0.040010192 0.71100003 58 48 31 255
0.23261888 -0.039951045 0.71000004 57 49 32 255
0.23487063 -0.040004473 0.71100003 55 49 33 255
0.23779379 -0.040170453 0.71400005 58 52 35 255
0.24073316 -0.040336449 0.71700001 57 51 34 255
0.24335027 -0.040446211 0.71900004 63 55 38 255
0.24597819 -0.040555995 0.72100002 61 56 35 255
0.24861698 -0.040665809 0.72300005 58 53 32 255
0.25126657 -0.04077566 0.72500002 67 62 41 255
0.25357774 -0.040829301 0.72600001 57 54 33 255
0.25624642 -0.040939216 0.72800004 59 56 35 255
0.25892588 -0.041049168 0.73000002 61 56 35 255
0.26125893 -0.041102927 0.73100001 66 61 40 255
0.26395759 -0.041212965 0.73300004 70 63 42 255
0.26702997 -0.041379262 0.73600006 73 66 45 255
0.27121532 -0.041714251 0.74200004 77 72 52 255
0.27506506 -0.041993048 0.74700004 74 70 53 255
0.27968392 -0.042384297 0.75400001 73 71 53 255
0.28508812 -0.042887982 0.76300001 82 79 63 255
0.29091769 -0.043447893 0.77300006 81 80 64 255
0.29755974 -0.044120222 0.78500003 80 81 67 255
-0.16114381 -0.041478135 0.70100003 226 233 232 255
-0.15560354 -0.040534806 0.68500006 197 204 201 255
-0.15149659 -0.039946385 0.67500001 191 196 192 255
-0.14810885 -0.039535418 0.66800004 187 191 184 255
-0.14519684 -0.039242744 0.66300005 181 185 178 255
-0.14274424 -0.039068401 0.66000003 179 180 174 255
-0.14073475 -0.039012417 0.65900004 170 171 165 255
-0.13830867 -0.038837999 0.65600002 174 175 171 255
-0.13610671 -0.038722754 0.65400004 173 174 170 255
-0.13391529 -0.038607467 0.65200001 164 167 163 255
-0.13234244 -0.03866981 0.65300006 165 168 164 255
-0.13016394 -0.038554467 0.65100002 159 162 158 255
-0.12779877 -0.038379863 0.648 152 156 149 255
-0.12525512 -0.038145982 0.64400005 157 161 154 255
-0.12311646 -0.038030513 0.64200002 137 141 133 255
-0.12098838 -0.03791501 0.64000005 144 150 142 255
-0.11887082 -0.037799463 0.63800001 140 144 137 255
-0.11676387 -0.037683878 0.63600004 150 154 147 255
-0.11484835 -0.037627511 0.63500005 159 163 156 255
-0.11275979 -0.037511848 0.63300002 137 141 134 255
-0.11050642 -0.037336882 0.63000005 149 155 148 255
-0.10809641 -0.037102591 0.62600005 169 173 166 255
-0.10621773 -0.03704606 0.625 166 170 163 255
-0.10451142 -0.037048772 0.625 157 161 154 255
-0.10313376 -0.037170023 0.62700003 167 171 164 255
-0.10109781 -0.037054114 0.625 174 178 171 255
-0.099231496 -0.036997452 0.62400001 149 153 146 255
-0.097370334 -0.036940757 0.62300003 145 149 142 255
-0.095974982 -0.037061915 0.625 155 159 152 255
-0.094115905 -0.037005149 0.62400001 135 139 132 255
-0.092113897 -0.036889039 0.62200004 112 115 111 255
-0.090413235 -0.036891505 0.62200004 154 155 149 255
-0.088712245 -0.03689393 0.62200004 146 147 143 255
-0.087290742 -0.037014961 0.62400001 155 156 150 255
-0.085446537 -0.036958009 0.62300003 147 151 144 255
-0.08401075 -0.037078992 0.625 137 141 134 255
-0.082168691 -0.037021961 0.62400001 136 140 133 255
-0.080589689 -0.037083555 0.625 130 134 127 255
-0.078878716 -0.037085783 0.625 130 134 127 255
-0.077044003 -0.037028629 0.62400001 137 141 134 255
-0.074973024 -0.036852747 0.62100005 145 149 142 255
-0.073508143 -0.036973536 0.62300003 151 155 148 255
-0.071801543 -0.0369756 0.62300003 138 142 134 255
-0.07031969 -0.037096333 0.625 131 135 127 255
-0.068497308 -0.037038967 0.62400001 130 134 127 255
-0.066680141 -0.036981553 0.62300003 120 124 117 255
-0.065076791 -0.037042819 0.62400001 127 131 124 255
-0.063366145 -0.037044674 0.62400001 133 134 130 255
-0.061556466 -0.036987126 0.62300003 115 119 112 255
-0.059655964 -0.036870155 0.62100005 137 138 132 255
-0.05795284 -0.036871877 0.62100005 108 112 104 255
-0.056340061 -0.036932927 0.62200004 107 111 104 255
-0.054721579 -0.036993939 0.62300003 122 123 117 255
-0.052927211 -0.036936149 0.62200004 101 102 96 255
-0.051220462 -0.036937695 0.62200004 138 139 133 255
-0.049513515 -0.036939189 0.62200004 110 111 105 255
-0.047729511 -0.036881253 0.62100005 98 99 87 255
-0.045950796 -0.036823258 0.62 103 104 92 255
-0.044320129 -0.036884006 0.62100005 99 101 84 255
-0.042683791 -0.036944706 0.62200004 100 102 85 255
-0.040975906 -0.036945965 0.62200004 92 93 79 255
-0.039204728 -0.036887776 0.62100005 103 104 92 255
-0.037559643 -0.036948334 0.62200004 90 93 81 255
-0.035908911 -0.037008848 0.62300003 58 61 49 255
-0.034142755 -0.036950506 0.62200004 73 74 62 255
-0.032434095 -0.03695152 0.62200004 91 91 81 255
-0.030626504 -0.036833663 0.62 98 98 88 255
-0.028969726 -0.036893986 0.62100005 115 115 105 255
-0.027263431 -0.036894843 0.62100005 107 107 97 255
-0.02559817 -0.036955062 0.62200004 80 82 74 255
-0.023850495 -0.036896408 0.62100005 97 99 91 255
-0.022072557 -0.036778282 0.61900002 102 104 96 255
-0.02037134 -0.036778934 0.61900002 107 109 101 255
-0.018730357 -0.036898375 0.62100005 96 98 88 255
-0.017050888 -0.036958341 0.62200004 85 88 74 255
-0.01531652 -0.036899418 0.62100005 84 86 69 255
-0.013587584 -0.036840446 0.62 69 68 52 255
-0.011883255 -0.036840834 0.62 70 70 52 255
-0.010178875 -0.036841176 0.62 82 81 65 255
-0.0084607834 -0.036782041 0.61900002 83 82 68 255
-0.0067481529 -0.036722858 0.61800003 91 89 79 255
-0.005049163 -0.036723044 0.61800003 82 81 65 255
-0.0033664133 -0.036901437 0.62100005 80 82 65 255
-0.0016618107 -0.036960937 0.62200004 67 69 52 255
4.8297417e-05 -0.037020385 0.62300003 79 79 61 255
0.0017582502 -0.036960933 0.62200004 79 79 61 255
0.003473849 -0.037020277 0.62300003 63 61 43 255
0.0051699565 -0.036901303 0.62100005 57 54 38 255
0.0068993415 -0.037019953 0.62300003 62 59 43 255
0.0086120469 -0.037019715 0.62300003 57 54 38 255
0.010374433 -0.03719769 0.62600005 57 54 40 255
0.012075981 -0.037137918 0.625 63 60 46 255
0.013749911 -0.037018679 0.62300003 62 58 47 255
0.015462426 -0.037018232 0.62300003 79 75 65 255
0.01723001 -0.037136562 0.625 73 69 59 255
0.019008515 -0.037254844 0.62700003 76 74 64 255
0.020731805 -0.037254233 0.62700003 70 68 58 255
0.022455001 -0.037253566 0.62700003 70 68 58 255
0.024293795 -0.037431099 0.63000005 59 60 46 255
0.02606635 -0.037489738 0.63100004 59 60 46 255
0.027800238 -0.037488919 0.63100004 61 62 48 255
0.029487198 -0.037428629 0.63000005 72 69 53 255
0.031218097 -0.037427705 0.63000005 69 67 49 255
0.033053461 -0.037545539 0.63200003 63 61 43 255
0.034844629 -0.037603911 0.63300002 55 53 35 255
0.036641143 -0.037662234 0.634 54 51 35 255
0.038503546 -0.037779905 0.63600004 58 55 39 255
0.040376771 -0.037897516 0.63800001 58 55 39 255
0.042128749 -0.037896268 0.63800001 63 60 44 255
0.043949332 -0.037954371 0.63900006 65 62 46 255
0.045703713 -0.03795303 0.63900006 58 55 39 255
0.047754966 -0.038189199 0.64300001 57 54 38 255
0.049442932 -0.038128361 0.64200002 52 49 33 255
0.051204957 -0.038126856 0.64200002 57 55 37 255
0.052884277 -0.038065929 0.64100003 61 58 42 255
0.054813635 -0.038183097 0.64300001 60 57 41 255
0.056665763 -0.038240831 0.64400005 53 49 33 255
0.058523152 -0.038298517 0.64500004 47 43 26 255
0.060292326 -0.038296774 0.64500004 50 46 29 255
0.062253691 -0.038413722 0.64700001 48 44 27 255
0.0642258 -0.038530625 0.64900005 56 51 31 255
0.066310309 -0.038706828 0.65200001 54 51 30 255
0.068306588 -0.038823612 0.65400004 54 51 31 255
0.070206366 -0.03888097 0.65500003 63 57 40 255
0.07200145 -0.038878929 0.65500003 50 46 29 255
0.073683597 -0.038817488 0.65400004 52 48 31 255
0.07547538 -0.038815361 0.65400004 55 49 32 255
0.077385031 -0.03887254 0.65500003 48 42 25 255
0.079178989 -0.038870323 0.65500003 48 42 25 255
0.081219897 -0.038986746 0.65700001 48 42 25 255
0.083018757 -0.038984444 0.65700001 53 47 30 255
0.085075505 -0.03910077 0.65900004 55 50 30 255
0.086879224 -0.039098378 0.65900004 47 42 22 255
0.088817216 -0.039155278 0.66000003 46 42 25 255
0.090897672 -0.039271455 0.66200006 47 43 26 255
0.092988737 -0.039387573 0.66400003 49 43 26 255
0.094804883 -0.039385013 0.66400003 43 39 22 255
0.096620694 -0.03938242 0.66400003 53 47 30 255
0.098287947 -0.039320484 0.66300005 52 48 31 255
0.1005533 -0.039495729 0.66600001 50 46 29 255
0.10221987 -0.039433721 0.66500002 45 41 24 255
0.10434999 -0.039549582 0.66700006 48 44 27 255
0.10617235 -0.039546806 0.66700006 50 46 29 255
0.10831815 -0.039662562 0.66900003 49 43 26 255
0.10998064 -0.039600443 0.66800004 49 43 26 255
0.11213941 -0.039716125 0.67000002 53 47 30 255
0.11413866 -0.039772484 0.671 43 39 22 255
0.11614303 -0.039828815 0.67200005 51 47 30 255
0.11780136 -0.039766569 0.671 52 46 29 255
0.11981048 -0.039822835 0.67200005 48 42 25 255
0.12164368 -0.039819811 0.67200005 49 41 24 255
0.12384401 -0.039935261 0.67400002 54 46 29 255
0.12605488 -0.040050671 0.67600006 48 42 26 255
0.1284655 -0.040225279 0.67900002 46 42 26 255
0.13031633 -0.040222123 0.67900002 51 47 30 255
0.13197216 -0.040159713 0.67800003 46 42 25 255
0.1336222 -0.040097304 0.67700005 52 46 29 255
0.13586669 -0.040212542 0.67900002 52 45 25 255
0.13812174 -0.04032775 0.68100005 53 46 26 255
0.14018178 -0.040383704 0.68200004 54 47 26 255
0.14183037 -0.040321216 0.68100005 51 44 23 255
0.14368412 -0.040317923 0.68100005 54 49 29 255
0.14596497 -0.040433016 0.68300003 47 42 22 255
0.14825635 -0.040548082 0.68500006 47 40 20 255
0.15033908 -0.040603921 0.68600005 53 46 26 255
0.15220504 -0.040600553 0.68600005 47 40 20 255
0.15429524 -0.040656358 0.68700004 47 40 20 255
0.1561632 -0.040652964 0.68700004 51 44 24 255
0.15803084 -0.040649563 0.68700004 47 41 24 255
0.16013087 -0.040705323 0.68800002 47 43 26 255
0.1617651 -0.04064275 0.68700004 44 40 24 255
0.16363169 -0.04063933 0.68700004 43 39 22 255
0.165498 -0.040635914 0.68700004 45 41 24 255
0.16785118 -0.040750779 0.68900001 46 43 23 255
0.16972224 -0.040747344 0.68900001 40 37 16 255
0.17184205 -0.040803049 0.69000006 45 40 19 255
0.17396696 -0.040858738 0.69100004 47 42 21 255
0.17584251 -0.040855296 0.69100004 47 42 22 255
0.17746057 -0.040792737 0.69000006 51 46 26 255
0.17959273 -0.040848427 0.69100004 51 46 26 255
0.18172997 -0.040904108 0.69200003 46 40 23 255
0.18413773 -0.041018892 0.69400001 49 43 26 255
0.18601994 -0.041015465 0.69400001 52 47 27 255
0.18817267 -0.041071143 0.69500005 44 39 19 255
0.1897836 -0.041008636 0.69400001 49 44 24 255
0.1919412 -0.041064326 0.69500005 49 44 24 255
0.19354618 -0.041001853 0.69400001 47 42 22 255
0.19542713 -0.040998485 0.69400001 50 44 27 255
0.1973078 -0.040995128 0.69400001 47 41 24 255
0.19947529 -0.041050863 0.69500005 54 49 29 255
0.20135823 -0.041047536 0.69500005 51 46 26 255
0.2035334 -0.041103285 0.69600004 54 49 29 255
0.20571376 -0.041159049 0.69700003 53 48 27 255
0.20789938 -0.041214824 0.69800001 50 45 25 255
0.21039078 -0.041329656 0.70000005 49 43 26 255
0.21228626 -0.041326415 0.70000005 55 51 34 255
0.21418163 -0.0413232 0.70000005 50 46 29 255
0.21576813 -0.041260984 0.69900006 54 50 33 255
0.21797186 -0.041316856 0.70000005 53 49 32 255
0.22049496 -0.041431766 0.70200002 51 45 28 255
0.22334556 -0.041605704 0.70500004 56 49 28 255
0.22621226 -0.041779645 0.708 57 48 27 255
0.22812851 -0.041776583 0.708 56 46 27 255
0.23004465 -0.04177355 0.708 61 51 34 255
0.2316331 -0.041711558 0.70700002 58 50 33 255
0.23387673 -0.041767601 0.708 60 52 36 255
0.23679179 -0.041941654 0.71100003 52 46 30 255
0.23972307 -0.042115726 0.71400005 53 47 31 255
0.24267057 -0.042289812 0.71700001 59 53 36 255
0.24563429 -0.042463921 0.72000003 65 60 40 255
0.24827041 -0.042579085 0.72200006 59 56 35 255
0.25091729 -0.042694271 0.72400004 55 52 31 255
0.25357509 -0.042809494 0.72600001 55 52 32 255
0.25589183 -0.04286579 0.72700006 51 48 28 255
0.25821397 -0.042922132 0.72800004 52 47 27 255
0.26054165 -0.042978518 0.72900003 56 51 30 255
0.26323488 -0.043093909 0.73100001 58 53 32 255
0.26630196 -0.043268289 0.73400003 75 68 45 255
0.27011639 -0.043560602 0.73900002 68 61 40 255
0.27395803 -0.04385294 0.74400002 70 63 42 255
0.27819794 -0.044204254 0.75000006 73 68 48 255
0.28247046 -0.04455559 0.75600004 74 70 53 255
0.28790471 -0.045083754 0.76500005 73 71 53 255
0.29376706 -0.045670871 0.77500004 78 75 59 255
0.29968375 -0.046257995 0.78500003 80 77 63 255
-0.15815192 -0.042591427 0.68800002 206 213 210 255
-0.15423717 -0.04203777 0.67900002 191 196 192 255
-0.15059546 -0.041545939 0.671 187 190 186 255
-0.14766206 -0.041239776 0.66600001 183 186 183 255
-0.14497451 -0.040995479 0.66200006 176 176 174 255
-0.14252469 -0.040813062 0.65900004 177 177 175 255
-0.14030436 -0.040692538 0.65700001 164 165 161 255
-0.1380946 -0.040571984 0.65500003 170 171 167 255
-0.1361035 -0.040513337 0.65400004 179 180 176 255
-0.13411748 -0.040454667 0.65300006 159 160 156 255
-0.13233925 -0.040457927 0.65300006 165 168 164 255
-0.12976091 -0.040213324 0.64900005 151 155 148 255
-0.12740122 -0.040030625 0.64600003 153 157 150 255
-0.12486305 -0.03978591 0.64200002 146 150 143 255
-0.12292165 -0.039727062 0.64100003 144 148 141 255
-0.12079631 -0.039606206 0.63900006 142 146 139 255
-0.11886783 -0.039547291 0.63800001 139 143 136 255
-0.1169445 -0.039488349 0.63700002 147 148 142 255
-0.11502627 -0.03942937 0.63600004 149 150 144 255
-0.1127569 -0.039246358 0.63300002 145 146 140 255
-0.11050356 -0.039063293 0.63000005 142 146 139 255
-0.10809359 -0.038818166 0.62600005 154 158 151 255
-0.10604501 -0.038696993 0.62400001 161 165 158 255
-0.10417423 -0.038637806 0.62300003 162 168 161 255
-0.10263756 -0.038702622 0.62400001 164 168 161 255
-0.10077161 -0.038643368 0.62300003 161 165 158 255
-0.098910794 -0.038584072 0.62200004 170 176 168 255
-0.097055122 -0.038524739 0.62100005 142 148 140 255
-0.095511712 -0.03858944 0.62200004 124 128 121 255
-0.093962505 -0.038654123 0.62300003 127 131 124 255
-0.092111357 -0.038594682 0.62200004 125 129 122 255
-0.090265371 -0.0385352 0.62100005 141 142 136 255
-0.088424549 -0.038475674 0.62 146 147 141 255
-0.086868651 -0.038540225 0.62100005 146 150 143 255
-0.085169844 -0.038542692 0.62100005 133 137 130 255
-0.083470739 -0.038545117 0.62100005 137 141 134 255
-0.081771329 -0.038547501 0.62100005 144 148 141 255
-0.080071643 -0.038549848 0.62100005 145 149 142 255
-0.078245454 -0.038490079 0.62 150 154 147 255
-0.076671399 -0.038554426 0.62100005 136 140 132 255
-0.074729405 -0.038432483 0.61900002 127 132 121 255
-0.073388033 -0.038620941 0.62200004 129 133 125 255
-0.071568966 -0.038560998 0.62100005 108 112 104 255
-0.070092618 -0.0386873 0.62300003 112 116 109 255
-0.068275765 -0.038627271 0.62200004 127 131 124 255
-0.066678181 -0.038691398 0.62300003 122 125 121 255
-0.064970575 -0.03869338 0.62300003 120 123 119 255
-0.063161179 -0.038633209 0.62200004 119 120 114 255
-0.061455831 -0.038635101 0.62200004 103 104 98 255
-0.059558116 -0.03851271 0.62 106 108 100 255
-0.0579511 -0.038576629 0.62100005 107 109 99 255
-0.056247793 -0.038578376 0.62100005 100 102 92 255
-0.054632094 -0.038642209 0.62200004 106 108 100 255
-0.052840516 -0.038581736 0.62100005 114 115 109 255
-0.051136564 -0.038583346 0.62100005 93 94 88 255
-0.049512014 -0.038647037 0.62200004 96 98 90 255
-0.047804911 -0.038648553 0.62200004 133 133 123 255
-0.045949392 -0.038525738 0.62 91 92 80 255
-0.044318769 -0.038589291 0.62100005 91 93 76 255
-0.04261386 -0.038590658 0.62100005 87 89 72 255
-0.040908769 -0.038591966 0.62100005 78 81 67 255
-0.039203513 -0.038593229 0.62100005 95 96 84 255
-0.037498098 -0.03859444 0.62100005 83 86 74 255
-0.035850164 -0.038657747 0.62200004 73 78 67 255
-0.034141697 -0.038658857 0.62200004 78 80 70 255
-0.032380942 -0.038597759 0.62100005 83 83 73 255
-0.030576153 -0.038474448 0.61900002 57 59 49 255
-0.028875522 -0.038475398 0.61900002 82 84 74 255
-0.027174775 -0.038476288 0.61900002 82 84 76 255
-0.025556216 -0.038601451 0.62100005 80 82 72 255
-0.023772936 -0.038477916 0.61900002 97 99 89 255
-0.022071863 -0.03847865 0.61900002 109 111 101 255
-0.020370698 -0.038479336 0.61900002 90 92 82 255
-0.018699605 -0.038542125 0.62 90 92 82 255
-0.017022939 -0.03860487 0.62100005 85 88 76 255
-0.015291372 -0.038543221 0.62 72 75 63 255
-0.013587154 -0.038543683 0.62 78 79 67 255
-0.01188288 -0.038544092 0.62 67 66 52 255
-0.010178554 -0.03854445 0.62 67 66 52 255
-0.0084741833 -0.038544748 0.62 65 62 48 255
-0.0067588589 -0.03848283 0.61900002 68 67 53 255
-0.0050490028 -0.038420849 0.61800003 72 72 54 255
-0.0033608859 -0.038545322 0.62 72 72 54 255
-0.0016617583 -0.03866975 0.62200004 72 72 54 255
4.8218364e-05 -0.038669772 0.62200004 83 83 65 255
0.0017497146 -0.038483232 0.61900002 77 75 57 255
0.0034625879 -0.038607493 0.62100005 57 54 38 255
0.0051614675 -0.038545176 0.62 56 53 37 255
0.0068880492 -0.038669325 0.62200004 59 55 38 255
0.0085979514 -0.038669076 0.62200004 63 59 43 255
0.010357533 -0.038855273 0.625 69 66 50 255
0.012075601 -0.038854912 0.625 60 57 43 255
0.013771549 -0.038792331 0.62400001 59 56 42 255
0.015461939 -0.038729694 0.62300003 70 66 55 255
0.017174333 -0.038729168 0.62300003 65 61 51 255
0.018947285 -0.038852911 0.625 65 63 52 255
0.020698089 -0.038914446 0.62600005 62 60 49 255
0.022454299 -0.038975917 0.62700003 59 60 46 255
0.024177352 -0.038975168 0.62700003 72 74 57 255
0.025941608 -0.039036524 0.62800002 63 65 48 255
0.027667196 -0.03903567 0.62800002 62 61 47 255
0.029392673 -0.039034761 0.62800002 65 62 48 255
0.031217122 -0.039158106 0.63000005 68 65 51 255
0.033104729 -0.039343551 0.63300002 71 68 54 255
0.034843549 -0.039342474 0.63300002 61 58 44 255
0.03658222 -0.039341338 0.63300002 65 61 47 255
0.038381275 -0.039402302 0.634 63 60 44 255
0.040248957 -0.03952536 0.63600004 62 59 43 255
0.041995391 -0.039524063 0.63600004 55 52 36 255
0.043879207 -0.039647002 0.63800001 59 56 40 255
0.045630783 -0.039645597 0.63800001 60 58 40 255
0.047679238 -0.039892696 0.64200002 51 48 32 255
0.049364414 -0.039829049 0.64100003 45 42 28 255
0.051203396 -0.039889619 0.64200002 50 48 30 255
0.052882671 -0.039825872 0.64100003 55 53 35 255
0.054897226 -0.040010594 0.64400005 53 51 33 255
0.056752041 -0.040070999 0.64500004 45 41 24 255
0.058521401 -0.040069226 0.64500004 51 45 28 255
0.060290519 -0.040067405 0.64500004 54 50 34 255
0.062059402 -0.040065538 0.64500004 49 45 29 255
0.064025968 -0.040187851 0.64700001 50 46 29 255
0.066003256 -0.040310103 0.64900005 52 48 31 255
0.068200119 -0.040556509 0.65300006 49 45 28 255
0.069989942 -0.04055443 0.65300006 58 52 35 255
0.07177949 -0.040552303 0.65300006 50 44 27 255
0.073681436 -0.040612228 0.65400004 50 44 27 255
0.075473182 -0.040610008 0.65400004 47 41 25 255
0.077500924 -0.040731922 0.65600002 47 41 25 255
0.07929758 -0.040729605 0.65600002 46 40 24 255
0.081464812 -0.040913504 0.65900004 52 46 30 255
0.083269097 -0.04091109 0.65900004 56 49 36 255
0.085202172 -0.040970713 0.66000003 54 48 31 255
0.086744934 -0.040844072 0.65800005 49 43 26 255
0.088680141 -0.040903609 0.65900004 45 41 24 255
0.09075781 -0.041025162 0.66100001 52 46 29 255
0.09284611 -0.041146666 0.66300005 50 44 27 255
0.094802245 -0.041206054 0.66400003 48 42 25 255
0.096618034 -0.041203342 0.66400003 51 45 28 255
0.098581724 -0.041262649 0.66500002 47 43 26 255
0.10055055 -0.041321907 0.66600001 49 45 28 255
0.10237081 -0.04131908 0.66600001 45 41 24 255
0.10434717 -0.04137826 0.66700006 50 46 29 255
0.10616949 -0.041375361 0.66700006 52 46 29 255
0.10815336 -0.041434456 0.66800004 52 46 29 255
0.1099777 -0.041431487 0.66800004 49 43 26 255
0.11196908 -0.04149051 0.66900003 46 40 23 255
0.11396557 -0.041549485 0.67000002 48 42 25 255
0.11579434 -0.041546419 0.67000002 51 46 26 255
0.11779831 -0.041605327 0.671 44 38 21 255
0.11998568 -0.041726205 0.67300004 48 40 23 255
0.12182159 -0.041723039 0.67300004 48 41 21 255
0.12384085 -0.041781839 0.67400002 50 44 27 255
0.12567876 -0.041778624 0.67400002 55 49 32 255
0.12808388 -0.04196132 0.67700005 48 44 27 255
0.1303131 -0.042081993 0.67900002 53 49 32 255
0.13196892 -0.042016707 0.67800003 48 44 27 255
0.13361894 -0.041951414 0.67700005 47 41 24 255
0.13526313 -0.04188611 0.67600006 51 45 28 255
0.13750997 -0.042006664 0.67800003 53 45 28 255
0.13976735 -0.042127177 0.68000001 49 42 22 255
0.14161874 -0.042123768 0.68000001 51 43 26 255
0.14346977 -0.042120334 0.68000001 47 39 22 255
0.14553416 -0.042178828 0.68100005 52 44 27 255
0.14760365 -0.0422373 0.68200004 51 43 26 255
0.15011649 -0.042419598 0.68500006 50 42 25 255
0.15197973 -0.042416092 0.68500006 48 41 21 255
0.15406719 -0.04247449 0.68600005 45 38 18 255
0.15593243 -0.042470954 0.68600005 50 43 23 255
0.15802738 -0.042529318 0.68700004 46 41 21 255
0.15989466 -0.042525765 0.68700004 45 41 24 255
0.1617616 -0.042522203 0.68700004 45 41 24 255
0.16339003 -0.04245675 0.68600005 44 40 23 255
0.16573539 -0.042576954 0.68800002 45 39 22 255
0.16760407 -0.042573381 0.68800002 45 40 20 255
0.16971873 -0.042631675 0.68900001 41 36 16 255
0.17183852 -0.042689964 0.69000006 42 37 16 255
0.17396346 -0.042748243 0.69100004 43 38 17 255
0.17583898 -0.042744648 0.69100004 45 40 20 255
0.17771426 -0.042741068 0.69100004 50 45 25 255
0.17958923 -0.042737484 0.69100004 50 45 25 255
0.18172649 -0.042795751 0.69200003 46 41 21 255
0.18360357 -0.042792175 0.69200003 49 44 24 255
0.18574843 -0.042850439 0.69300002 45 40 20 255
0.18789843 -0.042908709 0.69400001 49 44 24 255
0.1897801 -0.042905148 0.69400001 46 43 23 255
0.19166154 -0.042901605 0.69400001 50 45 25 255
0.19326386 -0.042836268 0.69300002 50 45 25 255
0.19542368 -0.042894561 0.69400001 46 40 23 255
0.19730438 -0.042891063 0.69400001 48 42 25 255
0.19947189 -0.042949386 0.69500005 50 45 25 255
0.20164455 -0.043007705 0.69600004 49 44 24 255
0.20382243 -0.04306604 0.69700003 46 41 21 255
0.20600554 -0.043124385 0.69800001 48 43 23 255
0.20819388 -0.043182753 0.69900006 50 44 27 255
0.2100869 -0.043179352 0.69900006 48 44 27 255
0.21197972 -0.04317598 0.69900006 54 50 34 255
0.21417835 -0.043234393 0.70000005 53 49 33 255
0.21576492 -0.043169316 0.69900006 52 50 32 255
0.21828002 -0.043289531 0.70100003 51 47 30 255
0.22080585 -0.043409765 0.70300001 48 44 27 255
0.22365919 -0.043591753 0.70600003 51 44 23 255
0.22588964 -0.043650273 0.70700002 51 44 23 255
0.22812541 -0.043708816 0.708 63 53 34 255
0.22971666 -0.043643925 0.70700002 55 47 30 255
0.2319577 -0.043702539 0.708 60 52 35 255
0.23420408 -0.043761183 0.70900005 57 51 35 255
0.23712185 -0.04394329 0.71200001 56 50 34 255
0.23972017 -0.04406371 0.71400005 56 50 33 255
0.24266766 -0.044245861 0.71700001 55 49 32 255
0.24529026 -0.04436633 0.71900004 60 54 37 255
0.24757983 -0.044425126 0.72000003 59 56 36 255
0.25056794 -0.044607364 0.72300005 57 54 34 255
0.25322309 -0.044727933 0.72500002 55 52 32 255
0.25588912 -0.044848543 0.72700006 52 48 31 255
0.25821131 -0.044907503 0.72800004 50 47 27 255
0.26018167 -0.044904832 0.72800004 52 47 27 255
0.26251215 -0.044963893 0.72900003 59 54 33 255
0.26521102 -0.045084685 0.73100001 66 59 36 255
0.26938292 -0.045452215 0.73700005 69 62 39 255
0.2732192 -0.045758095 0.74200004 73 66 43 255
0.27708277 -0.046064008 0.74700004 70 65 44 255
0.28059995 -0.046308301 0.75100005 72 68 51 255
0.28526807 -0.046737611 0.75800002 78 74 57 255
0.29073238 -0.047290258 0.76700002 76 73 57 255
0.29586399 -0.047781281 0.77500004 78 75 61 255
0.30103922 -0.048272334 0.78300005 78 79 67 255
-0.1614138 -0.044857908 0.69400001 225 231 233 255
-0.15653922 -0.044021301 0.68100005 192 199 196 255
-0.15287071 -0.043507781 0.67300004 187 192 188 255
-0.14991866 -0.043188125 0.66800004 180 183 179 255
-0.14721516 -0.042933062 0.66400003 177 180 177 255
-0.14497107 -0.042807281 0.66200006 181 182 178 255
-0.14252125 -0.042616788 0.65900004 184 185 181 255
-0.13987388 -0.042361584 0.65500003 184 185 181 255
-0.13766958 -0.04223568 0.65300006 173 174 170 255
-0.13610013 -0.042303789 0.65400004 167 168 164 255
-0.13411416 -0.04224252 0.65300006 153 156 152 255
-0.13213328 -0.04218122 0.65200001 150 153 149 255
-0.12955768 -0.041925788 0.648 150 154 147 255
-0.12720075 -0.041735005 0.64500004 138 142 135 255
-0.12485984 -0.041544169 0.64200002 125 129 122 255
-0.12311022 -0.041547433 0.64200002 131 135 128 255
-0.1209822 -0.041421235 0.64000005 120 121 115 255
-0.11905103 -0.041359715 0.63900006 117 119 111 255
-0.1169414 -0.041233432 0.63700002 135 137 129 255
-0.1146615 -0.041042369 0.634 146 148 140 255
-0.11239762 -0.04085125 0.63100004 131 133 125 255
-0.10997438 -0.040595334 0.62700003 130 134 127 255
-0.10791797 -0.040468849 0.625 150 154 147 255
-0.1060421 -0.040407069 0.62400001 143 147 140 255
-0.10417136 -0.040345255 0.62300003 152 158 151 255
-0.10230577 -0.040283404 0.62200004 145 151 144 255
-0.10028356 -0.040156744 0.62 152 158 150 255
-0.098589972 -0.040159579 0.62 137 143 135 255
-0.09689609 -0.040162377 0.62 119 126 115 255
-0.095201895 -0.040165156 0.62 129 133 125 255
-0.093507364 -0.040167894 0.62 121 125 117 255
-0.091960631 -0.040235393 0.62100005 96 100 92 255
-0.090408131 -0.040302861 0.62200004 137 141 134 255
-0.088421978 -0.0401759 0.62 143 144 138 255
-0.086726233 -0.040178496 0.62 114 118 111 255
-0.084893048 -0.040116247 0.61900002 131 135 128 255
-0.083333865 -0.040183578 0.62 144 148 141 255
-0.081505567 -0.040121242 0.61900002 149 150 144 255
-0.079811394 -0.040123682 0.61900002 132 136 129 255
-0.077990726 -0.040061262 0.61800003 128 132 124 255
-0.076422185 -0.04012844 0.61900002 115 119 111 255
-0.074727155 -0.040130757 0.61900002 137 142 131 255
-0.073149845 -0.040197864 0.62 121 126 115 255
-0.071336299 -0.040135261 0.61900002 128 132 124 255
-0.069752969 -0.04020229 0.62 113 117 110 255
-0.068054147 -0.040204439 0.62 104 108 101 255
-0.066462085 -0.040271394 0.62100005 90 93 89 255
-0.064760007 -0.04027345 0.62100005 112 112 110 255
-0.063057683 -0.040275469 0.62100005 121 122 116 255
-0.06145392 -0.040342294 0.62200004 113 114 108 255
-0.059652321 -0.040279351 0.62100005 110 112 104 255
-0.058042604 -0.040346093 0.62200004 119 121 113 255
-0.056155454 -0.040218182 0.62 122 124 116 255
-0.054542549 -0.040284824 0.62100005 113 114 108 255
-0.052753765 -0.040221673 0.62 112 111 105 255
-0.051134951 -0.040288225 0.62100005 87 86 80 255
-0.049510442 -0.040354732 0.62200004 85 85 77 255
-0.047803391 -0.040356308 0.62200004 90 91 79 255
-0.046022035 -0.040292948 0.62100005 80 81 69 255
-0.044317354 -0.04029442 0.62100005 81 82 68 255
-0.042543873 -0.040230948 0.62 80 81 67 255
-0.040841583 -0.040232316 0.62 75 78 66 255
-0.039139122 -0.040233623 0.62 99 101 91 255
-0.037496887 -0.040299781 0.62100005 78 83 72 255
-0.035849005 -0.04036589 0.62200004 75 80 69 255
-0.03403081 -0.040237244 0.62 73 75 65 255
-0.03227561 -0.040173441 0.61900002 91 91 81 255
-0.030525768 -0.040109582 0.61800003 88 91 79 255
-0.028827937 -0.040110566 0.61800003 88 90 80 255
-0.027129989 -0.040111497 0.61800003 88 88 80 255
-0.025473077 -0.040177278 0.61900002 98 100 90 255
-0.023733756 -0.040113192 0.61800003 92 95 83 255
-0.02199983 -0.040049046 0.61700004 98 98 88 255
-0.020337122 -0.040114664 0.61800003 95 97 89 255
-0.018668832 -0.040180225 0.61900002 89 91 81 255
-0.016967556 -0.040180825 0.61900002 81 83 73 255
-0.015216883 -0.040051538 0.61700004 84 86 78 255
-0.01354288 -0.040116936 0.61800003 57 57 47 255
-0.011844159 -0.040117357 0.61800003 75 74 60 255
-0.010161802 -0.040182639 0.61900002 69 68 54 255
-0.0084739048 -0.040247872 0.62 73 72 56 255
-0.0067695542 -0.04024813 0.62 67 66 50 255
-0.0050488366 -0.040118497 0.61800003 72 72 54 255
-0.0033553543 -0.040183548 0.61900002 70 70 52 255
-0.0016563601 -0.040248554 0.62 64 64 46 255
4.813926e-05 -0.040313501 0.62100005 86 86 68 255
0.0017496569 -0.040183634 0.61900002 68 66 48 255
0.0034568978 -0.040248461 0.62 61 58 42 255
0.0051612975 -0.040248316 0.62 62 59 43 255
0.0068878229 -0.040377952 0.62200004 59 55 38 255
0.0085976673 -0.040377688 0.62200004 59 55 39 255
0.010340619 -0.040507197 0.62400001 60 57 41 255
0.012055882 -0.040506821 0.62400001 62 59 43 255
0.013771095 -0.040506393 0.62400001 67 64 50 255
0.015461431 -0.040440988 0.62300003 66 62 51 255
0.017146204 -0.040375527 0.62200004 68 64 54 255
0.018886035 -0.040439837 0.62300003 64 60 50 255
0.020598222 -0.040439174 0.62300003 56 54 43 255
0.02234613 -0.040503368 0.62400001 73 72 58 255
0.024060884 -0.040502597 0.62400001 72 71 57 255
0.025816839 -0.040566664 0.625 65 64 50 255
0.02757819 -0.040630687 0.62600005 67 64 50 255
0.029391713 -0.040759549 0.62800002 64 61 47 255
0.031216111 -0.040888354 0.63000005 58 55 41 255
0.032999065 -0.040952187 0.63100004 61 58 44 255
0.034732334 -0.040951069 0.63100004 60 57 43 255
0.036523249 -0.041014787 0.63200003 64 61 47 255
0.03825897 -0.041013561 0.63200003 59 56 42 255
0.04012109 -0.041142054 0.634 52 49 33 255
0.041928019 -0.0412056 0.63500005 51 47 33 255
0.043809026 -0.041333977 0.63700002 61 57 41 255
0.045486294 -0.041267633 0.63600004 58 56 38 255
0.047454931 -0.041460775 0.63900006 51 48 32 255
0.049285837 -0.041524082 0.64000005 52 49 33 255
0.051201776 -0.041652214 0.64200002 57 53 36 255
0.052963492 -0.04165053 0.64200002 50 46 29 255
0.054810256 -0.04171367 0.64300001 52 48 31 255
0.056662273 -0.04177675 0.64400005 46 42 25 255
0.058428843 -0.04177491 0.64400005 50 45 25 255
0.060195163 -0.041773017 0.64400005 55 51 35 255
0.061961263 -0.041771073 0.64400005 52 48 32 255
0.063826069 -0.041833933 0.64500004 48 44 28 255
0.065899506 -0.042026453 0.648 48 44 27 255
0.068093576 -0.042283759 0.65200001 49 45 28 255
0.070094965 -0.04241129 0.65400004 49 43 26 255
0.071777299 -0.042344224 0.65300006 47 41 24 255
0.073566534 -0.042341962 0.65300006 49 43 26 255
0.075470895 -0.042404491 0.65400004 46 40 23 255
0.077380441 -0.042466965 0.65500003 58 52 36 255
0.079416081 -0.04259422 0.65700001 56 50 34 255
0.081338756 -0.042656589 0.65800005 51 44 31 255
0.083266616 -0.042718906 0.65900004 47 40 27 255
0.085070558 -0.042716347 0.65900004 51 45 29 255
0.086742364 -0.04264893 0.65800005 49 43 27 255
0.088946663 -0.04284073 0.66100001 48 42 26 255
0.090892456 -0.04290285 0.66200006 51 45 28 255
0.092843398 -0.042964917 0.66300005 45 39 22 255
0.094371185 -0.042832535 0.66100001 43 39 23 255
0.09632425 -0.042894527 0.66200006 47 43 27 255
0.098282419 -0.04295646 0.66300005 47 43 26 255
0.10024574 -0.043018352 0.66400003 52 48 32 255
0.10206049 -0.04301542 0.66400003 49 45 29 255
0.10387491 -0.043012451 0.66400003 47 43 27 255
0.105689 -0.043009441 0.66400003 49 43 27 255
0.10766463 -0.043071169 0.66500002 52 46 29 255
0.10997465 -0.043262385 0.66800004 53 48 28 255
0.11179864 -0.043259263 0.66800004 50 45 25 255
0.11379236 -0.043320864 0.66900003 49 44 23 255
0.11561838 -0.043317672 0.66900003 48 43 22 255
0.11761958 -0.043379199 0.67000002 46 41 21 255
0.11980419 -0.043505426 0.67200005 48 41 21 255
0.12163734 -0.043502141 0.67200005 50 43 23 255
0.12347012 -0.043498822 0.67200005 49 43 26 255
0.12511608 -0.043430749 0.671 51 45 28 255
0.12732381 -0.043556828 0.67300004 49 45 28 255
0.12973398 -0.043747574 0.67600006 48 44 27 255
0.13177089 -0.043808848 0.67700005 48 44 27 255
0.13361552 -0.043805387 0.67700005 47 43 26 255
0.1354598 -0.043801904 0.67700005 47 41 24 255
0.13750653 -0.043863095 0.67800003 51 43 26 255
0.13955833 -0.043924253 0.67900002 49 41 24 255
0.14140698 -0.043920707 0.67900002 46 38 21 255
0.14346626 -0.04398182 0.68000001 47 39 22 255
0.14531693 -0.043978233 0.68000001 51 43 26 255
0.14738367 -0.044039302 0.68100005 48 41 21 255
0.14967464 -0.044165008 0.68300003 51 44 24 255
0.15175426 -0.044226024 0.68400002 48 41 21 255
0.15361442 -0.044222362 0.68400002 47 40 20 255
0.15547422 -0.044218693 0.68400002 47 42 22 255
0.15756372 -0.044279665 0.68500006 48 42 25 255
0.15942554 -0.044275969 0.68500006 50 46 29 255
0.16152251 -0.044336911 0.68600005 44 40 23 255
0.1633864 -0.044333201 0.68600005 50 46 29 255
0.16549085 -0.044394109 0.68700004 44 38 21 255
0.1673568 -0.044390388 0.68700004 44 38 21 255
0.16971508 -0.044515882 0.68900001 37 33 16 255
0.17158584 -0.044512156 0.68900001 45 40 20 255
0.17370804 -0.044573024 0.69000006 47 42 22 255
0.17532639 -0.044504702 0.68900001 48 43 23 255
0.17745341 -0.044565566 0.69000006 51 46 26 255
0.17958556 -0.044626422 0.69100004 47 40 20 255
0.18172282 -0.044687275 0.69200003 49 42 22 255
0.18359995 -0.044683557 0.69200003 47 42 22 255
0.18547677 -0.044679847 0.69200003 50 45 24 255
0.18762405 -0.044740699 0.69300002 46 41 20 255
0.18950303 -0.044737 0.69300002 43 40 20 255
0.19165792 -0.044797868 0.69400001 42 39 19 255
0.19326027 -0.04472965 0.69300002 46 43 23 255
0.19513854 -0.044725999 0.69300002 47 43 26 255
0.19701652 -0.04472236 0.69300002 48 44 27 255
0.19918132 -0.044783272 0.69400001 46 40 23 255
0.20135131 -0.044844195 0.69500005 46 40 23 255
0.2038189 -0.044969644 0.69700003 41 35 18 255
0.20570691 -0.044966072 0.69700003 47 41 24 255
0.20789255 -0.045027025 0.69800001 52 46 29 255
0.20918179 -0.044894483 0.69600004 46 42 26 255
0.2110665 -0.044890992 0.69600004 49 46 30 255
0.21325706 -0.044952024 0.69700003 48 45 29 255
0.21545286 -0.045013066 0.69800001 50 46 29 255
0.2179653 -0.04513862 0.70000005 51 47 30 255
0.22017436 -0.0451997 0.70100003 52 47 27 255
0.22302233 -0.045389764 0.70400006 50 43 22 255
0.22492787 -0.045386419 0.70400006 49 42 21 255
0.22715557 -0.045447577 0.70500004 54 45 24 255
0.22873873 -0.045379844 0.70400006 53 43 24 255
0.23129928 -0.045505527 0.70600003 58 50 33 255
0.23387061 -0.045631237 0.708 55 49 32 255
0.23645271 -0.04575697 0.71000004 60 54 37 255
0.23904561 -0.045882732 0.71200001 56 52 35 255
0.2416493 -0.046008524 0.71400005 57 53 36 255
0.2442638 -0.046134338 0.71600002 57 53 36 255
0.24688919 -0.046260197 0.71800005 55 51 34 255
0.24987194 -0.046450511 0.72100002 63 60 40 255
0.25217244 -0.046512011 0.72200006 54 50 33 255
0.25447839 -0.046573557 0.72300005 51 47 30 255
0.25714451 -0.046699569 0.72500002 51 47 30 255
0.25982156 -0.046825625 0.72700006 58 54 37 255
0.26250952 -0.046951722 0.72900003 54 51 31 255
0.26484567 -0.047013473 0.73000002 57 54 33 255
0.26828384 -0.047268465 0.73400003 64 61 40 255
0.27137566 -0.047459111 0.73700005 74 72 48 255
0.27559665 -0.047842972 0.74300003 71 68 47 255
0.27910307 -0.048098087 0.74700004 73 70 50 255
0.28376034 -0.0485464 0.75400001 71 67 50 255
0.28845584 -0.04899475 0.76100004 73 69 53 255
0.2935712 -0.049507517 0.76900005 75 72 56 255
0.29834577 -0.049955938 0.77600002 77 74 60 255
0.30277142 -0.050340023 0.78200006 81 77 66 255
0.30956918 -0.051110391 0.79400003 74 72 62 255
-0.15954937 -0.046217445 0.68600005 212 219 218 255
-0.15515631 -0.045480125 0.67500001 186 191 188 255
-0.15195845 -0.045079596 0.66900003 187 190 186 255
-0.14901732 -0.04474638 0.66400003 171 174 171 255
-0.14676814 -0.044615284 0.66200006 177 180 177 255
-0.14474848 -0.044551548 0.66100001 184 187 183 255
-0.14208513 -0.044285577 0.65700001 179 182 178 255
-0.1396568 -0.044086963 0.65400004 176 179 175 255
-0.13724442 -0.043888297 0.65100002 174 178 171 255
-0.13547234 -0.043891851 0.65100002 162 166 159 255
-0.13328917 -0.043760534 0.64900005 155 158 154 255
-0.13111655 -0.043629177 0.64700001 141 144 140 255
-0.12875457 -0.04343034 0.64400005 153 156 152 255
-0.12680298 -0.043366335 0.64300001 158 161 157 255
-0.12466202 -0.043234855 0.64100003 119 123 116 255
-0.12291516 -0.043238249 0.64100003 136 137 131 255
-0.12078988 -0.043106686 0.63900006 124 126 118 255
-0.11867516 -0.042975083 0.63700002 127 127 117 255
-0.11657102 -0.042843439 0.63500005 130 131 119 255
-0.11447746 -0.042711746 0.63300002 142 144 134 255
-0.11239448 -0.042580009 0.63100004 130 132 122 255
-0.11032206 -0.042448219 0.62900001 120 124 117 255
-0.10808759 -0.042248901 0.62600005 145 149 142 255
-0.10620902 -0.042184502 0.625 139 143 136 255
-0.10433558 -0.042120069 0.62400001 136 142 135 255
-0.10230282 -0.041988097 0.62200004 141 147 140 255
-0.10060413 -0.041991085 0.62200004 156 162 154 255
-0.098746128 -0.041926533 0.62100005 135 141 133 255
-0.096893258 -0.041861929 0.62 128 135 124 255
-0.094891995 -0.041729767 0.61800003 120 126 118 255
-0.093202978 -0.041732606 0.61800003 117 122 111 255
-0.091661729 -0.041802939 0.61900002 105 110 98 255
-0.089969374 -0.041805711 0.61900002 125 130 119 255
-0.088134088 -0.041740898 0.61800003 142 146 138 255
-0.086303972 -0.041676048 0.61700004 138 139 133 255
-0.084616192 -0.041678701 0.61700004 163 164 158 255
-0.082928106 -0.041681305 0.61700004 162 163 159 255
-0.081239723 -0.041683875 0.61700004 136 137 131 255
-0.079551071 -0.041686404 0.61700004 127 128 122 255
-0.077862106 -0.041688893 0.61700004 125 127 119 255
-0.076419786 -0.041826472 0.61900002 122 124 116 255
-0.074724808 -0.041828882 0.61900002 125 127 119 255
-0.073265515 -0.041966405 0.62100005 125 129 121 255
-0.071334034 -0.041833565 0.61900002 134 138 131 255
-0.069638252 -0.041835841 0.61900002 127 131 124 255
-0.067722701 -0.041702893 0.61700004 118 121 117 255
-0.066245914 -0.041840252 0.61900002 111 112 108 255
-0.064549372 -0.04184239 0.61900002 112 113 109 255
-0.062852576 -0.041844476 0.61900002 99 100 94 255
-0.061353136 -0.041981719 0.62100005 128 129 123 255
-0.059650388 -0.04198372 0.62100005 102 103 97 255
-0.057947401 -0.041985668 0.62100005 101 103 95 255
-0.056153625 -0.041919947 0.62 99 100 94 255
-0.054365106 -0.041854177 0.61900002 105 106 100 255
-0.052666951 -0.041855965 0.61900002 100 101 95 255
-0.051050916 -0.041925322 0.62 92 93 87 255
-0.049508803 -0.042062256 0.62200004 81 82 76 255
-0.047724959 -0.041996278 0.62100005 75 77 67 255
-0.045872297 -0.041862603 0.61900002 85 88 76 255
-0.044244517 -0.041931756 0.62 91 94 82 255
-0.042405222 -0.041797962 0.61800003 87 90 76 255
-0.040840216 -0.041934647 0.62 94 97 83 255
-0.03901156 -0.041800737 0.61800003 94 97 85 255
-0.037374865 -0.041869681 0.61900002 84 87 73 255
-0.035617262 -0.041803289 0.61800003 79 82 68 255
-0.033919893 -0.041804485 0.61800003 79 81 71 255
-0.032222379 -0.041805625 0.61800003 76 78 68 255
-0.030475343 -0.041739058 0.61700004 88 90 80 255
-0.028780315 -0.041740078 0.61700004 83 85 75 255
-0.02708517 -0.041741043 0.61700004 93 95 85 255
-0.025431063 -0.041809607 0.61800003 100 102 92 255
-0.023732947 -0.04181046 0.61800003 83 86 74 255
-0.021999082 -0.041743599 0.61700004 87 89 79 255
-0.020369336 -0.041879646 0.61900002 84 86 76 255
-0.018668195 -0.041880324 0.61900002 81 83 75 255
-0.016966976 -0.041880943 0.61900002 97 99 89 255
-0.015216363 -0.041746192 0.61700004 60 62 54 255
-0.013520504 -0.041746695 0.61700004 63 63 55 255
-0.01182459 -0.041747134 0.61700004 79 77 66 255
-0.010145039 -0.041815184 0.61800003 69 68 52 255
-0.0084599471 -0.041883167 0.61900002 74 73 57 255
-0.0067693223 -0.041951094 0.62 65 63 45 255
-0.0050568325 -0.041883644 0.61900002 55 55 37 255
-0.0033552395 -0.041883785 0.61900002 57 56 40 255
-0.0016563033 -0.041951541 0.62 58 57 43 255
4.8060083e-05 -0.041951563 0.62 71 70 54 255
0.0017467705 -0.041816209 0.61800003 67 66 50 255
0.0034456283 -0.041816119 0.61800003 57 56 40 255
0.0051611201 -0.041951295 0.62 55 52 36 255
0.0068765134 -0.042018749 0.62100005 60 58 40 255
0.008597374 -0.042086143 0.62200004 68 66 48 255
0.010307125 -0.042085808 0.62200004 50 48 30 255
0.012016831 -0.04208542 0.62200004 53 51 33 255
0.013748555 -0.042152628 0.62300003 62 60 42 255
0.015460902 -0.042152118 0.62300003 56 53 37 255
0.017173182 -0.042151548 0.62300003 58 55 41 255
0.018915704 -0.042218577 0.62400001 65 61 50 255
0.020630581 -0.042217892 0.62400001 65 61 50 255
0.02234537 -0.042217143 0.62400001 56 53 39 255
0.024021506 -0.042148683 0.62300003 58 54 43 255
0.025733354 -0.042147823 0.62300003 59 56 42 255
0.027489144 -0.042214554 0.62400001 66 62 51 255
0.029343918 -0.042416524 0.62700003 56 52 41 255
0.031165505 -0.042550776 0.62900001 60 56 45 255
0.032997951 -0.042684969 0.63100004 55 52 38 255
0.034731161 -0.042683803 0.63100004 56 53 39 255
0.036464229 -0.042682577 0.63100004 56 53 39 255
0.038257685 -0.042748943 0.63200003 59 56 40 255
0.040119749 -0.042882875 0.634 53 50 34 255
0.042058665 -0.04308439 0.63700002 55 51 35 255
0.043807562 -0.043082926 0.63700002 53 49 33 255
0.045484781 -0.043013781 0.63600004 53 49 32 255
0.047379091 -0.043147467 0.63800001 51 47 30 255
0.049207199 -0.043213464 0.63900006 51 47 30 255
0.051120337 -0.043347027 0.64100003 58 54 37 255
0.052879259 -0.04334528 0.64100003 47 43 26 255
0.054808453 -0.043478709 0.64300001 51 47 30 255
0.056660417 -0.043544464 0.64400005 50 46 29 255
0.058336202 -0.043474939 0.64300001 53 49 32 255
0.060099736 -0.043472968 0.64300001 50 46 29 255
0.061959255 -0.043538563 0.64400005 50 46 30 255
0.063922957 -0.043671694 0.64600003 51 45 29 255
0.065999091 -0.043872364 0.64900005 48 42 25 255
0.067778096 -0.043870166 0.64900005 52 46 29 255
0.069771208 -0.044003114 0.65100002 52 44 27 255
0.071665093 -0.044068404 0.65200001 55 47 30 255
0.073564202 -0.044133641 0.65300006 47 41 24 255
0.075353108 -0.044131238 0.65300006 44 38 22 255
0.077378012 -0.044263944 0.65500003 46 42 28 255
0.079534464 -0.044464163 0.65800005 43 39 23 255
0.081459828 -0.04452917 0.65900004 46 42 26 255
0.083390377 -0.044594124 0.66000003 45 39 23 255
0.084938839 -0.044456337 0.65800005 47 41 24 255
0.086739697 -0.044453643 0.65800005 46 40 23 255
0.088674814 -0.044518448 0.65900004 44 38 21 255
0.090752386 -0.04465076 0.66100001 47 41 24 255
0.092560522 -0.044647917 0.66100001 47 41 24 255
0.094368346 -0.044645041 0.66100001 47 41 25 255
0.096175842 -0.044642117 0.66100001 45 41 25 255
0.098575957 -0.044909287 0.66500002 47 43 27 255
0.1005447 -0.044973794 0.66600001 48 44 30 255
0.10251859 -0.045038264 0.66700006 51 48 34 255
0.10418472 -0.04496764 0.66600001 45 42 28 255
0.1061634 -0.045032017 0.66700006 45 41 27 255
0.10798532 -0.04502885 0.66700006 54 50 33 255
0.10997149 -0.045093141 0.66800004 50 44 27 255
0.11179544 -0.045089897 0.66800004 55 50 30 255
0.11395922 -0.045221604 0.67000002 51 46 25 255
0.11578792 -0.045218278 0.67000002 48 44 20 255
0.11796737 -0.0453499 0.67200005 46 42 18 255
0.11997911 -0.045413982 0.67300004 47 40 20 255
0.12181496 -0.045410555 0.67300004 48 41 21 255
0.12346672 -0.045339633 0.67200005 53 48 28 255
0.12511265 -0.045268696 0.671 50 45 25 255
0.12732035 -0.045400117 0.67300004 48 43 23 255
0.12973051 -0.04559895 0.67600006 47 43 26 255
0.131962 -0.04573027 0.67800003 42 38 21 255
0.13400669 -0.045794107 0.67900002 44 40 23 255
0.13545625 -0.045655604 0.67700005 47 43 26 255
0.13750292 -0.045719393 0.67800003 47 41 24 255
0.13955474 -0.045783155 0.67900002 50 42 25 255
0.14181988 -0.045914311 0.68100005 50 42 25 255
0.14346261 -0.045843173 0.68000001 45 38 18 255
0.14531325 -0.04583944 0.68000001 47 40 20 255
0.14716356 -0.045835696 0.68000001 49 42 21 255
0.14989005 -0.04610154 0.68400002 51 44 23 255
0.15175053 -0.046097748 0.68400002 48 41 20 255
0.15383527 -0.046161339 0.68500006 49 44 24 255
0.15524316 -0.046022747 0.68300003 45 39 22 255
0.15755996 -0.046153694 0.68500006 44 40 23 255
0.15965451 -0.046217225 0.68600005 47 43 26 255
0.16198961 -0.04634811 0.68800002 49 45 28 255
0.16362078 -0.04627689 0.68700004 51 47 30 255
0.16572794 -0.04634038 0.68800002 52 46 29 255
0.16710943 -0.04620181 0.68600005 39 35 18 255
0.16971126 -0.046399977 0.68900001 42 38 21 255
0.17158203 -0.046396106 0.68900001 47 44 24 255
0.17370422 -0.046459563 0.69000006 48 43 23 255
0.17532259 -0.046388354 0.68900001 44 39 19 255
0.17719242 -0.046384484 0.68900001 51 46 26 255
0.17932189 -0.046447944 0.69000006 47 40 20 255
0.18145643 -0.046511386 0.69100004 46 39 19 255
0.18333082 -0.046507519 0.69100004 47 42 22 255
0.18520497 -0.046503674 0.69100004 45 40 19 255
0.18707882 -0.046499833 0.69100004 47 42 21 255
0.1894993 -0.046630576 0.69300002 48 45 25 255
0.19137801 -0.04662675 0.69300002 45 42 22 255
0.19325653 -0.046622936 0.69300002 46 42 25 255
0.19457164 -0.046484604 0.69100004 48 44 27 255
0.19644424 -0.046480834 0.69100004 47 43 26 255
0.19889064 -0.046611607 0.69300002 44 38 21 255
0.20134762 -0.046742383 0.69500005 47 41 24 255
0.20381527 -0.046873152 0.69700003 42 36 19 255
0.2057033 -0.046869438 0.69700003 41 35 18 255
0.2075911 -0.04686575 0.69700003 49 43 27 255
0.20887768 -0.04672762 0.69500005 48 44 28 255
0.21106295 -0.046791229 0.69600004 46 42 26 255
0.21325353 -0.046854846 0.69700003 49 45 28 255
0.21575804 -0.046985719 0.69900006 48 44 27 255
0.21796182 -0.047049373 0.70000005 47 43 26 255
0.2201709 -0.047113057 0.70100003 48 43 23 255
0.22270209 -0.047243971 0.70300001 58 51 30 255
0.22492449 -0.047307707 0.70400006 57 50 29 255
0.22715221 -0.047371469 0.70500004 51 44 24 255
0.22906034 -0.047368068 0.70500004 54 47 27 255
0.23162363 -0.047499083 0.70700002 52 46 29 255
0.23419771 -0.047630128 0.70900005 59 53 36 255
0.23678252 -0.047761191 0.71100003 55 49 32 255
0.2393782 -0.047892291 0.71300006 59 55 38 255
0.24164617 -0.047956247 0.71400005 61 58 38 255
0.24391961 -0.048020247 0.71500003 53 48 28 255
0.24688615 -0.048218608 0.71800005 52 47 27 255
0.24952237 -0.048349839 0.72000003 56 51 30 255
0.25216949 -0.048481114 0.72200006 56 51 31 255
0.25412354 -0.048478138 0.72200006 57 51 34 255
0.25643229 -0.048542358 0.72300005 55 51 34 255
0.25910398 -0.048673771 0.72500002 54 50 33 255
0.26178661 -0.048805237 0.72700006 51 48 28 255
0.26448017 -0.048936747 0.72900003 52 49 28 255
0.2671847 -0.049068309 0.73100001 58 55 34 255
0.27026844 -0.04926705 0.73400003 77 75 51 255
0.27448133 -0.049667187 0.74000001 74 72 48 255
0.27760604 -0.049866017 0.74300003 73 70 50 255
0.28225264 -0.050333351 0.75000006 76 72 55 255
0.28655824 -0.0507336 0.75600004 77 73 56 255
0.29127839 -0.051200997 0.76300001 71 67 50 255
0.2956523 -0.051601339 0.76900005 70 67 53 255
0.29967186 -0.051934633 0.77400005 77 74 60 255
0.30449858 -0.052402172 0.78100002 77 74 60 255
-0.16305672 -0.048580654 0.69300002 222 228 230 255
-0.15791743 -0.047603179 0.67900002 193 200 199 255
-0.1544629 -0.047116332 0.67200005 184 189 185 255
-0.15104611 -0.046629392 0.66500002 185 188 184 255
-0.14834028 -0.046352733 0.66100001 177 180 176 255
-0.1460993 -0.046216287 0.65900004 178 181 177 255
-0.14408784 -0.046149939 0.65800005 179 183 176 255
