ply
format ascii 1.0
comment PCL generated
element vertex 970
property float x
property float y
property float z
property uchar red
property uchar green
property uchar blue
property uchar alpha
element camera 0
property float view_px
property float view_py
property float view_pz
property float x_axisx
property float x_axisy
property float x_axisz
property float y_axisx
property float y_axisy
property float y_axisz
property float z_axisx
property float z_axisy
property float z_axisz
property float focal
property float scalex
property float scaley
property float centerx
property float centery
property int viewportx
property int viewporty
property float k1
property float k2
end_header
0.21643987 -0.35705853 0.76200002 42 40 20 255
0.21853463 -0.35708168 0.76200002 38 36 16 255
0.22063002 -0.35710543 0.76200002 36 33 13 255
0.22243379 -0.35666111 0.76100004 37 34 14 255
0.22452775 -0.35668606 0.76100004 40 37 17 255
0.22692016 -0.35718027 0.76200002 44 39 18 255
0.22901823 -0.35720646 0.76200002 41 36 15 255
0.23172367 -0.35817096 0.76400006 41 36 15 255
0.23352268 -0.35772964 0.76300001 42 38 14 255
0.23624338 -0.3586956 0.76500005 46 41 20 255
0.23897585 -0.35966235 0.76700002 48 45 24 255
0.24234886 -0.36156788 0.77100003 57 55 37 255
0.24701311 -0.36535046 0.77900004 53 51 33 255
-0.3295365 -0.37677678 0.79500002 46 46 38 255
-0.32770711 -0.37718359 0.79600006 76 76 58 255
-0.32055858 -0.37143245 0.78400004 70 69 47 255
-0.31347942 -0.36568451 0.77200001 60 58 38 255
-0.30969551 -0.36372852 0.76800001 60 58 40 255
-0.30633625 -0.36224797 0.76500005 54 50 33 255
-0.3033931 -0.36124238 0.76300001 52 49 29 255
-0.30006805 -0.35976496 0.76000005 53 48 27 255
-0.29793742 -0.35970891 0.76000005 52 50 25 255
-0.29580835 -0.35965398 0.76000005 53 51 26 255
-0.29368082 -0.3596001 0.76000005 54 52 28 255
-0.2911711 -0.35907423 0.75900006 67 65 41 255
-0.28943014 -0.35949561 0.76000005 60 59 37 255
-0.28806299 -0.36039075 0.76200002 71 70 48 255
-0.28593564 -0.36034095 0.76200002 77 75 55 255
-0.28455454 -0.36123779 0.76400006 78 76 56 255
-0.28242427 -0.36118981 0.76400006 65 65 45 255
-0.28066221 -0.36161551 0.76500005 60 61 39 255
-0.27925998 -0.36251473 0.76700002 55 56 34 255
-0.27784789 -0.36341465 0.76900005 52 52 32 255
-0.27642584 -0.36431521 0.77100003 46 44 24 255
-0.27499393 -0.36521655 0.77300006 43 41 23 255
-0.2728461 -0.36517373 0.77300006 37 35 17 255
-0.27139992 -0.36607653 0.77500004 34 32 14 255
-0.26959625 -0.36650768 0.77600002 32 30 12 255
-0.26813284 -0.36741182 0.77800006 33 31 13 255
-0.26597568 -0.36737227 0.77800006 32 30 12 255
-0.26381958 -0.36733356 0.77800006 30 28 10 255
-0.26233721 -0.36823988 0.78000003 28 25 9 255
-0.26051116 -0.36867476 0.78100002 31 28 12 255
-0.25901148 -0.36958244 0.78300005 29 27 9 255
-0.25684556 -0.36954674 0.78300005 31 29 11 255
-0.25533119 -0.37045571 0.78500003 33 31 13 255
-0.25348413 -0.37089339 0.78600001 33 31 13 255
-0.25195226 -0.37180358 0.78800005 31 29 11 255
-0.25009322 -0.37224254 0.78900003 30 28 10 255
-0.24760114 -0.3717387 0.78800005 33 31 13 255
-0.24511541 -0.3712357 0.78700006 32 29 13 255
-0.2435621 -0.37214842 0.78900003 28 25 9 255
-0.24199861 -0.37306175 0.79100001 28 25 9 255
-0.24042489 -0.37397563 0.79300004 29 26 12 255
-0.23793966 -0.37347537 0.79200006 30 27 13 255
-0.23605599 -0.37391889 0.79300004 29 25 14 255
-0.23416758 -0.37436303 0.79400003 26 22 11 255
-0.23198225 -0.37433627 0.79400003 28 24 13 255
-0.230087 -0.37478161 0.79500002 27 23 12 255
-0.2276136 -0.37428471 0.79400003 25 23 12 255
-0.22543032 -0.37425986 0.79400003 24 22 11 255
-0.22212297 -0.37235025 0.79000002 20 18 7 255
-0.21688934 -0.36714244 0.77900004 23 20 4 255
-0.21144108 -0.36146459 0.76700002 39 37 19 255
-0.20660517 -0.35673043 0.75700003 47 46 24 255
-0.20263532 -0.35341105 0.75000006 49 48 26 255
-0.19897181 -0.3505637 0.74400002 44 43 21 255
-0.19613591 -0.34913075 0.74100006 50 49 25 255
-0.19331692 -0.34769842 0.73800004 51 50 26 255
-0.1907741 -0.34673783 0.73600006 45 44 20 255
-0.18849918 -0.34624892 0.73500001 46 45 21 255
-0.18597648 -0.34528944 0.73300004 45 43 19 255
-0.18321422 -0.34385946 0.73000002 46 44 20 255
-0.18022059 -0.34195903 0.72600001 49 44 23 255
-0.17774032 -0.3410013 0.72400004 45 43 19 255
-0.1757569 -0.34098598 0.72400004 47 46 24 255
-0.17377388 -0.34097105 0.72400004 45 43 25 255
-0.17155395 -0.3404856 0.72300005 49 47 29 255
-0.1693399 -0.34000066 0.72200006 43 41 21 255
-0.16666801 -0.33857426 0.71900004 46 45 23 255
-0.16470012 -0.33856103 0.71900004 42 41 19 255
-0.1622799 -0.33760643 0.71700001 45 44 22 255
-0.16031815 -0.33759397 0.71700001 43 41 21 255
-0.15769413 -0.33616942 0.71400005 47 45 25 255
-0.15552308 -0.33568695 0.71300006 42 40 20 255
-0.15314236 -0.33473399 0.71100003 43 41 21 255
-0.15119821 -0.33472303 0.71100003 45 43 23 255
-0.14883447 -0.33377084 0.70900005 44 42 22 255
-0.1468963 -0.33376053 0.70900005 40 38 18 255
-0.14475395 -0.33327979 0.708 40 38 20 255
-0.14241558 -0.33232868 0.70600003 49 47 27 255
-0.14008839 -0.33137792 0.70400006 46 44 24 255
-0.1379686 -0.3308982 0.70300001 47 45 25 255
-0.13566098 -0.3299481 0.70100003 43 41 21 255
-0.13355528 -0.32946897 0.70000005 44 42 22 255
-0.1312672 -0.32851949 0.69800001 46 44 24 255
-0.12936088 -0.32851163 0.69800001 46 44 24 255
-0.12708957 -0.32756269 0.69600004 45 44 22 255
-0.12500924 -0.32708472 0.69500005 48 45 24 255
-0.12275739 -0.32613638 0.69300002 49 47 23 255
-0.12051663 -0.32518831 0.69100004 50 48 24 255
-0.11828696 -0.32424051 0.68900001 49 46 25 255
-0.11640626 -0.32423413 0.68900001 51 49 31 255
-0.11419328 -0.32328683 0.68700004 48 46 28 255
-0.11199135 -0.32233977 0.68500006 52 50 32 255
-0.10963971 -0.32092237 0.68200004 52 48 31 255
-0.10746261 -0.31997579 0.68000001 60 58 38 255
-0.10545187 -0.31949997 0.67900002 62 60 40 255
-0.10344671 -0.31902435 0.67800003 58 56 38 255
-0.10144709 -0.31854895 0.67700005 68 68 50 255
-0.099600188 -0.31854424 0.67700005 60 60 42 255
-0.097608991 -0.31806916 0.67600006 60 58 38 255
-0.095623352 -0.31759429 0.67500001 68 67 45 255
-0.093365386 -0.31617859 0.67200005 64 62 42 255
-0.091396295 -0.31570405 0.671 55 53 33 255
-0.089165822 -0.31428871 0.66800004 52 50 32 255
-0.087344036 -0.31428501 0.66800004 49 47 27 255
-0.085266262 -0.31334049 0.66600001 52 50 30 255
-0.083324783 -0.3128666 0.66500002 47 45 25 255
-0.081511408 -0.31286329 0.66500002 48 47 23 255
-0.079698123 -0.31286022 0.66500002 56 55 33 255
-0.077884883 -0.31285718 0.66500002 62 60 40 255
-0.076071717 -0.31285429 0.66500002 56 54 34 255
-0.074258603 -0.31285146 0.66500002 46 44 26 255
-0.072554499 -0.31331927 0.66600001 44 42 24 255
-0.070632569 -0.3128463 0.66500002 48 45 25 255
-0.068819627 -0.31284383 0.66500002 44 41 21 255
-0.067107491 -0.31331193 0.66600001 44 42 22 255
-0.065193899 -0.31283927 0.66500002 47 45 25 255
-0.063381106 -0.31283715 0.66500002 48 46 26 255
-0.061383191 -0.31189427 0.66300005 46 44 26 255
-0.059486076 -0.3114219 0.66200006 45 43 25 255
-0.057768714 -0.31189045 0.66300005 44 40 23 255
-0.05587713 -0.31141829 0.66200006 39 35 18 255
-0.054236062 -0.31235743 0.66400003 42 37 17 255
-0.05258413 -0.31329662 0.66600001 39 34 14 255
-0.050997563 -0.31470636 0.66900003 42 37 17 255
-0.049174152 -0.31470487 0.66900003 40 33 12 255
-0.047279999 -0.31423306 0.66800004 51 46 25 255
-0.045323268 -0.31329095 0.66600001 50 46 22 255
-0.043573443 -0.3137601 0.66700006 49 45 21 255
-0.041692987 -0.31328851 0.66600001 62 59 38 255
-0.039997637 -0.31422821 0.66800004 77 74 53 255
-0.038119953 -0.31375676 0.66700006 76 74 50 255
-0.036356583 -0.31422618 0.66800004 71 70 46 255
-0.034536086 -0.31422526 0.66800004 58 57 33 255
-0.03276458 -0.31469479 0.66900003 59 60 36 255
-0.030987641 -0.31516436 0.67000002 51 52 30 255
-0.02916174 -0.31516355 0.67000002 53 53 35 255
-0.027295053 -0.31469247 0.66900003 51 49 31 255
-0.025471905 -0.31469184 0.66900003 45 43 23 255
-0.023613416 -0.31422085 0.66800004 44 40 23 255
-0.02179301 -0.31422028 0.66800004 46 41 21 255
-0.019912818 -0.31327897 0.66600001 41 36 16 255
-0.018125057 -0.31374893 0.66700006 48 44 27 255
-0.016331851 -0.31421891 0.66800004 40 36 19 255
-0.014533208 -0.31468895 0.66900003 43 41 21 255
-0.012710118 -0.31468859 0.66900003 37 35 15 255
-0.010903305 -0.31515869 0.67000002 42 40 20 255
-0.0090775006 -0.31515846 0.67000002 41 40 18 255
-0.0072516995 -0.31515828 0.67000002 49 47 27 255
-0.0054259007 -0.31515813 0.67000002 46 44 26 255
-0.0036001045 -0.31515804 0.67000002 48 45 29 255
-0.0017690135 -0.31421724 0.66800004 53 50 36 255
5.1484181e-05 -0.31515795 0.67000002 59 56 40 255
0.0018772783 -0.31515798 0.67000002 80 75 65 255
0.0037030729 -0.31515804 0.67000002 81 80 50 255
0.0055206171 -0.31468776 0.66900003 83 81 46 255
0.0073546683 -0.31515828 0.67000002 69 66 38 255
0.0091804694 -0.31515846 0.67000002 43 41 16 255
0.011006274 -0.31515872 0.67000002 44 43 21 255
0.012851236 -0.31562936 0.671 43 42 20 255
0.014701655 -0.31610012 0.67200005 45 43 23 255
0.01655753 -0.31657088 0.67300004 41 39 19 255
0.01841886 -0.31704167 0.67400002 39 37 17 255
0.020225545 -0.31657177 0.67300004 41 38 18 255
0.022059564 -0.31657225 0.67300004 40 37 17 255
0.023893593 -0.31657282 0.67300004 38 34 17 255
0.025804089 -0.31751421 0.67500001 38 36 18 255
0.027684547 -0.31798527 0.67600006 39 37 19 255
0.029526787 -0.31798598 0.67600006 45 41 24 255
0.031322636 -0.31751636 0.67500001 45 42 22 255
0.033211313 -0.31798762 0.67600006 42 37 17 255
0.035053596 -0.31798849 0.67600006 40 35 15 255
0.036950476 -0.31845984 0.67700005 49 44 24 255
0.038795523 -0.31846085 0.67700005 51 45 28 255
0.040820677 -0.31987309 0.68000001 47 41 24 255
0.042673934 -0.31987423 0.68000001 45 37 20 255
0.044592705 -0.32034585 0.68100005 50 42 25 255
0.046516944 -0.32081753 0.68200004 44 36 19 255
0.048588526 -0.32223013 0.68500006 54 44 25 255
0.050676487 -0.32364279 0.68800002 52 42 23 255
0.052780833 -0.32505551 0.69100004 69 59 40 255
0.054980669 -0.32693881 0.69500005 73 63 46 255
0.057202339 -0.32882214 0.69900006 74 63 42 255
0.059445854 -0.33070558 0.70300001 75 63 44 255
0.061623927 -0.33211872 0.70600003 58 48 29 255
0.063638374 -0.33259115 0.70700002 58 48 29 255
0.065565571 -0.33259323 0.70700002 51 41 22 255
0.067301884 -0.33165455 0.70500004 48 41 20 255
0.06951829 -0.3330681 0.708 47 40 17 255
0.071549281 -0.33354095 0.70900005 52 43 20 255
0.073689394 -0.33448431 0.71100003 59 50 27 255
0.075627744 -0.33448693 0.71100003 62 54 29 255
0.077675238 -0.3349601 0.71200001 77 68 45 255
0.079840086 -0.33590391 0.71400005 66 57 36 255
0.081901334 -0.33637732 0.71500003 47 40 19 255
0.084202655 -0.33779183 0.71800005 44 37 17 255
0.086280413 -0.33826557 0.71900004 46 38 21 255
0.088486403 -0.33920988 0.72100002 44 36 19 255
0.090703405 -0.34015444 0.72300005 47 37 18 255
0.092931375 -0.34109905 0.72500002 60 46 26 255
0.095039442 -0.34157345 0.72600001 77 63 43 255
0.097153053 -0.34204799 0.72700006 72 58 38 255
0.099408567 -0.34299317 0.72900003 60 46 29 255
0.10139691 -0.34299752 0.72900003 55 41 22 255
0.10366898 -0.34394309 0.73100001 48 34 17 255
0.10566301 -0.34394783 0.73100001 50 38 21 255
0.10809895 -0.34536433 0.73400003 53 41 24 255
0.11040138 -0.3463105 0.73600006 57 47 30 255
0.11271483 -0.3472569 0.73800004 72 62 45 255
0.11519478 -0.34867409 0.74100006 66 56 39 255
0.11737487 -0.34915039 0.74200004 69 59 40 255
0.11988239 -0.35056806 0.74500006 59 49 30 255
0.12240641 -0.35198596 0.74800003 46 36 17 255
0.12511332 -0.35387471 0.75200003 45 35 16 255
0.12784226 -0.35576382 0.75600004 47 37 18 255
0.13042137 -0.35718262 0.75900006 47 37 18 255
0.13319156 -0.3590723 0.76300001 44 32 13 255
0.13598377 -0.36096233 0.76700002 44 34 15 255
0.13897806 -0.36332333 0.77200001 47 39 22 255
0.14218259 -0.36615533 0.77800006 48 40 23 255
0.14560556 -0.36945838 0.78500003 36 30 13 255
0.14925522 -0.37323251 0.79300004 33 30 14 255
0.15294881 -0.37700722 0.80100006 24 22 11 255
0.15629895 -0.37984091 0.80700004 26 24 14 255
0.15850367 -0.37985098 0.80700004 16 16 6 255
0.16031036 -0.37891999 0.80500007 17 17 7 255
0.16190448 -0.37751848 0.80200005 17 17 7 255
0.16348249 -0.37611723 0.79900002 23 24 12 255
0.1650444 -0.37471631 0.79600006 24 23 9 255
0.16659015 -0.37331557 0.79300004 24 23 9 255
0.16811982 -0.37191513 0.79000002 24 23 9 255
0.17006448 -0.37145656 0.78900003 30 27 13 255
0.17222226 -0.37146914 0.78900003 32 29 15 255
0.17415935 -0.37101126 0.78800005 29 26 12 255
0.17564376 -0.36961201 0.78500003 30 27 11 255
0.17733864 -0.36868399 0.78300005 25 22 6 255
0.17902291 -0.36775625 0.78100002 24 21 5 255
0.18069659 -0.36682886 0.77900004 29 26 10 255
0.18235968 -0.36590177 0.77700001 30 28 10 255
0.18424964 -0.36544597 0.77600002 32 30 12 255
0.18613456 -0.36499065 0.77500004 32 30 12 255
0.18801437 -0.36453563 0.77400005 37 33 16 255
0.19013481 -0.36455205 0.77400005 36 33 13 255
0.19200724 -0.36409789 0.77300006 36 33 13 255
0.19387466 -0.36364415 0.77200001 38 35 15 255
0.19548315 -0.3627198 0.77000004 38 35 15 255
0.19708118 -0.36179581 0.76800001 34 32 14 255
0.19892806 -0.36134332 0.76700002 35 33 15 255
0.20103204 -0.36136243 0.76700002 38 36 18 255
0.2028717 -0.36091089 0.76600003 37 35 17 255
0.20470637 -0.36045983 0.76500005 38 36 18 255
0.2065361 -0.36000922 0.76400006 38 36 18 255
0.20863399 -0.36003035 0.76400006 35 33 15 255
0.21045659 -0.35958073 0.76300001 41 39 19 255
0.21227427 -0.3591316 0.76200002 36 34 16 255
0.21436839 -0.35915434 0.76200002 40 37 17 255
0.2164631 -0.35917765 0.76200002 32 30 10 255
0.21884528 -0.35967293 0.76300001 36 34 14 255
0.22065441 -0.35922599 0.76200002 40 37 17 255
0.22245876 -0.35877964 0.76100004 43 38 18 255
0.22484843 -0.35927683 0.76200002 42 37 17 255
0.22724426 -0.35977468 0.76300001 39 34 13 255
0.22934572 -0.35980165 0.76300001 44 39 18 255
0.23114461 -0.35935771 0.76200002 42 37 16 255
0.23324484 -0.359386 0.76200002 47 42 21 255
0.23627238 -0.36082998 0.76500005 50 45 24 255
0.23931721 -0.36227486 0.76800001 50 47 27 255
0.24269386 -0.36419249 0.77200001 56 54 36 255
0.24672766 -0.3670547 0.77800006 60 58 40 255
-0.33540925 -0.38571313 0.80900002 31 31 21 255
-0.32571542 -0.37706307 0.79100001 77 75 57 255
-0.3181698 -0.37080035 0.77800006 73 72 50 255
-0.3127299 -0.36692363 0.77000004 63 60 39 255
-0.30935344 -0.36543167 0.76700002 58 55 35 255
-0.3063961 -0.36441773 0.76500005 56 52 35 255
-0.30305395 -0.36292902 0.76200002 49 44 24 255
-0.300915 -0.36287048 0.76200002 55 50 29 255
-0.29838559 -0.36233699 0.76100004 54 50 25 255
-0.29625264 -0.36228085 0.76100004 51 47 22 255
-0.2937347 -0.36174974 0.76000005 57 53 28 255
-0.29122388 -0.36121988 0.75900006 53 49 24 255
-0.28948191 -0.36164296 0.76000005 53 51 27 255
-0.28773579 -0.36206686 0.76100004 63 60 39 255
-0.28561017 -0.36201599 0.76100004 65 63 45 255
-0.28385851 -0.36244181 0.76200002 65 63 45 255
-0.28173283 -0.36239287 0.76200002 61 59 41 255
-0.28034237 -0.363296 0.76400006 67 65 47 255
-0.27821377 -0.36324891 0.76400006 61 61 33 255
-0.27717051 -0.36462894 0.76700002 58 57 35 255
-0.27575326 -0.36553431 0.76900005 58 56 36 255
-0.27432609 -0.3664403 0.77100003 48 46 28 255
-0.27288902 -0.367347 0.77300006 45 43 25 255
-0.27109176 -0.36777923 0.77400005 36 32 15 255
-0.2696375 -0.36868736 0.77600002 38 34 17 255
-0.26782861 -0.36912107 0.77700001 35 31 14 255
-0.26669914 -0.37050563 0.78000003 32 30 12 255
-0.26453668 -0.37046587 0.78000003 31 29 11 255
-0.26271161 -0.37090179 0.78100002 27 24 8 255
-0.26021487 -0.37038884 0.78000003 28 25 9 255
-0.25871715 -0.37130117 0.78200006 30 27 11 255
-0.25688133 -0.37173936 0.78300005 30 28 10 255
-0.25536618 -0.37265298 0.78500003 30 28 10 255
-0.25384101 -0.37356725 0.78700006 32 30 12 255
-0.25198588 -0.37400746 0.78800005 30 28 10 255
-0.25044313 -0.37492293 0.79000002 32 30 12 255
-0.24763326 -0.3739408 0.78800005 32 30 12 255
-0.24545826 -0.37390864 0.78800005 27 24 8 255
-0.24359283 -0.37435159 0.78900003 26 23 7 255
-0.24202871 -0.37526968 0.79100001 28 25 9 255
-0.24045435 -0.37618828 0.79300004 28 25 11 255
-0.23826887 -0.37615874 0.79300004 27 24 10 255
-0.23667952 -0.37707853 0.79500002 25 21 10 255
-0.23478499 -0.37752455 0.79600006 23 19 8 255
-0.23288567 -0.37797117 0.79700005 27 23 12 255
-0.2306921 -0.3779442 0.79700005 24 22 11 255
-0.22821257 -0.37744367 0.79600006 23 21 10 255
-0.2257392 -0.3769438 0.79500002 24 22 11 255
-0.22270958 -0.37549648 0.79200006 22 20 9 255
-0.21691261 -0.36930907 0.77900004 20 19 3 255
-0.21146342 -0.36359707 0.76700002 39 37 19 255
-0.20662667 -0.35883448 0.75700003 50 48 28 255
-0.20265609 -0.35549489 0.75000006 45 44 22 255
-0.19872446 -0.35215631 0.74300003 46 45 23 255
-0.19615538 -0.35118827 0.74100006 52 51 27 255
-0.19307387 -0.34927306 0.73700005 51 50 26 255
-0.19079247 -0.34878021 0.73600006 48 47 23 255
-0.1882606 -0.34781402 0.73400003 43 41 17 255
-0.18599387 -0.34732226 0.73300004 47 43 19 255
-0.18323106 -0.34588334 0.73000002 47 43 19 255
-0.18048517 -0.34444505 0.72700006 46 41 20 255
-0.17800166 -0.34348112 0.72500002 50 47 27 255
-0.17577231 -0.34299144 0.72400004 47 45 27 255
-0.17378886 -0.34297597 0.72400004 44 42 24 255
-0.17156853 -0.34248722 0.72300005 46 44 26 255
-0.16911946 -0.34152523 0.72100002 47 45 27 255
-0.16621804 -0.33961633 0.71700001 40 38 18 255
-0.16402617 -0.33912897 0.71600002 44 42 22 255
-0.16206644 -0.33911565 0.71600002 40 39 17 255
-0.16033068 -0.3395763 0.71700001 44 43 21 255
-0.15792713 -0.33861655 0.71500003 45 43 23 255
-0.15531668 -0.33718359 0.71200001 44 42 22 255
-0.15315376 -0.33669823 0.71100003 41 39 19 255
-0.15120926 -0.33668676 0.71100003 45 43 25 255
-0.14905511 -0.33620211 0.71000004 46 44 26 255
-0.14669949 -0.3352443 0.708 43 41 23 255
-0.14455955 -0.3347604 0.70700002 46 44 26 255
-0.14222358 -0.33380333 0.70500004 51 49 29 255
-0.13989878 -0.33284658 0.70300001 41 39 19 255
-0.13778143 -0.33236369 0.70200002 42 40 22 255
-0.13547623 -0.33140764 0.70000005 45 43 25 255
-0.13337299 -0.33092535 0.69900006 43 41 23 255
-0.13108733 -0.32996994 0.69700003 44 42 24 255
-0.12899816 -0.32948828 0.69600004 49 46 26 255
-0.12691464 -0.32900688 0.69500005 44 41 21 255
-0.12465689 -0.32805237 0.69300002 49 46 25 255
-0.12258741 -0.32757154 0.69200003 47 44 23 255
-0.12034912 -0.3266176 0.69000006 49 46 25 255
-0.11829362 -0.32613727 0.68900001 49 46 25 255
-0.11641271 -0.32613054 0.68900001 49 47 29 255
-0.11419948 -0.3251774 0.68700004 50 48 30 255
-0.11183383 -0.32375115 0.68400002 55 53 35 255
-0.10948469 -0.3223252 0.68100005 51 47 30 255
-0.10731012 -0.32137278 0.67900002 56 53 33 255
-0.10530189 -0.32089385 0.67800003 53 51 33 255
-0.10345183 -0.32088849 0.67800003 57 55 37 255
-0.10145205 -0.32041001 0.67700005 58 58 40 255
-0.09945783 -0.31993172 0.67600006 60 60 42 255
-0.097469188 -0.31945363 0.67500001 56 54 36 255
-0.095344432 -0.31850246 0.67300004 62 60 40 255
-0.093230672 -0.31755146 0.671 56 54 36 255
-0.091264173 -0.31707394 0.67000002 55 53 35 255
-0.089169718 -0.31612337 0.66800004 57 55 37 255
-0.087217025 -0.31564614 0.66700006 52 50 30 255
-0.085141838 -0.31469586 0.66500002 50 48 28 255
-0.083453558 -0.31516543 0.66600001 48 46 26 255
-0.081637315 -0.31516188 0.66600001 52 51 27 255
-0.079821162 -0.31515852 0.66600001 59 58 36 255
-0.078005083 -0.31515527 0.66600001 60 58 38 255
-0.076074667 -0.31467894 0.66500002 59 57 37 255
-0.074149765 -0.31420273 0.66400003 54 52 32 255
-0.072230384 -0.31372666 0.66300005 46 43 23 255
-0.070316508 -0.31325072 0.66200006 46 43 23 255
-0.06851165 -0.3132481 0.66200006 46 44 24 255
-0.06690836 -0.31419194 0.66400003 44 42 24 255
-0.065098144 -0.31418946 0.66400003 45 43 25 255
-0.063383281 -0.31466031 0.66500002 50 48 30 255
-0.06138527 -0.31371179 0.66300005 42 40 22 255
-0.05957792 -0.31370965 0.66300005 38 36 18 255
-0.057857737 -0.31418076 0.66400003 38 34 17 255
-0.056047745 -0.31417882 0.66400003 38 34 17 255
-0.054319471 -0.31465012 0.66500002 46 41 21 255
-0.052506827 -0.31464839 0.66500002 43 38 18 255
-0.050846681 -0.31559303 0.66700006 45 38 18 255
-0.049028642 -0.31559139 0.66700006 46 39 18 255
-0.047210637 -0.31558985 0.66700006 42 37 16 255
-0.045324612 -0.31511527 0.66600001 47 40 17 255
-0.043574721 -0.31558707 0.66700006 51 44 21 255
-0.041756798 -0.31558576 0.66700006 53 49 25 255
-0.039879024 -0.31511137 0.66600001 69 65 41 255
-0.038063869 -0.31511018 0.66600001 76 72 47 255
-0.036303174 -0.31558225 0.66700006 76 74 49 255
-0.03453704 -0.31605434 0.66800004 81 81 55 255
-0.032765474 -0.3165265 0.66900003 66 66 40 255
-0.030988475 -0.31699872 0.67000002 65 63 45 255
-0.029162519 -0.31699786 0.67000002 57 57 37 255
-0.027336575 -0.31699708 0.67000002 51 51 33 255
-0.025472572 -0.31652322 0.66900003 46 44 24 255
-0.023614027 -0.31604943 0.66800004 44 42 24 255
-0.02176095 -0.31557569 0.66700006 45 42 22 255
-0.01994323 -0.31557515 0.66700006 39 36 16 255
-0.018125519 -0.31557462 0.66700006 44 40 23 255
-0.016332265 -0.31604725 0.66800004 43 41 23 255
-0.014511847 -0.31604683 0.66800004 49 47 27 255
-0.012710435 -0.31651962 0.66900003 49 47 27 255
-0.01087103 -0.31604618 0.66800004 46 44 24 255
-0.0090641771 -0.31651902 0.66900003 44 42 22 255
-0.007230232 -0.3160457 0.66800004 47 45 27 255
-0.005417936 -0.31651866 0.66900003 49 47 29 255
-0.0035948202 -0.31651855 0.66900003 52 49 33 255
-0.0017717051 -0.31651846 0.66900003 66 63 49 255
5.1485451e-05 -0.31699157 0.67000002 68 65 49 255
0.0018773244 -0.31699157 0.67000002 78 72 66 255
0.0037031644 -0.31699166 0.67000002 76 72 55 255
0.005529006 -0.31699178 0.67000002 72 70 38 255
0.0073548504 -0.31699196 0.67000002 63 59 34 255
0.0091806976 -0.31699216 0.67000002 49 45 20 255
0.010990121 -0.31651932 0.66900003 50 49 27 255
0.012832405 -0.31699273 0.67000002 47 46 24 255
0.014680146 -0.31746623 0.671 45 43 23 255
0.016557947 -0.3184129 0.67300004 41 39 19 255
0.018392002 -0.31841338 0.67300004 43 40 20 255
0.020226061 -0.31841388 0.67300004 46 43 23 255
0.022060134 -0.31841448 0.67300004 39 36 16 255
0.023894215 -0.31841511 0.67300004 41 39 19 255
0.025804769 -0.31936204 0.67500001 39 37 17 255
0.027644323 -0.31936276 0.67500001 40 38 18 255
0.029483896 -0.31936359 0.67500001 47 45 25 255
0.031369887 -0.31983757 0.67600006 45 42 21 255
0.033261348 -0.32031164 0.67700005 38 35 14 255
0.035106417 -0.32031265 0.67700005 41 38 18 255
0.036951508 -0.32031369 0.67700005 41 37 20 255
0.038911227 -0.32126105 0.67900002 44 38 21 255
0.040881872 -0.32220852 0.68100005 46 40 23 255
0.042800687 -0.32268298 0.68200004 48 42 25 255
0.044659499 -0.32268429 0.68200004 52 44 27 255
0.046586536 -0.32315886 0.68300003 42 36 19 255
0.048589993 -0.32410663 0.68500006 48 39 28 255
0.050604373 -0.3250545 0.68700004 47 37 28 255
0.052629691 -0.32600245 0.68900001 55 47 30 255
0.054824162 -0.3278968 0.69300002 65 57 40 255
0.05704049 -0.32979131 0.69700003 77 66 45 255
0.059363212 -0.33215907 0.70200002 82 72 55 255
0.061451379 -0.33310747 0.70400006 78 68 51 255
0.06355048 -0.33405593 0.70600003 75 65 46 255
0.065382309 -0.33358505 0.70500004 55 48 27 255
0.067399673 -0.33406058 0.70600003 50 43 20 255
0.069324344 -0.33406308 0.70600003 47 40 17 255
0.071349986 -0.33453882 0.70700002 58 49 26 255
0.073381126 -0.3350147 0.708 71 62 39 255
0.075417787 -0.33549073 0.70900005 73 64 41 255
0.077459961 -0.33596689 0.71000004 66 57 34 255
0.079507649 -0.33644316 0.71100003 56 47 26 255
0.08167541 -0.33739278 0.71300006 51 42 21 255
0.083854139 -0.33834252 0.71500003 46 39 19 255
0.086043864 -0.33929247 0.71700001 46 39 19 255
0.088367298 -0.34071577 0.72000003 46 36 17 255
0.090456255 -0.34119281 0.72100002 61 50 27 255
0.092550762 -0.34167004 0.72200006 75 62 39 255
0.094650798 -0.34214738 0.72300005 76 64 35 255
0.097023673 -0.34357142 0.72600001 66 52 32 255
0.09927664 -0.34452239 0.72800004 59 45 25 255
0.10126243 -0.34452707 0.72800004 54 42 23 255
0.10339014 -0.34500515 0.72900003 50 38 19 255
0.10566799 -0.34595674 0.73100001 47 35 16 255
0.10795685 -0.34690851 0.73300004 47 37 20 255
0.11040676 -0.34833378 0.73600006 44 34 17 255
0.11272042 -0.34928602 0.73800004 56 46 29 255
0.11504513 -0.35023847 0.74000001 62 52 33 255
0.11738092 -0.35119122 0.74200004 72 62 43 255
0.11972775 -0.35214418 0.74400002 67 57 38 255
0.1222493 -0.35357073 0.74700004 48 39 18 255
0.12495375 -0.35547087 0.75100005 45 36 15 255
0.12751111 -0.35689801 0.75400001 46 37 16 255
0.13042872 -0.35927215 0.75900006 45 35 16 255
0.13285004 -0.36022651 0.76100004 44 34 15 255
0.13581441 -0.36260131 0.76600003 43 33 14 255
0.13880627 -0.36497647 0.77100003 53 46 26 255
0.14237396 -0.36877227 0.77900004 50 42 25 255
0.14542904 -0.37114826 0.78400004 45 39 22 255
0.14907636 -0.37494493 0.79200006 33 30 16 255
0.15295854 -0.37921548 0.80100006 24 22 11 255
0.15630908 -0.38206625 0.80700004 21 19 9 255
0.15831771 -0.38160336 0.80600005 16 16 6 255
0.16012196 -0.38066727 0.80400002 14 16 6 255
0.16151176 -0.37878451 0.80000001 21 21 11 255
0.16349387 -0.37832251 0.79900002 23 24 12 255
0.16505606 -0.37691379 0.79600006 24 23 9 255
0.16681223 -0.37597886 0.79400003 27 24 10 255
0.16834494 -0.37457064 0.79100001 24 21 7 255
0.17029269 -0.37410986 0.79000002 28 25 11 255
0.17223528 -0.37364945 0.78900003 30 27 13 255
0.17417276 -0.37318936 0.78800005 29 26 12 255
0.17565753 -0.37178239 0.78500003 30 27 11 255
0.17712624 -0.37037575 0.78200006 31 28 12 255
0.1785789 -0.36896935 0.77900004 31 28 12 255
0.18024749 -0.36803699 0.77700001 30 28 10 255
0.18214022 -0.36757866 0.77600002 30 28 10 255
0.18426532 -0.36759436 0.77600002 30 28 10 255
0.18591043 -0.36666307 0.77400005 35 33 15 255
0.18778795 -0.36620593 0.77300006 33 31 13 255
0.18990606 -0.36622292 0.77300006 36 34 16 255
0.19202462 -0.36624038 0.77300006 37 34 14 255
0.19389251 -0.36578453 0.77200001 36 33 13 255
0.19550145 -0.36485523 0.77000004 36 33 13 255
0.19709988 -0.36392632 0.76800001 39 37 17 255
0.19894727 -0.36347178 0.76700002 38 36 16 255
0.20105173 -0.36349151 0.76700002 39 37 17 255
0.20315675 -0.36351183 0.76700002 34 32 12 255
0.20472705 -0.36258471 0.76500005 37 35 15 255
0.20655733 -0.36213204 0.76400006 36 34 14 255
0.20865574 -0.36215386 0.76400006 35 33 13 255
0.21075472 -0.36217624 0.76400006 37 35 15 255
0.2122971 -0.361251 0.76200002 36 34 14 255
0.21411042 -0.36080033 0.76100004 37 34 14 255
0.21591887 -0.36035016 0.76000005 34 32 12 255
0.21829617 -0.36084893 0.76100004 39 36 16 255
0.22010037 -0.3603999 0.76000005 38 33 13 255
0.22219212 -0.36042568 0.76000005 43 38 18 255
0.22487481 -0.36140063 0.76200002 39 34 13 255
0.22727132 -0.36190206 0.76300001 39 32 11 255
0.22937347 -0.36192983 0.76300001 40 36 12 255
0.23086958 -0.36100954 0.76100004 44 40 16 255
0.23357996 -0.36198741 0.76300001 51 44 21 255
0.2363022 -0.36296621 0.76500005 55 48 25 255
0.23997116 -0.36536932 0.77000004 55 49 24 255
0.24303979 -0.36682448 0.77300006 55 51 26 255
0.24707732 -0.36970434 0.77900004 52 49 28 255
-0.33921248 -0.39233363 0.81800002 22 23 17 255
-0.32619551 -0.37979382 0.79200006 77 75 57 255
-0.31987175 -0.37493101 0.78200006 69 68 46 255
-0.3132 -0.3695918 0.77100003 51 50 26 255
-0.30860904 -0.36665213 0.76500005 49 46 25 255
-0.30565599 -0.36563137 0.76300001 49 46 25 255
-0.30351144 -0.36557046 0.76300001 50 45 25 255
-0.30176353 -0.36598971 0.76400006 49 42 22 255
-0.2984429 -0.36449406 0.76100004 51 44 23 255
-0.29553011 -0.3634789 0.75900006 51 44 21 255
-0.29340321 -0.36342278 0.75900006 47 42 21 255
-0.2912778 -0.36336777 0.75900006 46 42 18 255
-0.28953481 -0.36379245 0.76000005 52 48 24 255
-0.2874096 -0.36373952 0.76000005 52 49 28 255
-0.28528574 -0.36368757 0.76000005 62 58 41 255
-0.2835359 -0.36411515 0.76100004 54 52 34 255
-0.28178182 -0.36454359 0.76200002 59 56 40 255
-0.2803905 -0.36545125 0.76400006 55 52 36 255
-0.27826092 -0.36540309 0.76400006 62 60 42 255
-0.27649403 -0.36583409 0.76500005 67 65 47 255
-0.27508149 -0.3667441 0.76700002 61 59 41 255
-0.27330321 -0.36717671 0.76800001 52 50 32 255
-0.27187365 -0.36808825 0.77000004 49 47 29 255
-0.27043414 -0.36900038 0.77200001 38 34 17 255
-0.26933223 -0.37039116 0.77500004 36 32 15 255
-0.26752529 -0.37082675 0.77600002 35 31 14 255
-0.26639786 -0.37221879 0.77900004 34 32 14 255
-0.26457652 -0.37265584 0.78000003 31 29 11 255
-0.26241425 -0.37261593 0.78000003 28 25 9 255
-0.25991932 -0.37209919 0.77900004 30 27 11 255
-0.25809279 -0.37253863 0.78000003 32 29 13 255
-0.25691798 -0.37393391 0.78300005 32 29 13 255
-0.25540215 -0.37485221 0.78500003 32 29 13 255
-0.25387627 -0.37577116 0.78700006 30 27 11 255
-0.25202039 -0.37621322 0.78800005 29 26 10 255
-0.25015992 -0.37665603 0.78900003 29 26 10 255
-0.24766628 -0.3761448 0.78800005 26 23 7 255
-0.24549054 -0.37611175 0.78800005 30 27 13 255
-0.24393319 -0.37703389 0.79000002 29 26 12 255
-0.24236567 -0.37795669 0.79200006 28 25 11 255
-0.24078792 -0.37887993 0.79400003 29 26 12 255
-0.23859896 -0.37884951 0.79400003 27 23 12 255
-0.23641078 -0.37881982 0.79400003 22 20 9 255
-0.23451833 -0.37926787 0.79500002 23 21 10 255
-0.23262118 -0.37971655 0.79600006 24 22 11 255
-0.23100866 -0.38064271 0.79800004 26 24 13 255
-0.2285257 -0.38013861 0.79700005 20 21 9 255
-0.22633289 -0.38011208 0.79700005 21 21 11 255
-0.22301583 -0.3781786 0.79300004 19 20 8 255
-0.21721511 -0.37195423 0.78000003 20 19 3 255
-0.21148647 -0.36573124 0.76700002 37 35 17 255
-0.2066489 -0.3609401 0.75700003 45 43 23 255
-0.20267755 -0.35758039 0.75000006 47 46 24 255
-0.19874519 -0.35422161 0.74300003 48 47 25 255
-0.19617558 -0.3532474 0.74100006 54 53 29 255
-0.19309342 -0.35132042 0.73700005 48 49 25 255
-0.19055225 -0.35034746 0.73500001 43 44 22 255
-0.18802257 -0.34937513 0.73300004 46 45 23 255
-0.18575808 -0.34887996 0.73200005 45 42 21 255
-0.18349953 -0.3483853 0.73100001 48 45 24 255
-0.18075038 -0.34693807 0.72800004 47 44 23 255
-0.17801808 -0.34549144 0.72500002 47 44 24 255
-0.17554548 -0.34452188 0.72300005 47 45 25 255
-0.17356436 -0.34450588 0.72300005 47 45 27 255
-0.17158364 -0.34449026 0.72300005 46 44 26 255
-0.16913411 -0.34352216 0.72100002 39 37 19 255
-0.16646409 -0.34207815 0.71800005 39 37 17 255
-0.16426906 -0.34158739 0.71700001 44 42 22 255
-0.1625326 -0.34204993 0.71800005 41 38 18 255
-0.16034372 -0.34156004 0.71700001 45 42 21 255
-0.15793976 -0.3405942 0.71500003 48 47 25 255
-0.1553289 -0.33915246 0.71200001 47 45 21 255
-0.1529502 -0.33818752 0.71000004 49 46 25 255
-0.1510081 -0.33817559 0.71000004 42 40 20 255
-0.14885634 -0.33768773 0.70900005 43 41 23 255
-0.14691754 -0.33767647 0.70900005 50 48 30 255
-0.14457004 -0.33671302 0.70700002 46 44 26 255
-0.14243548 -0.3362262 0.70600003 45 43 25 255
-0.14010763 -0.33526352 0.70400006 42 40 22 255
-0.13798723 -0.33477738 0.70300001 40 38 20 255
-0.13529189 -0.33286297 0.69900006 45 42 26 255
-0.13357273 -0.33332992 0.70000005 47 44 28 255
-0.13128403 -0.33236852 0.69800001 43 41 23 255
-0.1293772 -0.33235985 0.69800001 43 41 23 255
-0.12692271 -0.33092296 0.69500005 54 52 32 255
-0.12502448 -0.33091483 0.69500005 51 49 29 255
-0.12277211 -0.32995471 0.69300002 44 43 21 255
-0.12070525 -0.32947096 0.69200003 50 48 28 255
-0.11830065 -0.3280353 0.68900001 46 44 24 255
-0.11625054 -0.32755208 0.68800002 49 46 25 255
-0.1140398 -0.3265931 0.68600005 52 49 28 255
-0.11184014 -0.32563433 0.68400002 55 52 31 255
-0.10949077 -0.32419977 0.68100005 50 47 27 255
-0.10731595 -0.32324147 0.67900002 53 50 30 255
-0.10546285 -0.32323554 0.67900002 48 45 29 255
-0.10360988 -0.32322982 0.67900002 53 50 34 255
-0.10130745 -0.32179624 0.67600006 58 56 38 255
-0.099168636 -0.32083887 0.67400002 58 56 38 255
-0.097040854 -0.31988174 0.67200005 66 64 46 255
-0.095065765 -0.31940076 0.671 57 55 37 255
-0.09295731 -0.31844404 0.66900003 54 52 34 255
-0.091268517 -0.31891546 0.67000002 58 56 38 255
-0.089173891 -0.31795907 0.66800004 54 52 34 255
-0.087221049 -0.3174789 0.66700006 57 55 37 255
-0.085145704 -0.31652284 0.66500002 52 50 30 255
-0.083457269 -0.31699488 0.66600001 49 47 27 255
-0.081518315 -0.31651512 0.66500002 52 51 29 255
-0.079704754 -0.31651151 0.66500002 55 54 32 255
-0.07777413 -0.31603208 0.66400003 55 54 32 255
-0.075963438 -0.31602871 0.66400003 51 48 27 255
-0.074041136 -0.31554958 0.66300005 56 53 32 255
-0.072233312 -0.31554648 0.66300005 41 38 18 255
-0.07031931 -0.31506756 0.66200006 46 43 23 255
-0.068617828 -0.31554067 0.66300005 46 44 26 255
-0.066910937 -0.31601381 0.66400003 53 51 33 255
-0.06519866 -0.31648713 0.66500002 49 47 29 255
-0.063480981 -0.31696048 0.66600001 45 43 25 255
-0.0616653 -0.3169581 0.66600001 40 38 18 255
-0.059849672 -0.31695578 0.66600001 43 41 21 255
-0.058034092 -0.31695357 0.66600001 44 41 21 255
-0.056134135 -0.31647554 0.66500002 43 40 20 255
-0.054321364 -0.31647351 0.66500002 39 35 18 255
-0.052429672 -0.31599572 0.66400003 40 34 17 255
-0.050848398 -0.31742156 0.66700006 43 38 18 255
-0.048956778 -0.31694391 0.66600001 44 37 17 255
-0.04714141 -0.31694221 0.66600001 52 45 24 255
-0.045258034 -0.31646475 0.66500002 58 51 28 255
-0.043641452 -0.31789091 0.66800004 46 39 16 255
-0.041820731 -0.31788948 0.66800004 47 43 19 255
-0.04000004 -0.31788811 0.66800004 51 47 23 255
-0.038065057 -0.31693506 0.66600001 58 52 27 255
-0.036195431 -0.31645802 0.66500002 79 73 48 255
-0.034382977 -0.31645682 0.66500002 85 83 51 255
-0.032717485 -0.31788343 0.66800004 77 75 50 255
-0.030989401 -0.31883413 0.67000002 80 77 56 255
-0.029206909 -0.31930906 0.671 76 74 54 255
-0.027296579 -0.31835648 0.66900003 58 56 36 255
-0.025473313 -0.31835565 0.66900003 48 46 28 255
-0.023579361 -0.31740317 0.66700006 47 45 27 255
-0.021728946 -0.31692663 0.66600001 45 43 25 255
-0.019913895 -0.31692597 0.66600001 39 35 18 255
-0.018126033 -0.31740129 0.66700006 47 43 26 255
-0.016308278 -0.31740078 0.66700006 47 43 26 255
-0.014512256 -0.31787616 0.66800004 47 44 23 255
-0.012691793 -0.3178758 0.66800004 51 46 26 255
-0.010887606 -0.3183513 0.66900003 52 49 29 255
-0.0090644294 -0.318351 0.66900003 49 46 25 255
-0.0072412561 -0.31835076 0.66900003 52 51 29 255
-0.0054099872 -0.31787473 0.66800004 48 46 26 255
-0.0035949196 -0.31835046 0.66900003 70 68 48 255
-0.0017717542 -0.31835037 0.66900003 78 76 56 255
5.1486866e-05 -0.3188262 0.67000002 81 77 60 255
0.0018773763 -0.31882623 0.67000002 81 77 61 255
0.0037032666 -0.31882632 0.67000002 67 62 42 255
0.0055209068 -0.31835061 0.66900003 61 54 34 255
0.0073660319 -0.3193025 0.671 49 39 30 255
0.0091809528 -0.31882685 0.67000002 45 39 22 255
0.011006856 -0.31882715 0.67000002 47 43 26 255
0.012813611 -0.31835166 0.66900003 43 39 22 255
0.01465868 -0.31882793 0.67000002 40 36 19 255
0.016509207 -0.31930423 0.671 42 39 19 255
0.018365195 -0.31978065 0.67200005 45 41 24 255
0.020196585 -0.31978121 0.67200005 49 46 26 255
0.022060767 -0.32025772 0.67300004 52 49 29 255
0.023894904 -0.32025841 0.67300004 43 41 23 255
0.025767291 -0.32073507 0.67400002 49 46 26 255
0.027604181 -0.32073587 0.67400002 44 41 20 255
0.029484771 -0.32121262 0.67500001 50 48 24 255
0.031324416 -0.32121357 0.67500001 47 45 21 255
0.033213217 -0.32169044 0.67600006 51 48 27 255
0.03505563 -0.32169157 0.67600006 43 40 20 255
0.036952641 -0.32216859 0.67700005 44 41 21 255
0.038855132 -0.32264569 0.67800003 40 34 17 255
0.040823124 -0.32359874 0.68000001 42 36 19 255
0.042802043 -0.32455191 0.68200004 43 37 20 255
0.04472642 -0.32502925 0.68300003 41 35 18 255
0.046656262 -0.32550669 0.68400002 47 43 27 255
0.048733465 -0.32693598 0.68700004 43 39 23 255
0.050606068 -0.32693774 0.68700004 49 46 30 255
0.052555092 -0.32741544 0.68800002 48 44 27 255
0.054509591 -0.3278932 0.68900001 46 40 23 255
0.056960635 -0.33122653 0.69600004 53 46 26 255
0.059196182 -0.33313227 0.70000005 69 60 39 255
0.061278991 -0.33408633 0.70200002 77 68 47 255
0.063282736 -0.33456454 0.70300001 80 69 46 255
0.065291978 -0.33504292 0.70400006 65 57 32 255
0.067306727 -0.3355214 0.70500004 60 52 25 255
0.069326982 -0.33600003 0.70600003 57 51 24 255
0.071251817 -0.3360028 0.70600003 60 52 27 255
0.073280357 -0.33648166 0.70700002 73 64 41 255
0.075314417 -0.33696061 0.708 69 60 39 255
0.077572197 -0.33839163 0.71100003 58 49 28 255
0.079622746 -0.33887088 0.71200001 51 44 24 255
0.08167883 -0.33935031 0.71300006 48 41 21 255
0.083740428 -0.33982989 0.71400005 42 37 17 255
0.086047582 -0.34126151 0.71700001 50 43 23 255
0.088248439 -0.34221739 0.71900004 48 41 20 255
0.090334833 -0.34269741 0.72000003 68 59 38 255
0.092426762 -0.34317762 0.72100002 76 67 46 255
0.094524257 -0.34365806 0.72200006 68 58 39 255
0.096894585 -0.34509057 0.72500002 56 46 27 255
0.09914501 -0.34604734 0.72700006 52 42 25 255
0.10126735 -0.34652832 0.72800004 50 40 23 255
0.10339525 -0.34700951 0.72900003 51 41 22 255
0.10567328 -0.34796685 0.73100001 48 38 19 255
0.10796237 -0.34892449 0.73300004 40 32 15 255
0.11026247 -0.34988233 0.73500001 37 31 14 255
0.11272638 -0.35131645 0.73800004 46 38 21 255
0.11505132 -0.35227475 0.74000001 50 42 25 255
0.11738732 -0.35323334 0.74200004 53 45 28 255
0.1197344 -0.35419217 0.74400002 62 54 37 255
0.1222562 -0.35562736 0.74700004 52 42 23 255
0.12496094 -0.35753891 0.75100005 49 42 21 255
0.12751856 -0.35897467 0.75400001 42 35 14 255
0.13026461 -0.3608869 0.75800002 42 35 14 255
0.13320725 -0.36327553 0.76300001 45 36 15 255
0.13617739 -0.36566454 0.76800001 46 36 17 255
0.13917507 -0.368054 0.77300006 56 49 29 255
0.14220025 -0.37044379 0.77800006 54 46 29 255
0.14543845 -0.37331018 0.78400004 43 37 20 255
0.14908615 -0.37712935 0.79200006 37 34 20 255
0.15335073 -0.38237762 0.80300003 25 21 10 255
0.15651344 -0.38476926 0.80800003 20 18 7 255
0.15852509 -0.38430411 0.80700004 15 15 5 255
0.16013321 -0.38288683 0.80400002 17 17 9 255
0.16152331 -0.38099355 0.80000001 16 16 6 255
0.16330111 -0.38005301 0.79800004 20 20 10 255
0.16527563 -0.37958905 0.79700005 23 21 10 255
0.16724499 -0.37912545 0.79600006 24 22 11 255
0.16878349 -0.37770957 0.79300004 26 23 9 255
0.17052147 -0.3767702 0.79100001 26 23 9 255
0.17224887 -0.37583128 0.78900003 31 28 14 255
0.17396565 -0.37489259 0.78700006 33 30 16 255
0.17544805 -0.37347791 0.78400004 31 30 14 255
0.17736743 -0.37301633 0.78300005 28 27 11 255
0.17882319 -0.37160227 0.78000003 31 31 13 255
0.18049489 -0.37066489 0.77800006 30 30 12 255
0.18215603 -0.36972797 0.77600002 34 32 14 255
0.18404408 -0.36926779 0.77500004 31 29 11 255
0.18568689 -0.36833158 0.77300006 32 30 12 255
0.18780504 -0.36834875 0.77300006 32 30 12 255
0.18967789 -0.36788979 0.77200001 35 31 14 255
0.19179422 -0.36790788 0.77200001 32 29 9 255
0.19365978 -0.36744985 0.77100003 35 33 13 255
0.19526643 -0.3665157 0.76900005 39 37 17 255
0.19711924 -0.3660585 0.76800001 35 33 13 255
0.1989671 -0.36560181 0.76700002 35 33 13 255
0.20107211 -0.36562225 0.76700002 33 31 11 255
0.20344254 -0.36611992 0.76800001 38 36 16 255
0.20501608 -0.36518797 0.76600003 37 36 14 255
0.20684959 -0.36473325 0.76500005 37 35 15 255
0.20895132 -0.36475584 0.76500005 36 34 14 255
0.21077771 -0.3643021 0.76400006 35 33 13 255
0.21259923 -0.36384889 0.76300001 36 34 16 255
0.21441588 -0.3633962 0.76200002 40 36 19 255
0.21594352 -0.36246714 0.76000005 39 35 18 255
0.21803454 -0.36249241 0.76000005 38 33 13 255
0.22012621 -0.36251834 0.76000005 44 39 19 255
0.22251101 -0.36302194 0.76100004 39 34 14 255
0.22460686 -0.36304915 0.76100004 42 37 17 255
0.22700129 -0.36355412 0.76200002 44 39 18 255
0.22910133 -0.36358267 0.76200002 45 40 19 255
0.23089871 -0.36313471 0.76100004 43 38 17 255
0.23360984 -0.36411902 0.76300001 47 40 17 255
0.23633286 -0.3651042 0.76500005 53 46 23 255
0.23937935 -0.36656752 0.76800001 57 51 26 255
0.24244329 -0.36803189 0.77100003 56 50 25 255
0.24679354 -0.37140676 0.77800006 59 55 31 255
-0.32642776 -0.37970898 0.78700006 46 46 36 255
-0.32667702 -0.38253275 0.79300004 70 67 51 255
-0.32157573 -0.37908694 0.78600001 72 70 52 255
-0.3148905 -0.37371475 0.77500004 57 56 34 255
-0.30947956 -0.36979207 0.76700002 60 58 34 255
-0.30571815 -0.36780015 0.76300001 49 47 27 255
-0.30277669 -0.36677399 0.76100004 47 45 27 255
-0.30142835 -0.36767685 0.76300001 47 43 26 255
-0.29850146 -0.36665338 0.76100004 46 41 21 255
-0.29636624 -0.36659479 0.76100004 49 42 21 255
-0.29345936 -0.36557403 0.75900006 45 40 19 255
-0.29133287 -0.36551782 0.75900006 51 49 25 255
-0.2895889 -0.36594421 0.76000005 50 48 24 255
-0.28708437 -0.36540863 0.75900006 44 41 20 255
-0.2849623 -0.36535567 0.75900006 42 40 20 255
-0.28358689 -0.36626625 0.76100004 48 46 28 255
-0.28220174 -0.36717767 0.76300001 54 51 35 255
-0.28007263 -0.36712748 0.76300001 55 52 38 255
-0.27794483 -0.36707824 0.76300001 64 61 45 255
-0.27617985 -0.36751109 0.76400006 64 61 45 255
-0.27512798 -0.36890671 0.76700002 59 56 40 255
-0.27334881 -0.36934114 0.76800001 54 50 33 255
-0.27191842 -0.37025717 0.77000004 42 38 21 255
-0.27012774 -0.37069315 0.77100003 40 36 19 255
-0.2686803 -0.3716107 0.77300006 38 34 17 255
-0.26653326 -0.37156749 0.77300006 35 31 14 255
-0.26541346 -0.37296706 0.77600002 38 36 18 255
-0.26393884 -0.3738867 0.77800006 33 31 13 255
-0.26211774 -0.37432641 0.77900004 31 29 11 255
-0.25962472 -0.37380594 0.77800006 28 26 8 255
-0.25746921 -0.37376684 0.77800006 30 27 11 255
-0.25629923 -0.37516972 0.78100002 29 26 10 255
-0.25446287 -0.37561247 0.78200006 27 24 8 255
-0.25326717 -0.37701645 0.78500003 25 22 6 255
-0.25141612 -0.37746054 0.78600001 29 26 10 255
-0.24956046 -0.37790531 0.78700006 28 25 9 255
-0.24770017 -0.3783507 0.78800005 26 23 7 255
-0.24614684 -0.37927696 0.79000002 26 23 9 255
-0.24458332 -0.38020375 0.79200006 27 24 10 255
-0.2427036 -0.38065115 0.79300004 27 24 10 255
-0.24081911 -0.38109913 0.79400003 26 23 9 255
-0.23862946 -0.38106784 0.79400003 27 23 12 255
-0.23644057 -0.38103727 0.79400003 22 20 9 255
-0.23454748 -0.38148728 0.79500002 22 20 9 255
-0.23294194 -0.38241768 0.79700005 24 22 11 255
-0.23103656 -0.38286886 0.79800004 21 19 8 255
-0.22855291 -0.38236114 0.79700005 18 18 8 255
-0.22607546 -0.38185415 0.79600006 20 20 10 255
-0.22276039 -0.37990877 0.79200006 21 19 9 255
-0.2169614 -0.37364739 0.77900004 21 18 4 255
-0.2115103 -0.36786717 0.76700002 40 36 19 255
-0.20694482 -0.363527 0.75800002 47 42 22 255
-0.20296998 -0.36014712 0.75100005 46 43 22 255
-0.19903409 -0.3567681 0.74400002 48 47 25 255
-0.19646117 -0.35578763 0.74200004 52 51 27 255
-0.19311363 -0.35336936 0.73700005 46 45 21 255
-0.19057189 -0.35239017 0.73500001 50 49 27 255
-0.18804167 -0.35141164 0.73300004 51 50 28 255
-0.18552285 -0.35043368 0.73100001 47 45 25 255
-0.18351762 -0.35041499 0.73100001 47 45 25 255
-0.18076794 -0.34895885 0.72800004 47 45 25 255
-0.17828068 -0.34798259 0.72600001 46 45 23 255
-0.17556202 -0.34652758 0.72300005 48 45 24 255
-0.17310028 -0.34555238 0.72100002 55 52 31 255
-0.17112462 -0.34553629 0.72100002 47 45 21 255
-0.16891474 -0.34504133 0.72000003 41 38 17 255
-0.16694258 -0.34502608 0.72000003 45 42 22 255
-0.16428339 -0.34357363 0.71700001 48 45 25 255
-0.16232017 -0.34355921 0.71700001 43 40 19 255
-0.16013366 -0.34306607 0.71600002 41 38 17 255
-0.15795292 -0.34257329 0.71500003 48 46 22 255
-0.15555984 -0.34160185 0.71300006 49 47 23 255
-0.15339342 -0.3411099 0.71200001 44 42 18 255
-0.15080741 -0.33966023 0.70900005 46 43 23 255
-0.14886799 -0.33964819 0.70900005 41 39 21 255
-0.14672162 -0.3391574 0.708 44 42 24 255
-0.14478549 -0.33914602 0.708 48 46 28 255
-0.14264789 -0.33865601 0.70700002 45 43 25 255
-0.14031696 -0.33768731 0.70500004 43 40 24 255
-0.13799721 -0.33671898 0.70300001 44 41 25 255
-0.13568865 -0.33575097 0.70100003 48 45 31 255
-0.13358209 -0.3352623 0.70000005 50 47 31 255
-0.13129309 -0.334295 0.69800001 51 49 31 255
-0.12920062 -0.33380699 0.69700003 45 43 25 255
-0.12693119 -0.33284035 0.69500005 49 47 27 255
-0.12467287 -0.33187401 0.69300002 48 46 28 255
-0.12260286 -0.33138686 0.69200003 49 47 29 255
-0.12036405 -0.33042112 0.69000006 45 43 25 255
-0.11847976 -0.3304134 0.69000006 43 41 23 255
-0.11625769 -0.32944825 0.68800002 46 44 24 255
-0.11421295 -0.32896215 0.68700004 51 48 27 255
-0.11184681 -0.3275187 0.68400002 47 44 24 255
-0.1094972 -0.32607552 0.68100005 55 51 34 255
-0.1071641 -0.32463261 0.67800003 52 50 32 255
-0.10531352 -0.32462639 0.67800003 51 48 32 255
-0.10331047 -0.32414153 0.67700005 60 57 43 255
-0.10116313 -0.32317811 0.67500001 65 62 46 255
-0.098879717 -0.32173619 0.67200005 65 62 46 255
-0.096901603 -0.32125196 0.671 60 58 40 255
-0.094929069 -0.320768 0.67000002 54 52 34 255
-0.093101047 -0.32076299 0.67000002 49 47 29 255
-0.091136925 -0.32027939 0.66900003 53 50 34 255
-0.089178354 -0.31979597 0.66800004 58 56 38 255
-0.087225348 -0.31931275 0.66700006 62 62 44 255
-0.085149825 -0.31835094 0.66500002 56 54 34 255
-0.083335929 -0.31834674 0.66500002 50 48 28 255
-0.081399553 -0.317864 0.66400003 46 44 24 255
-0.07958857 -0.31786013 0.66400003 52 50 30 255
-0.077660538 -0.31737772 0.66300005 51 48 27 255
-0.075852431 -0.31737411 0.66300005 52 49 28 255
-0.074044406 -0.31737068 0.66300005 51 48 28 255
-0.072236449 -0.31736737 0.66300005 48 45 24 255
-0.07042855 -0.31736419 0.66300005 48 45 25 255
-0.068620726 -0.31736112 0.66300005 44 40 23 255
-0.066712186 -0.31687954 0.66200006 52 50 30 255
-0.064907193 -0.31687668 0.66200006 49 46 26 255
-0.063292913 -0.31783131 0.66400003 44 41 21 255
-0.061482582 -0.31782871 0.66400003 41 39 19 255
-0.05985203 -0.31878349 0.66600001 43 41 21 255
-0.05803635 -0.31878111 0.66600001 46 43 23 255
-0.056136291 -0.31830016 0.66500002 45 43 23 255
-0.054241728 -0.31781933 0.66400003 42 38 21 255
-0.052352667 -0.31733862 0.66300005 40 36 19 255
-0.0506978 -0.3182939 0.66500002 43 38 18 255
-0.048885047 -0.31829196 0.66500002 46 41 21 255
-0.047001544 -0.31781155 0.66400003 44 39 19 255
-0.045191582 -0.31780982 0.66400003 47 42 21 255
-0.043512326 -0.31876543 0.66600001 45 40 19 255
-0.041822188 -0.31972113 0.66800004 50 45 24 255
-0.040001418 -0.31971964 0.66800004 47 42 21 255
-0.038180672 -0.31971824 0.66800004 44 39 18 255
-0.036251087 -0.31875968 0.66600001 52 46 21 255
-0.034384131 -0.31827983 0.66500002 75 73 39 255
-0.032620613 -0.31875727 0.66600001 77 73 48 255
-0.030897917 -0.31971341 0.66800004 79 77 53 255
-0.02912081 -0.320191 0.66900003 78 77 55 255
-0.027256656 -0.31971142 0.66800004 67 66 44 255
-0.025436055 -0.31971055 0.66800004 63 61 41 255
-0.023580115 -0.31923112 0.66700006 57 55 35 255
-0.021762267 -0.31923035 0.66700006 51 49 29 255
-0.019944428 -0.31922963 0.66700006 48 45 25 255
-0.018126603 -0.31922904 0.66700006 47 43 26 255
-0.016333239 -0.31970707 0.66800004 52 49 29 255
-0.014490981 -0.31922796 0.66700006 48 43 22 255
-0.012654183 -0.31874892 0.66600001 50 45 24 255
-0.010855394 -0.31922716 0.66700006 50 45 24 255
-0.009051159 -0.31970543 0.66800004 56 52 27 255
-0.0072306544 -0.31970516 0.66800004 62 60 36 255
-0.0054020546 -0.31922635 0.66700006 62 61 37 255
-0.0035789083 -0.31874761 0.66600001 77 76 52 255
-0.00176916 -0.31970474 0.66800004 79 77 53 255
5.1411593e-05 -0.32018328 0.66900003 75 72 51 255
0.0018802359 -0.32114053 0.671 66 64 40 255
