ply
format ascii 1.0
comment PCL generated
element vertex 972
property float x
property float y
property float z
property uchar red
property uchar green
property uchar blue
property uchar alpha
element camera 0
property float view_px
property float view_py
property float view_pz
property float x_axisx
property float x_axisy
property float x_axisz
property float y_axisx
property float y_axisy
property float y_axisz
property float z_axisx
property float z_axisy
property float z_axisz
property float focal
property float scalex
property float scaley
property float centerx
property float centery
property int viewportx
property int viewporty
property float k1
property float k2
end_header
0.2784698 -0.37040004 0.77000004 56 53 32 255
-0.33691755 -0.37196821 0.76500005 20 26 19 255
-0.31942254 -0.35487145 0.73000002 33 32 28 255
-0.31604001 -0.35333619 0.72700006 72 70 52 255
-0.31699541 -0.35666209 0.73400003 60 58 38 255
-0.31576791 -0.35755885 0.73600006 56 55 31 255
-0.31240013 -0.35602799 0.73300004 63 60 40 255
-0.30862802 -0.35401341 0.72900003 62 60 40 255
-0.30614206 -0.35345751 0.72800004 56 54 34 255
-0.30408135 -0.35338852 0.72800004 72 70 52 255
-0.30160767 -0.35283542 0.72700006 71 70 48 255
-0.29955348 -0.35276899 0.72700006 67 66 42 255
-0.29791027 -0.35318887 0.72800004 73 72 48 255
-0.29666957 -0.35409489 0.73000002 65 65 39 255
-0.29501575 -0.3545168 0.73100001 59 59 31 255
-0.29295722 -0.35445479 0.73100001 63 62 38 255
-0.2912983 -0.35487878 0.73200005 52 51 27 255
-0.28963536 -0.35530373 0.73300004 56 55 31 255
-0.2879684 -0.35572964 0.73400003 43 40 19 255
-0.2866869 -0.35664105 0.73600006 42 39 18 255
-0.285009 -0.35706881 0.73700005 45 40 19 255
-0.28332698 -0.35749748 0.73800004 39 34 13 255
-0.28164083 -0.35792708 0.73900002 41 38 17 255
-0.27919394 -0.35738903 0.73800004 38 35 14 255
-0.27750504 -0.35782057 0.73900002 40 37 16 255
-0.27543923 -0.35776886 0.73900002 36 34 14 255
-0.2737447 -0.35820222 0.74000001 33 31 11 255
-0.27204594 -0.3586365 0.74100006 33 31 13 255
-0.27034289 -0.35907155 0.74200004 30 28 10 255
-0.26827398 -0.35902363 0.74200004 35 33 15 255
-0.26620629 -0.3589766 0.74200004 36 32 15 255
-0.26449585 -0.35941431 0.74300003 35 31 14 255
-0.26313424 -0.36033648 0.74500006 35 31 14 255
-0.26141226 -0.36077568 0.74600005 37 33 16 255
-0.25933823 -0.36073217 0.74600005 36 33 13 255
-0.25692043 -0.36020598 0.74500006 38 35 15 255
-0.2551935 -0.36064771 0.74600005 38 35 15 255
-0.25380135 -0.36157352 0.74800003 40 37 17 255
-0.25138962 -0.36105004 0.74700004 40 35 14 255
-0.24898441 -0.36052746 0.74600005 40 35 15 255
-0.24691679 -0.36048907 0.74600005 41 36 16 255
-0.24517836 -0.36093462 0.74700004 38 35 15 255
-0.24343529 -0.36138085 0.74800003 34 30 13 255
-0.24168769 -0.36182779 0.74900001 38 34 17 255
-0.2402554 -0.36275849 0.75100005 31 29 11 255
-0.23881292 -0.36368972 0.75300002 32 29 13 255
-0.23704591 -0.3641386 0.75400001 29 26 12 255
-0.23527424 -0.36458817 0.75500005 28 25 11 255
-0.23318899 -0.36455545 0.75500005 25 21 10 255
-0.2317168 -0.3654891 0.75700003 26 22 11 255
-0.23023434 -0.36642331 0.75900006 24 20 9 255
-0.22874166 -0.36735803 0.76100004 25 21 11 255
-0.22694089 -0.36781058 0.76200002 22 20 10 255
-0.22543041 -0.3687464 0.76400006 19 16 9 255
-0.22361739 -0.36920014 0.76500005 21 18 12 255
-0.22179951 -0.36965442 0.76600003 18 15 9 255
-0.21825607 -0.36721411 0.76100004 25 22 15 255
-0.21275251 -0.36139715 0.74900001 149 150 138 255
-0.20703435 -0.35509923 0.73600006 66 66 48 255
-0.20305966 -0.35169739 0.72900003 47 48 26 255
-0.19967565 -0.3492614 0.72400004 46 45 21 255
-0.19631971 -0.34682631 0.71900004 43 42 18 255
-0.19326216 -0.34487441 0.71500003 46 45 23 255
-0.19022714 -0.34292331 0.71100003 46 45 21 255
-0.18774426 -0.34193754 0.70900005 45 43 18 255
-0.18474872 -0.33998787 0.70500004 51 48 20 255
-0.18229429 -0.33900338 0.70300001 50 47 19 255
-0.17959478 -0.33753732 0.70000005 51 47 22 255
-0.17716601 -0.33655402 0.69800001 53 49 25 255
-0.17474869 -0.33557135 0.69600004 54 49 28 255
-0.17259112 -0.33507133 0.69500005 47 44 23 255
-0.17043945 -0.33457181 0.69400001 46 43 23 255
-0.16829371 -0.3340728 0.69300002 44 41 21 255
-0.16615385 -0.33357424 0.69200003 44 42 24 255
-0.16401988 -0.33307624 0.69100004 43 41 23 255
-0.16212636 -0.33306056 0.69100004 41 39 21 255
-0.16000135 -0.3325634 0.69000006 44 40 23 255
-0.15788217 -0.33206663 0.68900001 47 44 24 255
-0.15576884 -0.33157033 0.68800002 47 44 23 255
-0.15366131 -0.33107445 0.68700004 44 42 18 255
-0.15111773 -0.32961518 0.68400002 46 44 20 255
-0.14859088 -0.32815638 0.68100005 45 43 19 255
-0.14651166 -0.32766175 0.68000001 50 46 22 255
-0.14465097 -0.32764938 0.68000001 55 48 27 255
-0.14258055 -0.32715553 0.67900002 48 41 20 255
-0.14051589 -0.326662 0.67800003 47 40 19 255
-0.13845697 -0.32616886 0.67700005 45 41 17 255
-0.13660558 -0.32615787 0.67700005 48 46 22 255
-0.13455538 -0.32566541 0.67600006 50 49 27 255
-0.13231458 -0.32469153 0.67400002 44 42 22 255
-0.13008498 -0.32371804 0.67200005 43 41 21 255
-0.12805733 -0.32322654 0.671 41 38 18 255
-0.12584731 -0.32225373 0.66900003 43 40 19 255
-0.12401915 -0.32224455 0.66900003 50 47 26 255
-0.12182592 -0.32127237 0.66700006 48 46 26 255
-0.12000366 -0.32126376 0.66700006 45 43 23 255
-0.11782721 -0.32029215 0.66500002 45 43 25 255
-0.11583631 -0.31980246 0.66400003 51 49 31 255
-0.11350764 -0.31834981 0.66100001 46 44 24 255
-0.11170248 -0.3183423 0.66100001 49 46 25 255
-0.10973123 -0.31785339 0.66000003 47 46 22 255
-0.10792914 -0.31784633 0.66000003 45 44 20 255
-0.10580559 -0.31687635 0.65800005 49 49 23 255
-0.10353504 -0.31542507 0.65500003 38 37 13 255
-0.10143636 -0.3144556 0.65300006 43 42 18 255
-0.099348731 -0.31348634 0.65100002 46 45 23 255
-0.097422019 -0.31299889 0.65000004 52 50 30 255
-0.095500909 -0.31251162 0.64900005 52 50 32 255
-0.093440935 -0.31154305 0.64700001 54 52 34 255
-0.091533706 -0.31105623 0.64600003 56 53 37 255
-0.089632042 -0.31056958 0.64500004 55 52 36 255
-0.087872177 -0.31056464 0.64500004 53 50 34 255
-0.08597891 -0.31007835 0.64400005 56 53 37 255
-0.084352747 -0.31055519 0.64500004 57 55 37 255
-0.082337081 -0.30958781 0.64300001 57 55 37 255
-0.080457717 -0.30910203 0.64200002 48 47 25 255
-0.078461334 -0.30813497 0.64000005 53 51 31 255
-0.076595798 -0.30764955 0.63900006 53 52 30 255
-0.074618645 -0.3066828 0.63700002 47 46 24 255
-0.072881319 -0.30667913 0.63700002 46 43 22 255
-0.071144059 -0.30667558 0.63700002 44 41 20 255
-0.069515832 -0.30715361 0.63800001 48 45 24 255
-0.067563526 -0.30618751 0.63600004 52 50 26 255
-0.065829203 -0.30618435 0.63600004 48 45 24 255
-0.064195707 -0.30666271 0.63700002 46 44 20 255
-0.062458776 -0.30665982 0.63700002 44 42 18 255
-0.0607219 -0.30665705 0.63700002 44 42 18 255
-0.058799874 -0.30569157 0.63500005 48 44 19 255
-0.057158422 -0.30617034 0.63600004 48 46 21 255
-0.055337273 -0.3056865 0.63500005 51 49 25 255
-0.053521626 -0.30520272 0.634 51 49 25 255
-0.051874865 -0.30568191 0.63500005 45 44 22 255
-0.050301652 -0.30664253 0.63700002 46 44 24 255
-0.048717581 -0.30760324 0.63900006 37 35 15 255
-0.046902094 -0.30711988 0.63800001 45 43 25 255
-0.045092098 -0.3066366 0.63700002 41 39 21 255
-0.043355651 -0.30663484 0.63700002 45 43 25 255
-0.041619234 -0.30663311 0.63700002 37 35 17 255
-0.039820243 -0.30615014 0.63600004 43 41 23 255
-0.038086612 -0.30614862 0.63600004 43 40 20 255
-0.036524486 -0.30759126 0.63900006 47 44 23 255
-0.034837164 -0.30807123 0.64000005 51 47 23 255
-0.033144411 -0.30855128 0.64100003 69 65 41 255
-0.031348269 -0.30806872 0.64000005 79 75 50 255
-0.029603858 -0.30806756 0.64000005 62 58 34 255
-0.027859466 -0.30806652 0.64000005 55 52 31 255
-0.02611509 -0.3080655 0.64000005 54 51 31 255
-0.024332654 -0.30758324 0.63900006 44 40 23 255
-0.022555679 -0.30710098 0.63800001 44 40 23 255
-0.020816803 -0.30710018 0.63800001 45 42 22 255
-0.019077936 -0.30709946 0.63800001 45 42 22 255
-0.017339084 -0.30709881 0.63800001 48 45 25 255
-0.015624696 -0.30757961 0.63900006 47 42 21 255
-0.01392659 -0.30854174 0.64100003 46 41 20 255
-0.012198593 -0.30902264 0.64200002 42 39 19 255
-0.010481426 -0.30998495 0.64400005 49 45 28 255
-0.0086991619 -0.30902186 0.64200002 50 46 29 255
-0.0069278064 -0.30805892 0.64000005 44 40 23 255
-0.0051673562 -0.30709603 0.63800001 45 39 22 255
-0.0034393067 -0.30805856 0.64000005 40 34 17 255
-0.0016950605 -0.30805847 0.64000005 42 36 19 255
4.9261493e-05 -0.30853978 0.64100003 45 41 24 255
0.0017962321 -0.30853981 0.64100003 41 37 20 255
0.0035487313 -0.30902123 0.64200002 39 36 15 255
0.0052984301 -0.30902138 0.64200002 48 44 20 255
0.0070591113 -0.30950293 0.64300001 50 46 22 255
0.0088252472 -0.30998462 0.64400005 57 51 26 255
0.010580409 -0.30998495 0.64400005 65 59 34 255
0.012354732 -0.31046668 0.64500004 77 73 49 255
0.014112636 -0.31046715 0.64500004 81 77 53 255
0.015870547 -0.31046769 0.64500004 66 64 40 255
0.017655797 -0.31094962 0.64600003 53 50 29 255
0.019416455 -0.31095028 0.64600003 39 36 15 255
0.021209903 -0.31143236 0.64700001 35 32 12 255
0.022973312 -0.31143317 0.64700001 43 37 20 255
0.024698503 -0.31095272 0.64600003 41 35 18 255
0.026500175 -0.31143501 0.64700001 36 32 15 255
0.02826363 -0.311436 0.64700001 40 34 17 255
0.029980695 -0.31095576 0.64600003 41 35 18 255
0.031790596 -0.31143826 0.64700001 41 35 18 255
0.033605974 -0.31192088 0.648 42 38 21 255
0.035426829 -0.31240356 0.64900005 41 37 20 255
0.037138525 -0.31192359 0.648 44 41 21 255
0.039024919 -0.31288782 0.65000004 49 46 26 255
0.040796712 -0.3128894 0.65000004 43 40 20 255
0.042568535 -0.31289104 0.65000004 44 41 21 255
0.044340387 -0.31289276 0.65000004 45 42 21 255
0.046183217 -0.31337598 0.65100002 47 42 21 255
0.048105206 -0.31434068 0.65300006 44 39 18 255
0.049961731 -0.31482404 0.65400004 47 40 19 255
0.051902872 -0.31578892 0.65600002 49 40 19 255
0.053854961 -0.31675398 0.65800005 48 37 16 255
0.055817999 -0.3177191 0.66000003 52 40 21 255
0.057704683 -0.31820294 0.66100001 58 48 23 255
0.059596878 -0.3186869 0.66200006 71 58 34 255
0.061587323 -0.31965241 0.66400003 81 69 42 255
0.063779682 -0.32158086 0.66800004 67 59 32 255
0.065993913 -0.32350942 0.67200005 69 61 34 255
0.067927219 -0.32399395 0.67300004 61 53 28 255
0.070177026 -0.32592285 0.67700005 50 43 20 255
0.072235927 -0.32688904 0.67900002 53 46 23 255
0.07452403 -0.32881823 0.68300003 49 40 17 255
0.076274842 -0.3283405 0.68200004 54 46 21 255
0.078363962 -0.3293072 0.68400002 49 40 17 255
0.080346771 -0.32979259 0.68500006 52 43 20 255
0.082455151 -0.33075961 0.68700004 48 41 20 255
0.084451765 -0.33124533 0.68800002 62 55 34 255
0.086579412 -0.33221275 0.69000006 65 55 36 255
0.088846251 -0.33366174 0.69300002 62 52 35 255
0.090998642 -0.33462954 0.69500005 61 51 34 255
0.092894733 -0.33463454 0.69500005 49 39 22 255
0.094790913 -0.3346397 0.69500005 47 37 20 255
0.096965447 -0.33560807 0.69700003 48 38 21 255
0.099292852 -0.33705816 0.70000005 51 42 21 255
0.10149219 -0.33802697 0.70200002 59 49 24 255
0.10384987 -0.33947757 0.70500004 74 64 39 255
0.10607401 -0.34044686 0.70700002 66 56 29 255
0.10815644 -0.34093481 0.708 62 51 28 255
0.11055546 -0.34238613 0.71100003 57 46 23 255
0.11281279 -0.34335622 0.71300006 68 57 34 255
0.11508121 -0.34432653 0.71500003 74 63 42 255
0.11703332 -0.34433392 0.71500003 67 56 35 255
0.11915202 -0.34482321 0.71600002 53 42 21 255
0.12127636 -0.34531271 0.71700001 55 44 23 255
0.12357821 -0.34628415 0.71900004 51 42 21 255
0.12589116 -0.34725586 0.72100002 49 39 20 255
0.12856992 -0.34919119 0.72500002 48 39 18 255
0.13109067 -0.35064524 0.72800004 41 34 13 255
0.1334452 -0.35161793 0.73000002 46 37 16 255
0.13599643 -0.3530727 0.73300004 44 35 14 255
0.13856426 -0.35452783 0.73600006 41 31 12 255
0.14133973 -0.35646504 0.74000001 45 35 16 255
0.14413732 -0.35840267 0.74400002 42 32 13 255
0.1477429 -0.36226776 0.75200003 43 36 16 255
0.15139246 -0.36613336 0.76000005 42 36 19 255
0.15508606 -0.36999953 0.76800001 39 36 16 255
0.15820971 -0.37242106 0.77300006 41 39 19 255
0.16136098 -0.37484303 0.77800006 35 34 12 255
0.16559061 -0.37967464 0.78800005 90 88 68 255
0.16923665 -0.38306147 0.79500002 107 105 87 255
0.17076525 -0.38163045 0.79200006 21 19 1 255
0.17271443 -0.38116342 0.79100001 27 23 7 255
0.17443742 -0.38021487 0.78900003 31 28 14 255
0.17682131 -0.38071242 0.79000002 26 23 9 255
0.17853135 -0.37976465 0.78800005 26 23 9 255
0.18000153 -0.37833521 0.78500003 29 26 12 255
0.18145569 -0.37690619 0.78200006 23 20 6 255
0.18312857 -0.37595937 0.78000003 26 23 9 255
0.18455341 -0.37453094 0.77700001 24 20 9 255
0.18596227 -0.3731029 0.77400005 25 22 8 255
0.1878411 -0.3726393 0.77300006 26 23 9 255
0.18996064 -0.37265819 0.77300006 28 25 11 255
0.19158366 -0.37171334 0.77100003 27 24 10 255
0.19294499 -0.37028676 0.76800001 27 24 10 255
0.19454429 -0.36934271 0.76600003 30 27 13 255
0.19638985 -0.36888126 0.76500005 28 25 9 255
0.19823046 -0.36842021 0.76400006 26 25 9 255
0.20006606 -0.36795971 0.76300001 31 28 12 255
0.20189674 -0.36749971 0.76200002 31 28 12 255
0.20318706 -0.36607555 0.75900006 30 27 11 255
0.20500241 -0.36561641 0.75800002 34 31 15 255
0.20653962 -0.36467546 0.75600004 29 27 9 255
0.20834239 -0.36421737 0.75500005 30 28 10 255
0.21014024 -0.36375973 0.75400001 29 27 9 255
0.21193327 -0.36330268 0.75300002 29 27 9 255
0.21372139 -0.36284617 0.75200003 32 30 12 255
0.21579164 -0.36287272 0.75200003 35 33 15 255
0.21728316 -0.36193478 0.75000006 33 31 11 255
0.2190568 -0.36147988 0.74900001 35 33 13 255
0.22082566 -0.3610256 0.74800003 39 36 16 255
0.2225897 -0.36057189 0.74700004 39 36 16 255
0.22404829 -0.35963604 0.74500006 37 34 14 255
0.22579999 -0.3591834 0.74400002 38 33 13 255
0.2278533 -0.35921428 0.74400002 44 38 21 255
0.23021643 -0.35972872 0.74500006 38 32 15 255
0.23227409 -0.35976103 0.74500006 39 34 14 255
0.23433256 -0.35979402 0.74500006 35 32 12 255
0.23639192 -0.35982776 0.74500006 35 33 13 255
0.23813204 -0.3593792 0.74400002 36 34 14 255
0.2401904 -0.3594144 0.74400002 38 35 15 255
0.24224968 -0.35945043 0.74400002 38 35 15 255
0.24430989 -0.35948715 0.74400002 40 35 15 255
0.24603994 -0.35904148 0.74300003 40 35 14 255
0.2480993 -0.35907978 0.74300003 44 39 19 255
0.249823 -0.3586356 0.74200004 39 34 14 255
0.25222111 -0.3591589 0.74300003 38 33 12 255
0.25428355 -0.35919967 0.74300003 44 39 18 255
0.25634712 -0.35924137 0.74300003 49 42 19 255
0.25875956 -0.35976744 0.74400002 49 42 19 255
0.26152927 -0.36077818 0.74600005 53 46 25 255
0.26431122 -0.36179 0.74800003 55 48 27 255
0.26710549 -0.36280304 0.75000006 58 51 30 255
0.27062997 -0.36478481 0.75400001 52 48 24 255
0.27634829 -0.36967129 0.76400006 61 58 37 255
-0.32730988 -0.36340705 0.74300003 30 34 26 255
-0.32125184 -0.3589246 0.73400003 49 49 41 255
-0.31959552 -0.35933438 0.73500001 77 78 54 255
-0.32095945 -0.36316687 0.74300003 69 69 39 255
-0.31755957 -0.36162362 0.74000001 59 59 33 255
-0.31289986 -0.35861659 0.73400003 50 45 24 255
-0.30912319 -0.35658911 0.73000002 60 57 37 255
-0.30705363 -0.35651723 0.73000002 50 46 29 255
-0.3045682 -0.3559584 0.72900003 57 55 37 255
-0.30209035 -0.35540098 0.72800004 71 69 49 255
-0.29961997 -0.35484508 0.72700006 66 64 44 255
-0.29797566 -0.35526657 0.72800004 60 58 40 255
-0.29592094 -0.35520118 0.72800004 62 61 39 255
-0.29467526 -0.3561126 0.73000002 66 65 43 255
-0.29261839 -0.35604945 0.73000002 59 59 41 255
-0.29175729 -0.35745043 0.73300004 63 61 41 255
-0.28969526 -0.35738936 0.73300004 59 58 36 255
-0.28763485 -0.3573294 0.73300004 48 46 26 255
-0.28596556 -0.35775799 0.73400003 47 45 25 255
-0.28429228 -0.35818753 0.73500001 40 37 17 255
-0.28299883 -0.35910526 0.73700005 39 36 16 255
-0.28093332 -0.35904941 0.73700005 34 32 12 255
-0.27886927 -0.35899466 0.73700005 37 35 15 255
-0.27718222 -0.35942796 0.73800004 39 37 17 255
-0.2751182 -0.35937521 0.73800004 34 32 12 255
-0.27379552 -0.36029726 0.74000001 38 36 16 255
-0.2720958 -0.36073321 0.74100006 36 34 16 255
-0.27039188 -0.36117002 0.74200004 35 33 15 255
-0.26868358 -0.36160767 0.74300003 32 30 12 255
-0.2666122 -0.3615596 0.74300003 31 29 11 255
-0.26489806 -0.36199895 0.74400002 34 32 14 255
-0.26317963 -0.36243919 0.74500006 35 33 15 255
-0.26145676 -0.36288017 0.74600005 34 32 12 255
-0.2590341 -0.36234924 0.74500006 34 32 12 255
-0.25730798 -0.36279193 0.74600005 35 33 13 255
-0.25591961 -0.3637217 0.74800003 35 32 12 255
-0.2541818 -0.36416584 0.74900001 36 33 13 255
-0.25176638 -0.36363849 0.74800003 36 31 11 255
-0.24935754 -0.36311209 0.74700004 38 33 13 255
-0.2472863 -0.36307269 0.74700004 38 33 13 255
-0.24554433 -0.36352006 0.74800003 36 33 13 255
-0.24347228 -0.36348221 0.74800003 38 35 15 255
-0.24172392 -0.36393106 0.74900001 38 34 17 255
-0.24061091 -0.36535227 0.75200003 34 30 13 255
-0.23884782 -0.36580241 0.75300002 30 27 11 255
-0.23676564 -0.36576742 0.75300002 28 25 9 255
-0.23499602 -0.36621889 0.75400001 29 26 12 255
-0.23353063 -0.36715671 0.75600004 27 24 10 255
-0.23174892 -0.36760947 0.75700003 24 20 9 255
-0.23026586 -0.36854845 0.75900006 24 20 9 255
-0.22817132 -0.36851686 0.75900006 20 18 8 255
-0.22637543 -0.36897147 0.76000005 19 17 7 255
-0.22516495 -0.37039757 0.76300001 20 18 8 255
-0.22364639 -0.37133873 0.76500005 20 17 10 255
-0.22211753 -0.37228039 0.76700002 20 17 11 255
-0.21885727 -0.37031052 0.76300001 21 19 9 255
-0.21419942 -0.36591515 0.75400001 104 105 91 255
-0.20818512 -0.35909474 0.74000001 148 148 130 255
-0.2036414 -0.354702 0.73100001 43 44 22 255
-0.19969951 -0.3512809 0.72400004 49 48 26 255
-0.19579671 -0.34786084 0.71700001 48 45 24 255
-0.19301429 -0.34638229 0.71400005 49 46 25 255
-0.18998137 -0.34441939 0.71000004 46 45 23 255
-0.18750063 -0.34342739 0.708 48 47 23 255
-0.18476935 -0.34195101 0.70500004 46 46 20 255
-0.18257369 -0.34144536 0.70400006 43 43 15 255
-0.17987086 -0.33997023 0.70100003 49 49 23 255
-0.17743883 -0.33898079 0.69900006 43 41 17 255
-0.17476712 -0.33750695 0.69600004 45 42 21 255
-0.1723607 -0.33651865 0.69400001 46 43 22 255
-0.1702113 -0.33601579 0.69300002 45 40 19 255
-0.16831072 -0.3359983 0.69300002 45 40 19 255
-0.16593027 -0.33501154 0.69100004 43 40 19 255
-0.16403596 -0.33499494 0.69100004 41 38 17 255
-0.16190742 -0.33449402 0.69000006 46 43 22 255
-0.1597847 -0.33399352 0.68900001 49 44 23 255
-0.15766786 -0.33349347 0.68800002 47 42 21 255
-0.15555683 -0.33299387 0.68700004 45 41 17 255
-0.15367535 -0.33297941 0.68700004 45 41 17 255
-0.15113132 -0.33151129 0.68400002 41 39 15 255
-0.14860405 -0.3300437 0.68100005 44 43 19 255
-0.14630899 -0.32906115 0.67900002 49 46 26 255
-0.14445068 -0.32904831 0.67900002 47 44 24 255
-0.14259264 -0.32903579 0.67900002 52 45 25 255
-0.14052765 -0.32853907 0.67800003 49 42 21 255
-0.13867292 -0.32852724 0.67800003 51 46 25 255
-0.13661668 -0.32803121 0.67700005 49 47 23 255
-0.13456614 -0.32753551 0.67600006 53 50 29 255
-0.13232502 -0.3265557 0.67400002 48 46 26 255
-0.13009508 -0.32557622 0.67200005 47 45 25 255
-0.12806714 -0.32508153 0.671 44 42 22 255
-0.12585679 -0.32410276 0.66900003 45 42 21 255
-0.12384298 -0.32360876 0.66800004 48 46 22 255
-0.12146953 -0.32214621 0.66500002 52 49 28 255
-0.11965244 -0.32213721 0.66500002 49 48 26 255
-0.11783558 -0.32212853 0.66500002 48 46 26 255
-0.11566997 -0.32115132 0.66300005 52 50 30 255
-0.11351546 -0.3201744 0.66100001 49 47 27 255
-0.11154108 -0.31968215 0.66000003 48 45 24 255
-0.10990485 -0.32015881 0.66100001 50 49 27 255
-0.10793625 -0.31966707 0.66000003 43 42 20 255
-0.10581247 -0.31869125 0.65800005 48 47 23 255
-0.10354168 -0.31723133 0.65500003 51 50 28 255
-0.10144276 -0.31625599 0.65300006 49 48 24 255
-0.099354908 -0.31528091 0.65100002 51 50 28 255
-0.097427994 -0.3147904 0.65000004 53 52 30 255
-0.095506668 -0.31430006 0.64900005 54 52 32 255
-0.09359093 -0.31380993 0.648 57 55 35 255
-0.091680788 -0.31332007 0.64700001 53 51 33 255
-0.089776203 -0.31283036 0.64600003 49 47 29 255
-0.087877192 -0.31234089 0.64500004 51 48 32 255
-0.085983746 -0.31185156 0.64400005 60 58 40 255
-0.084226653 -0.31184667 0.64400005 54 52 32 255
-0.082213514 -0.31087348 0.64200002 49 47 27 255
-0.080336735 -0.31038472 0.64100003 47 46 24 255
-0.078342907 -0.30941191 0.63900006 57 56 34 255
-0.076599814 -0.30940771 0.63900006 46 45 23 255
-0.074739665 -0.30891943 0.63800001 46 43 22 255
-0.072885044 -0.3084313 0.63700002 46 44 20 255
-0.071035959 -0.30794337 0.63600004 53 51 27 255
-0.069410332 -0.30842391 0.63700002 54 52 28 255
-0.06767308 -0.30842042 0.63700002 52 50 26 255
-0.065832391 -0.30793288 0.63600004 51 48 27 255
-0.064097993 -0.30792964 0.63600004 42 40 16 255
-0.06226562 -0.3074424 0.63500005 43 41 17 255
-0.060534079 -0.30743945 0.63500005 44 42 18 255
-0.058709979 -0.30695239 0.634 45 43 18 255
-0.056981273 -0.30694962 0.634 45 43 18 255
-0.055252619 -0.30694702 0.634 47 46 22 255
-0.053608436 -0.30742866 0.63500005 43 42 20 255
-0.051958848 -0.30791038 0.63600004 44 43 21 255
-0.050303843 -0.30839217 0.63700002 42 40 20 255
-0.048567191 -0.30838993 0.63700002 43 41 21 255
-0.04683058 -0.30838785 0.63700002 42 40 22 255
-0.04502321 -0.30790168 0.63600004 41 39 21 255
-0.043357462 -0.30838388 0.63700002 39 37 19 255
-0.041620959 -0.30838203 0.63700002 41 39 21 255
-0.039884485 -0.30838028 0.63700002 45 41 24 255
-0.038088161 -0.30789456 0.63600004 44 40 23 255
-0.036583118 -0.30982941 0.64000005 52 47 27 255
-0.034838554 -0.30982792 0.64000005 51 44 23 255
-0.033145726 -0.31031063 0.64100003 66 59 36 255
-0.031349506 -0.30982521 0.64000005 84 78 53 255
-0.029605014 -0.30982396 0.64000005 78 72 47 255
-0.027860546 -0.3098228 0.64000005 67 63 39 255
-0.026116097 -0.3098217 0.64000005 54 48 32 255
-0.024333587 -0.30933663 0.63900006 58 54 37 255
-0.022591893 -0.30933568 0.63900006 47 45 27 255
-0.020784963 -0.30836663 0.63700002 48 46 28 255
-0.019078655 -0.30884993 0.63800001 43 39 22 255
-0.017312558 -0.30836514 0.63700002 47 43 26 255
-0.015600826 -0.30884856 0.63800001 42 39 19 255
-0.013861925 -0.30884799 0.63800001 41 38 18 255
-0.012161043 -0.3098157 0.64000005 47 41 24 255
-0.01044926 -0.31078342 0.64200002 44 38 21 255
-0.0086859334 -0.31029898 0.64100003 47 39 22 255
-0.0069172364 -0.30933046 0.63900006 45 37 20 255
-0.0051675458 -0.30884615 0.63800001 43 37 20 255
-0.0034394332 -0.30981418 0.64000005 42 38 21 255
-0.0016951227 -0.3098141 0.64000005 44 40 23 255
4.9340157e-05 -0.31078222 0.64200002 47 45 27 255
0.0017991003 -0.31078225 0.64200002 43 41 23 255
0.0035488617 -0.31078234 0.64200002 44 43 21 255
0.0052986252 -0.31078249 0.64200002 49 47 22 255
0.0070374142 -0.31029868 0.64100003 52 49 19 255
0.0087981634 -0.31078306 0.64200002 59 54 24 255
0.010547941 -0.31078342 0.64200002 80 74 47 255
0.012336036 -0.31175205 0.64400005 84 78 53 255
0.014091279 -0.31175256 0.64400005 78 71 48 255
0.015846534 -0.31175315 0.64400005 61 56 36 255
0.017601797 -0.31175381 0.64400005 45 42 22 255
0.019417185 -0.31272268 0.64600003 42 39 19 255
0.021177925 -0.31272349 0.64600003 39 35 18 255
0.022974189 -0.31320846 0.64700001 44 41 21 255
0.024699448 -0.31272531 0.64600003 39 36 16 255
0.026501196 -0.31321043 0.64700001 40 37 17 255
0.028221041 -0.31272745 0.64600003 45 40 20 255
0.03002828 -0.31321272 0.64700001 47 42 22 255
0.031840988 -0.31369808 0.648 41 36 16 255
0.033607308 -0.31369942 0.648 40 34 17 255
0.03537365 -0.31370082 0.648 45 39 22 255
0.037082709 -0.31321824 0.64700001 44 38 21 255
0.038966466 -0.31418806 0.64900005 50 44 27 255
0.040798388 -0.31467387 0.65000004 43 39 22 255
0.0425703 -0.31467566 0.65000004 43 39 22 255
0.04441046 -0.31516165 0.65100002 46 43 23 255
0.046185169 -0.31516361 0.65100002 53 48 27 255
0.048033584 -0.31564984 0.65200001 44 39 18 255
0.049963888 -0.31662026 0.65400004 50 43 20 255
0.051905133 -0.3175908 0.65600002 48 39 16 255
0.053857334 -0.31856149 0.65800005 51 44 23 255
0.055735908 -0.31904814 0.65900004 48 41 20 255
0.057619985 -0.31953493 0.66000003 48 41 18 255
0.059419531 -0.31953764 0.66000003 64 55 32 255
0.061497409 -0.32099298 0.66300005 71 63 38 255
0.063687183 -0.32293257 0.66700006 72 64 39 255
0.065898813 -0.32487234 0.671 70 62 37 255
0.067930475 -0.32584399 0.67300004 70 62 37 255
0.069973096 -0.32681575 0.67500001 54 47 24 255
0.071920313 -0.32730353 0.67600006 53 46 23 255
0.074091271 -0.32875979 0.67900002 50 43 20 255
0.07605499 -0.32924786 0.68000001 50 44 19 255
0.078253388 -0.33070445 0.68300003 48 41 18 255
0.080233634 -0.33119288 0.68400002 50 43 20 255
0.082339443 -0.33216563 0.68600005 57 50 27 255
0.084333509 -0.33265439 0.68700004 65 58 35 255
0.086458594 -0.33362749 0.68900001 71 64 43 255
0.088722914 -0.33508512 0.69200003 68 58 39 255
0.090610877 -0.33509019 0.69200003 52 42 25 255
0.092498958 -0.33509547 0.69200003 47 37 20 255
0.094387144 -0.33510092 0.69200003 45 35 18 255
0.096692815 -0.33655933 0.69500005 46 36 17 255
0.099156834 -0.33850226 0.69900006 50 40 15 255
0.10164282 -0.3404454 0.70300001 65 55 30 255
0.10370883 -0.34093601 0.70400006 74 66 39 255
0.10593048 -0.34191117 0.70600003 57 51 26 255
0.10816317 -0.34288654 0.708 52 45 22 255
0.11040695 -0.34386221 0.71000004 48 41 18 255
0.11250357 -0.3443538 0.71100003 55 48 27 255
0.11492774 -0.34581435 0.71400005 67 60 39 255
0.11704105 -0.34630644 0.71500003 71 61 42 255
0.11949287 -0.34776759 0.71800005 76 65 44 255
0.12145376 -0.34777588 0.71800005 65 54 33 255
0.12375862 -0.34875324 0.72000003 58 49 28 255
0.12572537 -0.34876212 0.72000003 44 34 15 255
0.12840173 -0.3507089 0.72400004 42 33 12 255
0.13073996 -0.35168716 0.72600001 41 34 13 255
0.13345499 -0.35363472 0.73000002 44 37 17 255
0.135821 -0.35461378 0.73200005 47 37 18 255
0.13838644 -0.35607761 0.73500001 46 36 17 255
0.14096855 -0.35754189 0.73800004 41 31 14 255
0.14376104 -0.35949105 0.74200004 41 31 12 255
0.14736159 -0.36337867 0.75000006 46 36 19 255
0.15120538 -0.36775139 0.75900006 42 35 15 255
0.15489672 -0.37164021 0.76700002 39 34 13 255
0.15822275 -0.37456056 0.77300006 35 32 11 255
0.16137448 -0.37699693 0.77800006 32 31 7 255
0.16623513 -0.38331056 0.79100001 93 92 68 255
0.17010282 -0.38720202 0.79900002 100 99 77 255
0.17142706 -0.38527867 0.79500002 40 38 18 255
0.17338488 -0.38480952 0.79400003 24 21 5 255
0.17489533 -0.38337138 0.79100001 30 27 13 255
0.17683746 -0.38290298 0.79000002 27 24 10 255
0.17832132 -0.38146552 0.78700006 27 24 10 255
0.18001848 -0.38051319 0.78500003 26 23 9 255
0.18147302 -0.37907639 0.78200006 25 22 8 255
0.18314631 -0.37812468 0.78000003 28 24 13 255
0.18433401 -0.37620378 0.77600002 28 24 13 255
0.1859808 -0.37525281 0.77400005 27 24 10 255
0.18786009 -0.37478703 0.77300006 27 24 10 255
0.19022587 -0.37529147 0.77400005 28 25 11 255
0.19210063 -0.3748267 0.77300006 28 25 9 255
0.19321661 -0.37290755 0.76900005 28 25 9 255
0.19456512 -0.37147367 0.76600003 28 25 9 255
0.19615443 -0.37052515 0.76400006 30 27 11 255
0.19799277 -0.37006199 0.76300001 34 31 15 255
0.19956392 -0.36911434 0.76100004 30 27 11 255
0.20138963 -0.36865219 0.76000005 31 28 12 255
0.20294267 -0.3677054 0.75800002 27 24 8 255
0.20475578 -0.36724421 0.75700003 29 26 10 255
0.20629077 -0.36629838 0.75500005 31 29 11 255
0.2083673 -0.36632338 0.75500005 32 30 12 255
0.21016572 -0.36586371 0.75400001 32 30 12 255
0.2119593 -0.36540464 0.75300002 32 30 12 255
0.21374802 -0.3649461 0.75200003 35 33 15 255
0.21553193 -0.3644881 0.75100005 35 31 14 255
0.21760073 -0.36451605 0.75100005 33 31 13 255
0.21937776 -0.36405924 0.75000006 39 37 19 255
0.22055946 -0.36263207 0.74700004 39 37 17 255
0.22232136 -0.36217633 0.74600005 34 32 12 255
0.22407854 -0.36172116 0.74500006 39 36 16 255
0.22583093 -0.36126661 0.74400002 39 36 16 255
0.22757861 -0.36081269 0.74300003 37 34 14 255
0.22963065 -0.360845 0.74300003 37 34 14 255
0.23168349 -0.36087808 0.74300003 36 33 13 255
0.23405178 -0.36139759 0.74400002 42 39 19 255
0.23579179 -0.36094645 0.74300003 39 37 17 255
0.23784721 -0.3609817 0.74300003 36 34 14 255
0.23990357 -0.36101779 0.74300003 33 31 11 255
0.24196084 -0.36105463 0.74300003 37 34 14 255
0.24369067 -0.36060628 0.74200004 35 32 12 255
0.24541593 -0.36015865 0.74100006 39 36 16 255
0.24747056 -0.36019778 0.74100006 38 34 17 255
0.24918947 -0.35975155 0.74000001 46 41 21 255
0.25158292 -0.36027855 0.74100006 43 38 18 255
0.25364071 -0.36032024 0.74100006 42 37 16 255
0.25604466 -0.36084911 0.74200004 43 39 15 255
0.25845522 -0.36137894 0.74300003 46 39 16 255
0.26087254 -0.36190981 0.74400002 48 41 20 255
0.2640034 -0.36341476 0.74700004 48 41 18 255
0.26643974 -0.36394781 0.74800003 51 44 23 255
0.26995987 -0.36594188 0.75200003 52 47 26 255
0.27458888 -0.36939749 0.75900006 58 55 35 255
-0.32921249 -0.36988962 0.75200003 31 35 27 255
-0.32837337 -0.37128237 0.75500005 67 67 59 255
-0.32363063 -0.36825103 0.74900001 77 78 56 255
-0.31763652 -0.36374775 0.74000001 57 56 28 255
-0.31340122 -0.36121354 0.73500001 53 46 23 255
-0.31004354 -0.35966441 0.73200005 49 44 23 255
-0.30712554 -0.35860845 0.73000002 53 46 25 255
-0.30505657 -0.35853651 0.73000002 52 47 27 255
-0.30174443 -0.35699275 0.72700006 57 54 34 255
-0.29968774 -0.35692367 0.72700006 58 56 36 255
-0.29722345 -0.35636494 0.72600001 74 72 54 255
-0.2947666 -0.35580766 0.72500002 78 76 56 255
-0.29352847 -0.35672387 0.72700006 67 65 45 255
-0.2922807 -0.35764086 0.72900003 68 66 48 255
-0.29142147 -0.3590492 0.73200005 73 71 51 255
-0.28936109 -0.35898694 0.73200005 65 64 42 255
-0.28730235 -0.35892588 0.73200005 59 58 36 255
-0.28524518 -0.35886592 0.73200005 52 51 29 255
-0.28357646 -0.35929725 0.73300004 42 40 20 255
-0.28267178 -0.36070976 0.73600006 36 34 14 255
-0.28098923 -0.36114278 0.73700005 43 41 23 255
-0.27930257 -0.3615768 0.73800004 32 30 12 255
-0.27723607 -0.36152184 0.73800004 38 36 18 255
-0.27591673 -0.3624475 0.74000001 37 35 17 255
-0.27384743 -0.36239448 0.74000001 34 32 14 255
-0.27288133 -0.36381149 0.74300003 35 33 15 255
-0.27117085 -0.36424989 0.74400002 36 34 16 255
-0.26945612 -0.36468917 0.74500006 33 31 13 255
-0.26737815 -0.36463985 0.74500006 34 32 14 255
-0.2653015 -0.36459145 0.74500006 37 33 16 255
-0.26322603 -0.36454406 0.74500006 34 32 12 255
-0.26115179 -0.36449757 0.74500006 35 33 13 255
-0.25942644 -0.36494124 0.74600005 38 36 16 255
-0.25769672 -0.36538565 0.74700004 34 32 12 255
-0.25596255 -0.3658309 0.74800003 36 34 14 255
-0.25422394 -0.36627689 0.74900001 36 33 13 255
-0.2518076 -0.36574572 0.74800003 38 33 13 255
-0.25006559 -0.36619335 0.74900001 39 34 14 255
-0.24765687 -0.36566404 0.74800003 37 32 12 255
-0.24591134 -0.36611319 0.74900001 38 33 13 255
-0.24416131 -0.36656311 0.75000006 44 38 21 255
-0.24208389 -0.36652505 0.75000006 36 32 15 255
-0.24064745 -0.36746505 0.75200003 33 29 12 255
-0.23888361 -0.36791709 0.75300002 33 31 13 255
-0.23680069 -0.36788118 0.75300002 27 24 8 255
-0.23471865 -0.36784613 0.75300002 28 25 11 255
-0.23294643 -0.36830023 0.75400001 26 23 9 255
-0.23116954 -0.36875498 0.75500005 26 22 11 255
-0.22938792 -0.36921036 0.75600004 26 22 11 255
-0.22790228 -0.37015471 0.75800002 21 19 9 255
-0.22640641 -0.37109965 0.76000005 21 19 9 255
-0.22549053 -0.37302157 0.76400006 21 19 9 255
-0.2239686 -0.37396741 0.76600003 19 17 7 255
-0.22243638 -0.37491384 0.76800001 20 17 10 255
-0.21917261 -0.37293199 0.76400006 19 15 5 255
-0.21507925 -0.36948678 0.75700003 49 48 34 255
-0.20849282 -0.36165023 0.74100006 166 164 146 255
-0.20394546 -0.35723162 0.73200005 35 36 14 255
-0.19999996 -0.35379019 0.72500002 49 48 26 255
-0.19663981 -0.35132572 0.72000003 50 48 24 255
-0.19357814 -0.34935006 0.71600002 43 40 19 255
-0.19053905 -0.34737527 0.71200001 44 43 21 255
-0.18778737 -0.34588909 0.70900005 50 49 25 255
-0.18531482 -0.34489149 0.70700002 49 48 24 255
-0.18259442 -0.34340671 0.70400006 47 47 21 255
-0.18040423 -0.34289813 0.70300001 44 44 18 255
-0.17771229 -0.34141469 0.70000005 43 41 17 255
-0.17503728 -0.33993185 0.69700003 52 48 24 255
-0.17237923 -0.33844969 0.69400001 45 40 19 255
-0.1699837 -0.33745575 0.69200003 45 40 19 255
-0.16808541 -0.33743772 0.69200003 46 42 18 255
-0.16618752 -0.33742005 0.69200003 45 42 21 255
-0.16429004 -0.33740285 0.69200003 46 44 20 255
-0.16215831 -0.33689854 0.69100004 43 38 17 255
-0.15956856 -0.33541965 0.68800002 46 41 20 255
-0.15722485 -0.33442882 0.68600005 46 39 18 255
-0.1551189 -0.33392593 0.68500006 43 39 15 255
-0.1532425 -0.33391097 0.68500006 46 42 18 255
-0.15092446 -0.33292148 0.68300003 46 42 18 255
-0.14861773 -0.33193246 0.68100005 45 44 20 255
-0.14632228 -0.33094391 0.67900002 43 40 20 255
-0.14467637 -0.33141795 0.68000001 45 42 22 255
-0.14302529 -0.33189231 0.68100005 45 40 20 255
-0.14116172 -0.33187959 0.68100005 47 42 21 255
-0.13909391 -0.33137989 0.68000001 48 44 20 255
-0.13662823 -0.32990599 0.67700005 50 46 22 255
-0.13457736 -0.32940707 0.67600006 48 44 20 255
-0.13213955 -0.327934 0.67300004 45 43 23 255
-0.13010561 -0.32743582 0.67200005 42 40 20 255
-0.1278865 -0.32645071 0.67000002 40 38 18 255
-0.12605484 -0.32644039 0.67000002 42 39 18 255
-0.12385258 -0.32545599 0.66800004 39 37 13 255
-0.12147881 -0.32398474 0.66500002 45 44 20 255
-0.11930159 -0.323001 0.66300005 45 44 20 255
-0.11731273 -0.32250479 0.66200006 52 51 27 255
-0.11550398 -0.32249603 0.66200006 45 44 20 255
-0.11352368 -0.32200032 0.66100001 50 48 24 255
-0.11138002 -0.3210178 0.65900004 45 42 21 255
-0.10958002 -0.32100981 0.65900004 49 46 26 255
-0.10745308 -0.3200278 0.65700001 48 45 25 255
-0.10533722 -0.31904614 0.65500003 46 43 23 255
-0.10323247 -0.31806472 0.65300006 46 44 24 255
-0.1014495 -0.31805772 0.65300006 46 44 24 255
-0.099514045 -0.31756383 0.65200001 52 51 29 255
-0.097434282 -0.31658319 0.65000004 48 47 25 255
-0.095512755 -0.31608978 0.64900005 50 49 27 255
-0.093596816 -0.31559661 0.648 53 52 30 255
-0.091686465 -0.31510362 0.64700001 47 45 25 255
-0.089642704 -0.3141239 0.64500004 50 48 30 255
-0.08774624 -0.31363136 0.64400005 53 51 33 255
-0.085721806 -0.31265202 0.64200002 59 57 39 255
-0.083969995 -0.31264684 0.64200002 52 50 30 255
-0.082090214 -0.31215489 0.64100003 56 54 34 255
-0.080215983 -0.31166312 0.64000005 48 47 25 255
-0.078347318 -0.31117153 0.63900006 52 51 29 255
-0.076604083 -0.31116706 0.63900006 46 45 21 255
-0.07486093 -0.31116277 0.63900006 47 46 22 255
-0.073003426 -0.31067163 0.63800001 49 48 20 255
-0.071151458 -0.31018066 0.63700002 58 57 29 255
-0.069522969 -0.31066376 0.63800001 55 54 26 255
-0.067676619 -0.31017312 0.63700002 54 52 27 255
-0.065939307 -0.31016952 0.63700002 53 50 29 255
-0.06400048 -0.30919227 0.63500005 44 41 20 255
-0.062366821 -0.30967587 0.63600004 45 42 21 255
-0.060441758 -0.30869886 0.634 47 44 23 255
-0.058805481 -0.3091827 0.63500005 47 45 20 255
-0.056894172 -0.30820599 0.63300002 47 45 20 255
-0.055255283 -0.30869007 0.634 52 51 29 255
-0.053526565 -0.30868736 0.634 39 38 16 255
-0.051961295 -0.30965856 0.63600004 39 37 17 255
-0.050306194 -0.31014296 0.63700002 42 40 20 255
-0.048569437 -0.31014058 0.63700002 44 42 24 255
-0.046832718 -0.31013831 0.63700002 35 33 15 255
-0.045025252 -0.30964929 0.63600004 38 38 20 255
-0.043291349 -0.30964723 0.63600004 40 38 20 255
-0.041492127 -0.30915841 0.63500005 41 39 21 255
-0.039823636 -0.30964339 0.63600004 40 36 19 255
-0.038209602 -0.3106153 0.63800001 42 38 21 255
-0.036584705 -0.31158733 0.64000005 46 40 23 255
-0.034894492 -0.3120726 0.64100003 48 41 21 255
-0.033095434 -0.31158423 0.64000005 61 54 33 255
-0.031350832 -0.3115828 0.64000005 83 77 52 255
-0.029606264 -0.31158149 0.64000005 78 72 47 255
-0.027905248 -0.31206706 0.64100003 77 72 51 255
-0.026117183 -0.31157905 0.64000005 66 61 40 255
-0.024334591 -0.31109113 0.63900006 65 61 44 255
-0.022592826 -0.31109014 0.63900006 57 55 37 255
-0.020818444 -0.31060234 0.63800001 54 52 34 255
-0.019079436 -0.3106015 0.63800001 46 44 26 255
-0.01734044 -0.31060073 0.63800001 49 47 29 255
-0.015625913 -0.31108689 0.63900006 48 46 28 255
-0.013884216 -0.31108627 0.63900006 44 40 23 255
-0.012161531 -0.31157252 0.64000005 46 40 23 255
-0.010433403 -0.3120589 0.64100003 42 36 19 255
-0.0086727291 -0.31157166 0.64000005 42 35 15 255
-0.0069175134 -0.31108454 0.63900006 48 40 23 255
-0.0051758531 -0.31108427 0.63900006 42 38 21 255
-0.0034395703 -0.31157091 0.64000005 45 41 24 255
-0.0016951902 -0.31157079 0.64000005 46 44 26 255
4.9265262e-05 -0.31205758 0.64100003 42 40 22 255
0.0017991719 -0.31254444 0.64200002 40 38 20 255
0.0035490028 -0.31254455 0.64200002 49 48 26 255
0.0052905832 -0.31205794 0.64100003 57 55 30 255
0.0070267157 -0.31157136 0.64000005 56 53 23 255
0.0087711066 -0.31157169 0.64000005 80 75 45 255
0.010548364 -0.31254575 0.64200002 85 79 52 255
0.012317376 -0.31303304 0.64300001 80 73 50 255
0.014113731 -0.31400728 0.64500004 72 65 44 255
0.015871784 -0.31400794 0.64500004 61 56 36 255
0.017602513 -0.31352177 0.64400005 41 37 20 255
0.019387921 -0.3140094 0.64500004 41 38 18 255
0.021178791 -0.31449708 0.64600003 46 43 23 255
0.022975134 -0.31498486 0.64700001 40 37 17 255
0.024738707 -0.3149859 0.64700001 44 41 21 255
0.0265023 -0.314987 0.64700001 44 41 20 255
0.028222226 -0.31450135 0.64600003 53 48 27 255
0.029983131 -0.31450263 0.64600003 44 40 16 255
0.031793199 -0.31499079 0.64700001 40 35 14 255
0.033556879 -0.31499225 0.64700001 42 37 16 255
0.035429768 -0.3159675 0.64900005 40 35 15 255
0.037198957 -0.31596914 0.64900005 45 41 24 255
0.039088257 -0.31694457 0.65100002 43 39 22 255
0.040800188 -0.31645954 0.65000004 42 38 21 255
0.042637691 -0.31694829 0.65100002 43 39 22 255
0.044480678 -0.3174372 0.65200001 48 43 23 255
0.046258211 -0.31743929 0.65200001 43 38 17 255
0.048035786 -0.31744155 0.65200001 45 40 19 255
0.049889799 -0.31793076 0.65300006 49 43 18 255
0.051749308 -0.31842008 0.65400004 47 41 16 255
0.053696167 -0.31939641 0.65600002 49 42 19 255
0.055569407 -0.31988597 0.65700001 43 39 15 255
0.057535458 -0.32086256 0.65900004 44 40 16 255
0.059422433 -0.32135239 0.66000003 50 43 20 255
0.061500441 -0.32281616 0.66300005 61 53 28 255
0.063594863 -0.32428002 0.66600001 67 59 34 255
0.065803938 -0.32623106 0.67000002 76 68 43 255
0.067832999 -0.32720837 0.67200005 79 71 46 255
0.070080385 -0.32915974 0.67600006 66 60 35 255
0.071924068 -0.32916352 0.67600006 63 57 32 255
0.074095197 -0.33062825 0.67900002 55 49 24 255
0.076170921 -0.33160627 0.68100005 50 44 19 255
0.078257635 -0.33258447 0.68300003 51 44 21 255
0.080355354 -0.33356282 0.68500006 50 44 19 255
0.082224011 -0.33356747 0.68500006 59 53 28 255
0.084215499 -0.33405921 0.68600005 69 62 39 255
0.086338043 -0.33503813 0.68800002 74 65 42 255
0.088599838 -0.33650425 0.69100004 62 53 32 255
0.090616204 -0.33699661 0.69200003 49 40 19 255
0.092370786 -0.33651519 0.69100004 47 38 17 255
0.094392829 -0.33700794 0.69200003 47 36 15 255
0.096559577 -0.33798787 0.69400001 50 39 16 255
0.099021114 -0.33994216 0.69800001 62 52 27 255
0.10150462 -0.34189668 0.70200002 71 61 36 255
0.10371545 -0.34287745 0.70400006 76 66 39 255
0.10608737 -0.34434548 0.70700002 61 53 26 255
0.10832305 -0.34532672 0.70900005 52 45 22 255
0.11025877 -0.34533414 0.70900005 44 39 18 255
0.11251115 -0.34631592 0.71100003 47 42 22 255
0.11461364 -0.34681091 0.71200001 54 48 31 255
0.11688547 -0.34779328 0.71400005 58 52 35 255
0.11933481 -0.34926298 0.71700001 68 58 41 255
0.1216316 -0.35024604 0.71900004 68 58 39 255
0.12376758 -0.35074213 0.72000003 71 59 40 255
0.12590922 -0.35123858 0.72100002 50 38 19 255
0.12841126 -0.35270971 0.72400004 44 32 13 255
0.13092995 -0.35418117 0.72700006 49 39 20 255
0.13346522 -0.35565299 0.73000002 46 38 21 255
0.13583155 -0.35663804 0.73200005 50 42 25 255
0.13820906 -0.3576234 0.73400003 44 36 19 255
0.1409798 -0.35958365 0.73800004 42 34 17 255
0.14377269 -0.36154434 0.74200004 41 31 12 255
0.14737372 -0.36545461 0.75000006 43 33 14 255
0.15081953 -0.36887819 0.75700003 41 34 14 255
0.15470785 -0.37327695 0.76600003 41 36 15 255
0.15803161 -0.37621444 0.77200001 36 34 10 255
0.16180341 -0.38012719 0.78000003 49 48 24 255
0.16730072 -0.38793954 0.79600006 101 100 76 255
0.17160848 -0.39282861 0.80600005 105 104 80 255
0.17252092 -0.38992009 0.80000001 102 101 79 255
0.17383763 -0.38798657 0.79600006 21 19 1 255
0.17513284 -0.38605338 0.79200006 28 26 8 255
0.17685422 -0.38509533 0.79000002 28 25 11 255
0.17833847 -0.38365018 0.78700006 28 25 11 255
0.18003602 -0.38269284 0.78500003 23 20 6 255
0.18172304 -0.38173592 0.78300005 27 24 10 255
0.18339951 -0.3807793 0.78100002 27 24 10 255
0.18459031 -0.3788479 0.77700001 26 23 9 255
0.18599999 -0.37740451 0.77400005 27 24 10 255
0.18787974 -0.37693658 0.77300006 27 24 8 255
0.19000025 -0.37695679 0.77300006 29 26 10 255
0.19212127 -0.37697756 0.77300006 29 26 10 255
0.19348894 -0.37553567 0.77000004 30 27 11 255
0.19484064 -0.37409419 0.76700002 30 27 11 255
0.1964332 -0.37314081 0.76500005 31 28 12 255
0.19801526 -0.37218782 0.76300001 30 27 11 255
0.19958691 -0.37123531 0.76100004 35 32 16 255
0.20141314 -0.37077105 0.76000005 32 29 13 255
0.20269892 -0.36933154 0.75700003 32 30 12 255
0.20450984 -0.36886826 0.75600004 32 30 12 255
0.20631583 -0.36840549 0.75500005 28 26 8 255
0.20811693 -0.36794323 0.75400001 33 31 13 255
0.20991319 -0.36748153 0.75300002 33 31 13 255
0.21142311 -0.36653236 0.75100005 35 33 15 255
0.21349116 -0.36655977 0.75100005 35 31 14 255
0.2152729 -0.36609977 0.75000006 30 26 9 255
0.21733959 -0.36612841 0.75000006 35 33 15 255
0.21911447 -0.36566955 0.74900001 34 32 14 255
0.22058927 -0.36472306 0.74700004 36 34 16 255
0.22235182 -0.36426532 0.74600005 35 33 13 255
0.2238088 -0.36331987 0.74400002 41 39 19 255
0.22586267 -0.36335167 0.74400002 37 34 14 255
0.22730473 -0.36240742 0.74200004 34 31 11 255
0.22935471 -0.36244059 0.74200004 39 36 16 255
0.23140548 -0.36247444 0.74200004 39 36 16 255
0.2337718 -0.36299762 0.74300003 39 36 15 255
0.23550975 -0.36254448 0.74200004 39 36 16 255
0.23756316 -0.36258063 0.74200004 36 33 13 255
0.23961756 -0.36261755 0.74200004 40 37 17 255
0.24199855 -0.36314401 0.74300003 38 35 15 255
0.2437291 -0.36269376 0.74200004 40 35 15 255
0.24512389 -0.3617554 0.74000001 39 34 14 255
0.24684256 -0.36130655 0.73900002 45 39 22 255
0.24889351 -0.36134735 0.73900002 41 36 16 255
0.25128508 -0.36187807 0.74000001 44 37 17 255
0.25334096 -0.36192071 0.74000001 44 37 17 255
0.2560882 -0.36294249 0.74200004 43 38 17 255
0.25849974 -0.36347619 0.74300003 47 40 19 255
0.26091799 -0.36401087 0.74400002 50 41 18 255
0.26369652 -0.36503601 0.74600005 47 40 17 255
0.26577482 -0.36508355 0.74600005 49 42 21 255
0.26964965 -0.36757934 0.75100005 52 45 25 255
0.27391544 -0.37056622 0.75700003 59 54 34 255
-0.32491758 -0.36710793 0.74200004 51 53 43 255
-0.32889131 -0.37394997 0.75600004 73 74 60 255
-0.32414362 -0.37089971 0.75000006 72 73 51 255
-0.31771493 -0.36587453 0.74000001 57 57 31 255
-0.31305122 -0.36283019 0.73400003 52 48 24 255
-0.30969471 -0.36127111 0.73100001 55 51 27 255
-0.30719882 -0.36070225 0.73000002 58 51 30 255
-0.30512854 -0.3606289 0.73000002 57 50 29 255
-0.30264512 -0.36006302 0.72900003 55 52 31 255
-0.30016917 -0.35949856 0.72800004 62 59 39 255
-0.29688174 -0.35794812 0.72500002 73 69 52 255
-0.29401976 -0.35689315 0.72300005 71 69 51 255
-0.29278618 -0.35781392 0.72500002 67 65 47 255
-0.29194409 -0.359229 0.72800004 75 73 55 255
-0.29148492 -0.36113805 0.73200005 72 70 50 255
-0.28981876 -0.36156783 0.73300004 77 76 54 255
-0.28775606 -0.36150539 0.73300004 57 56 32 255
-0.28569496 -0.36144412 0.73300004 48 47 23 255
-0.28363541 -0.36138394 0.73300004 46 44 24 255
-0.28234571 -0.36231083 0.73500001 41 39 19 255
-0.28066498 -0.36274561 0.73600006 39 37 19 255
-0.27973717 -0.36416692 0.73900002 39 37 19 255
-0.27729106 -0.36361802 0.73800004 34 32 14 255
-0.27671671 -0.36553347 0.74200004 36 34 16 255
-0.27427068 -0.36498666 0.74100006 34 32 12 255
-0.27293357 -0.3659184 0.74300003 33 31 13 255
-0.27049309 -0.36537367 0.74200004 37 35 17 255
-0.26914471 -0.36630714 0.74400002 35 33 15 255
-0.26706856 -0.36625677 0.74400002 37 35 17 255
-0.26463756 -0.36571518 0.74300003 35 31 14 255
-0.26292005 -0.36615896 0.74400002 37 35 17 255
-0.26084769 -0.36611152 0.74400002 35 33 15 255
-0.2594721 -0.36704901 0.74600005 36 34 16 255
-0.25774154 -0.36749527 0.74700004 32 30 12 255
-0.25600651 -0.36794224 0.74800003 35 33 15 255
-0.2542671 -0.36839005 0.74900001 38 34 17 255
-0.25218654 -0.36834687 0.74900001 36 32 15 255
-0.25044093 -0.36879629 0.75000006 37 32 12 255
-0.24802852 -0.36826307 0.74900001 41 34 14 255
-0.24660784 -0.36920565 0.75100005 37 31 14 255
-0.24485146 -0.36965734 0.75200003 36 30 13 255
-0.24276769 -0.36961824 0.75200003 36 30 13 255
-0.24068491 -0.36957991 0.75200003 32 28 11 255
-0.23860304 -0.36954239 0.75200003 31 27 11 255
-0.23652209 -0.36950561 0.75200003 30 26 10 255
-0.23413031 -0.36897832 0.75100005 27 24 10 255
-0.23298089 -0.370417 0.75400001 29 26 12 255
-0.23089707 -0.37038246 0.75400001 29 26 12 255
-0.22881405 -0.37034866 0.75400001 25 21 10 255
-0.22733334 -0.37129787 0.75600004 23 21 10 255
-0.22614029 -0.37273869 0.75900006 20 18 7 255
-0.22493145 -0.37417996 0.76200002 21 19 9 255
-0.22312202 -0.37463966 0.76300001 21 19 9 255
-0.22159745 -0.37559095 0.76500005 22 19 12 255
-0.21891494 -0.37457904 0.76300001 23 19 8 255
-0.21567594 -0.37258622 0.75900006 23 22 8 255
-0.20964557 -0.36568576 0.74500006 168 165 149 255
-0.20508623 -0.36124101 0.73600006 48 46 26 255
-0.2011289 -0.35777915 0.72900003 46 46 26 255
-0.19748387 -0.35480914 0.72300005 46 43 22 255
-0.19387245 -0.35184005 0.71700001 45 43 19 255
-0.19056226 -0.34936267 0.71200001 49 48 24 255
-0.18754506 -0.34737679 0.708 54 53 31 255
-0.1853368 -0.34686357 0.70700002 45 46 22 255
-0.1826158 -0.34536979 0.70400006 46 45 21 255
-0.18016843 -0.34436721 0.70200002 39 38 14 255
-0.17773256 -0.34336528 0.70000005 44 42 17 255
-0.17505696 -0.34187344 0.69700003 49 45 20 255
-0.17264678 -0.34087276 0.69500005 44 42 18 255
-0.17024797 -0.33987266 0.69300002 54 50 26 255
-0.16834648 -0.33985394 0.69300002 46 42 18 255
-0.16620523 -0.33934531 0.69200003 42 39 18 255
-0.16406989 -0.33883721 0.69100004 43 40 19 255
-0.16170573 -0.33783922 0.68900001 41 38 17 255
-0.15935293 -0.33684173 0.68700004 44 39 19 255
-0.15701149 -0.33584484 0.68500006 40 35 14 255
-0.15490785 -0.33533862 0.68400002 42 37 16 255
-0.15303378 -0.33532313 0.68400002 46 41 20 255
-0.15093908 -0.33481783 0.68300003 50 45 24 255
-0.14863195 -0.33382276 0.68100005 48 45 24 255
-0.14655159 -0.33331829 0.68000001 42 39 18 255
-0.14426427 -0.33232412 0.67800003 48 45 24 255
-0.14282835 -0.3332909 0.68000001 46 43 22 255
-0.14075989 -0.33278763 0.67900002 50 46 22 255
-0.13869719 -0.33228475 0.67800003 46 42 18 255
-0.13643841 -0.33129212 0.67600006 48 44 20 255
-0.13438995 -0.33078998 0.67500001 42 38 14 255
-0.13215084 -0.32979819 0.67300004 46 45 23 255
-0.12992294 -0.32880673 0.671 44 42 22 255
-0.12770626 -0.32781571 0.66900003 45 43 23 255
-0.12606519 -0.32829499 0.67000002 41 38 17 255
-0.12386261 -0.32730463 0.66800004 40 37 16 255
-0.12148851 -0.32582462 0.66500002 48 45 24 255
