ply
format ascii 1.0
comment PCL generated
element vertex 1000
property float x
property float y
property float z
property uchar red
property uchar green
property uchar blue
property uchar alpha
element camera 0
property float view_px
property float view_py
property float view_pz
property float x_axisx
property float x_axisy
property float x_axisz
property float y_axisx
property float y_axisy
property float y_axisz
property float z_axisx
property float z_axisy
property float z_axisz
property float focal
property float scalex
property float scaley
property float centerx
property float centery
property int viewportx
property int viewporty
property float k1
property float k2
end_header
0.040576793 -0.2301044 0.51300001 30 27 11 255
0.042056512 -0.23055327 0.514 30 28 10 255
0.04345715 -0.23055363 0.514 30 28 10 255
0.044770524 -0.23010549 0.51300001 31 29 11 255
0.046258457 -0.23055446 0.514 32 30 12 255
0.047566406 -0.23010638 0.51300001 31 29 11 255
0.049059816 -0.23055544 0.514 33 31 13 255
0.05055869 -0.23100457 0.51500005 31 29 11 255
0.052063033 -0.23145372 0.51600003 29 26 10 255
0.053469218 -0.23145436 0.51600003 32 28 11 255
0.05476908 -0.2310065 0.51500005 30 26 9 255
0.056063499 -0.23055866 0.514 30 26 9 255
0.057464305 -0.23055947 0.514 31 27 10 255
0.058750603 -0.23011176 0.51300001 29 25 8 255
0.059914224 -0.22921555 0.51100004 35 31 14 255
0.061186954 -0.22876796 0.51000005 36 32 15 255
0.062945053 -0.23011468 0.51300001 35 31 14 255
0.064343266 -0.23011579 0.51300001 34 30 13 255
0.065869659 -0.23056552 0.514 34 32 14 255
0.067139789 -0.23011822 0.51300001 35 33 15 255
0.068671711 -0.23056808 0.514 30 28 10 255
0.070345461 -0.23146667 0.51600003 31 29 11 255
0.071752027 -0.23146814 0.51600003 35 31 14 255
0.073300436 -0.23191832 0.51700002 36 32 15 255
0.07470984 -0.23191997 0.51700002 37 31 14 255
0.07626652 -0.23237035 0.51800001 41 35 18 255
0.077828705 -0.23282081 0.51900005 39 31 14 255
0.07924372 -0.23282279 0.51900005 37 29 12 255
0.080658786 -0.23282485 0.51900005 38 30 13 255
0.082232065 -0.23327562 0.52000004 36 28 11 255
0.083810858 -0.23372655 0.52100003 36 28 11 255
0.085558757 -0.23462617 0.523 37 29 12 255
0.086985007 -0.23462871 0.523 41 33 16 255
0.088411346 -0.23463137 0.523 38 30 13 255
0.089837752 -0.23463418 0.523 37 29 12 255
0.091264248 -0.23463711 0.523 38 30 13 255
0.092868067 -0.23508883 0.52400005 34 28 11 255
0.09447743 -0.23554066 0.52500004 37 31 14 255
0.096092343 -0.23599267 0.52600002 33 27 10 255
0.097156584 -0.23509888 0.52400005 38 32 15 255
0.098398149 -0.23465385 0.523 36 30 13 255
0.10001612 -0.23510635 0.52400005 36 31 11 255
0.10183327 -0.23600768 0.52600002 37 31 14 255
0.10287613 -0.23511446 0.52400005 38 32 15 255
0.10410725 -0.23467004 0.523 35 31 14 255
0.10553484 -0.23467453 0.523 35 31 14 255
0.10737161 -0.23557664 0.52500004 34 28 11 255
0.10921942 -0.23647894 0.52700001 38 32 15 255
0.11065837 -0.23648401 0.52700001 35 29 12 255
0.11209745 -0.23648927 0.52700001 37 33 16 255
0.11310584 -0.23559725 0.52500004 38 35 15 255
0.11432162 -0.23515414 0.52400005 36 34 14 255
0.11531121 -0.23426242 0.52200001 40 37 16 255
0.11673732 -0.23426846 0.52200001 38 33 12 255
0.11838999 -0.23472354 0.523 39 34 14 255
0.12027742 -0.23562768 0.52500004 39 34 14 255
0.12194413 -0.23608327 0.52600002 38 32 15 255
0.12291282 -0.2351926 0.52400005 39 35 18 255
0.12434539 -0.23519982 0.52400005 43 39 22 255
0.12625825 -0.23610504 0.52600002 46 42 25 255
0.12963891 -0.23970388 0.53400004 51 45 28 255
0.13330905 -0.24375209 0.54300004 51 45 28 255
0.13628396 -0.24645412 0.54900002 60 53 33 255
0.13904102 -0.24870773 0.55400002 57 50 29 255
0.14106455 -0.24961492 0.55600005 54 45 24 255
0.14361222 -0.25142041 0.56 50 38 19 255
0.14540453 -0.25187942 0.56100005 45 33 14 255
0.1472026 -0.2523388 0.56200004 48 36 17 255
0.14874183 -0.25234947 0.56200004 46 34 15 255
0.15028134 -0.25236046 0.56200004 41 31 12 255
0.15182123 -0.25237185 0.56200004 44 35 14 255
0.15363434 -0.25283262 0.56300002 44 37 16 255
0.15545326 -0.25329378 0.56400001 43 36 15 255
0.15783483 -0.25465366 0.56700003 41 34 13 255
0.15995209 -0.25556484 0.56900001 40 33 13 255
0.16179687 -0.25602731 0.57000005 37 30 10 255
0.16336094 -0.25604105 0.57000005 38 31 11 255
0.16492543 -0.25605515 0.57000005 40 35 15 255
0.16649035 -0.25606963 0.57000005 36 33 13 255
0.16805573 -0.25608459 0.57000005 37 32 12 255
0.16991912 -0.25654921 0.57100004 40 34 17 255
0.17208882 -0.25746363 0.57300001 40 34 17 255
0.17396688 -0.25792924 0.574 42 37 17 255
0.1761568 -0.25884476 0.57600003 46 39 19 255
0.17835823 -0.25976083 0.57800001 47 42 22 255
0.18119386 -0.26157635 0.58200002 51 46 26 255
0.1831098 -0.26204419 0.583 51 48 27 255
0.1856655 -0.26341161 0.58600003 60 59 37 255
0.1904754 -0.26792648 0.59600002 63 62 40 255
0.19856445 -0.27693829 0.61600006 63 62 40 255
0.20676439 -0.28595203 0.63600004 63 62 40 255
0.21310814 -0.29226986 0.65000004 68 66 46 255
0.21853794 -0.2972402 0.66100001 79 79 61 255
0.015175147 -0.22789034 0.505 46 37 16 255
0.016813383 -0.23150058 0.51300001 42 35 15 255
0.018246718 -0.23195192 0.514 39 34 14 255
0.01960906 -0.23150077 0.51300001 35 29 12 255
0.020965952 -0.23104961 0.51200002 30 26 10 255
0.022361074 -0.23104976 0.51200002 25 22 8 255
0.023895394 -0.23240371 0.51500005 25 22 8 255
0.025200443 -0.2315013 0.51300001 27 24 10 255
0.026650149 -0.23195274 0.514 27 22 11 255
0.02799616 -0.23150167 0.51300001 27 23 9 255
0.029508619 -0.23240441 0.51500005 28 24 10 255
0.030911937 -0.23240465 0.51500005 28 24 10 255
0.032315258 -0.23240489 0.51500005 29 25 11 255
0.033784065 -0.23285642 0.51600003 27 24 8 255
0.035121929 -0.23240545 0.51500005 31 28 12 255
0.036525276 -0.2324058 0.51500005 27 24 8 255
0.037854981 -0.23195486 0.514 25 22 6 255
0.039179239 -0.23150393 0.51300001 29 26 10 255
0.040577162 -0.23150435 0.51300001 30 27 11 255
0.04189327 -0.23105352 0.51200002 31 28 12 255
0.043373045 -0.23150529 0.51300001 31 29 11 255
0.044683728 -0.23105453 0.51200002 31 29 11 255
0.046258971 -0.23195763 0.514 31 29 11 255
0.047566961 -0.23150694 0.51300001 34 32 14 255
0.049060412 -0.23195885 0.514 32 30 12 255
0.050559338 -0.23241085 0.51500005 30 28 10 255
0.052063718 -0.23286283 0.51600003 31 29 11 255
0.053366333 -0.23241235 0.51500005 32 28 11 255
0.054663517 -0.23196188 0.514 30 26 9 255
0.055955276 -0.23151149 0.51300001 34 30 13 255
0.057465199 -0.23196371 0.514 34 30 13 255
0.058751557 -0.23151343 0.51300001 32 28 11 255
0.060032494 -0.23106322 0.51200002 33 29 12 255
0.061308008 -0.23061304 0.51100004 33 29 12 255
0.062946208 -0.23151682 0.51300001 35 31 14 255
0.064469919 -0.2319694 0.514 33 29 12 255
0.06599912 -0.23242207 0.51500005 33 29 12 255
0.067141168 -0.23152086 0.51300001 37 33 16 255
0.068673171 -0.23197368 0.514 37 33 16 255
0.070074335 -0.23197526 0.514 33 31 13 255
0.071753666 -0.23287959 0.51600003 33 31 13 255
0.07330215 -0.23333266 0.51700002 41 37 20 255
0.075000674 -0.23423721 0.51900005 43 37 20 255
0.076562904 -0.23469049 0.52000004 41 35 18 255
0.078130648 -0.2351439 0.52100003 40 32 15 255
0.079398535 -0.23469475 0.52000004 37 29 12 255
0.080971852 -0.2351484 0.52100003 41 33 16 255
0.082234412 -0.23469943 0.52000004 41 35 18 255
0.08397419 -0.23560464 0.52200001 41 33 16 255
0.085397765 -0.2356073 0.52200001 37 31 14 255
0.086987734 -0.23606142 0.523 34 28 11 255
0.088583253 -0.23651572 0.52400005 38 32 15 255
0.090012521 -0.23651876 0.52400005 38 32 15 255
0.09126737 -0.23607054 0.523 36 30 13 255
0.092871323 -0.23652524 0.52400005 34 28 11 255
0.094480842 -0.2369801 0.52500004 32 28 11 255
0.095913231 -0.23698375 0.52500004 32 28 11 255
0.096974865 -0.23608467 0.523 39 33 16 255
0.098213866 -0.23563719 0.52200001 38 32 15 255
0.099638388 -0.23564126 0.52200001 36 31 11 255
0.10145026 -0.23654835 0.52400005 36 30 13 255
0.10248782 -0.23564988 0.52200001 35 29 12 255
0.10391272 -0.23565447 0.52200001 32 28 11 255
0.10513597 -0.23520778 0.52100003 37 31 14 255
0.10676295 -0.23566417 0.52200001 35 29 12 255
0.10839553 -0.23612079 0.523 32 26 9 255
0.11024372 -0.23702909 0.52500004 33 29 12 255
0.11189026 -0.23748614 0.52600002 36 32 15 255
0.11311155 -0.23704043 0.52500004 38 36 16 255
0.11432754 -0.2365949 0.52400005 39 38 16 255
0.11553823 -0.23614952 0.523 40 39 17 255
0.11674363 -0.23570436 0.52200001 39 36 15 255
0.11862292 -0.23661408 0.52400005 40 37 16 255
0.12028422 -0.2370725 0.52500004 40 35 14 255
0.12195119 -0.2375312 0.52600002 41 35 18 255
0.1229201 -0.23663537 0.52400005 38 34 17 255
0.12459023 -0.23709455 0.52500004 43 40 20 255
0.12650611 -0.23800564 0.52700001 44 41 21 255
0.13037544 -0.24253017 0.537 47 44 24 255
0.1338087 -0.246152 0.54500002 55 50 30 255
0.13678946 -0.24887098 0.551 59 54 33 255
0.13905036 -0.25023541 0.55400002 58 51 30 255
0.14132796 -0.25160027 0.55700004 53 46 25 255
0.14336582 -0.25251377 0.55900002 47 37 20 255
0.14515571 -0.25297591 0.56 46 34 17 255
0.14668946 -0.25298667 0.56 45 33 16 255
0.1487529 -0.25390136 0.56200004 42 32 15 255
0.15029277 -0.25391284 0.56200004 40 32 15 255
0.15183298 -0.25392464 0.56200004 43 36 15 255
0.15337357 -0.2539368 0.56200004 42 37 16 255
0.15519013 -0.25440115 0.56300002 42 38 14 255
0.15729097 -0.25531784 0.565 41 36 15 255
0.15940318 -0.256235 0.56700003 39 34 13 255
0.16152675 -0.25715262 0.56900001 39 34 14 255
0.16308847 -0.25716677 0.56900001 40 33 13 255
0.16493997 -0.25763339 0.57000005 38 31 11 255
0.16650531 -0.25764841 0.57000005 37 32 12 255
0.16807111 -0.25766382 0.57000005 39 32 12 255
0.16993494 -0.25813174 0.57100004 41 34 14 255
0.17180477 -0.25860015 0.57200003 46 39 19 255
0.17368057 -0.25906903 0.57300001 44 39 19 255
0.17556238 -0.25953844 0.574 48 41 21 255
0.17806746 -0.26091275 0.57700002 52 45 25 255
0.18027818 -0.26183549 0.57900006 51 44 24 255
0.18250051 -0.26275882 0.58100003 51 46 25 255
0.18473437 -0.26368275 0.583 57 54 33 255
0.18921724 -0.2677736 0.59200001 62 60 40 255
0.19697413 -0.27638915 0.611 62 60 40 255
0.20548666 -0.28591132 0.63200003 62 60 40 255
0.21214835 -0.29272103 0.64700001 62 60 40 255
0.21757093 -0.29772264 0.65800005 81 81 63 255
0.22272153 -0.30227315 0.66800004 91 93 76 255
0.015205293 -0.2297218 0.50600004 46 39 18 255
0.016780715 -0.23244591 0.51200002 45 38 18 255
0.018246837 -0.23335402 0.514 37 31 14 255
0.019647416 -0.23335417 0.514 31 25 8 255
0.021007046 -0.23290034 0.51300001 29 25 9 255
0.022404907 -0.23290053 0.51300001 28 23 12 255
0.023849171 -0.23335472 0.514 25 20 9 255
0.025200641 -0.23290095 0.51300001 23 18 7 255
0.026650362 -0.23335518 0.514 29 24 13 255
0.027996391 -0.23290144 0.51300001 26 21 10 255
0.029508878 -0.23380975 0.51500005 23 18 7 255
0.03097224 -0.23426406 0.51600003 27 23 9 255
0.032441061 -0.23471838 0.51700002 27 24 10 255
0.033849869 -0.23471874 0.51700002 27 24 8 255
0.035122287 -0.23381114 0.51500005 30 27 11 255
0.036596581 -0.23426555 0.51600003 30 27 11 255
0.038002688 -0.234266 0.51600003 29 26 10 255
0.039332435 -0.23381247 0.51500005 26 23 7 255
0.040577643 -0.23290496 0.51300001 29 26 10 255
0.041893784 -0.2324515 0.51200002 32 30 12 255
0.043458145 -0.23336011 0.514 30 26 9 255
0.044946145 -0.23381478 0.51500005 31 27 10 255
0.046439607 -0.23426946 0.51600003 30 26 9 255
0.047660358 -0.23336212 0.514 32 28 11 255
0.049156591 -0.23381694 0.51500005 29 27 9 255
0.050560106 -0.23381774 0.51500005 32 30 12 255
0.052064549 -0.23427263 0.51600003 32 30 12 255
0.053367212 -0.23381953 0.51500005 32 28 11 255
0.054770805 -0.23382053 0.51500005 33 29 12 255
0.056065332 -0.2333675 0.514 32 28 11 255
0.057466254 -0.23336861 0.514 35 31 14 255
0.058752671 -0.23291574 0.51300001 31 27 10 255
0.060150921 -0.23291698 0.51300001 31 27 10 255
0.061429229 -0.23246424 0.51200002 30 26 9 255
0.062947527 -0.23291965 0.51300001 32 28 11 255
0.064471312 -0.23337512 0.514 30 26 9 255
0.066128753 -0.23428473 0.51600003 33 29 12 255
0.067535363 -0.23428632 0.51600003 35 31 14 255
0.068808421 -0.23383401 0.51500005 34 32 14 255
0.070212401 -0.23383577 0.51500005 32 30 12 255
0.071894549 -0.23474574 0.51700002 32 30 12 255
0.073587656 -0.23565584 0.51900005 36 32 15 255
0.07529173 -0.23656604 0.52100003 35 29 12 255
0.076859519 -0.2370223 0.52200001 39 31 14 255
0.07813289 -0.23657051 0.52100003 40 32 15 255
0.079400882 -0.23611885 0.52000004 38 31 11 255
0.080818892 -0.23612136 0.52000004 41 35 18 255
0.082395129 -0.23657806 0.52100003 38 32 15 255
0.083816022 -0.23658082 0.52100003 37 31 14 255
0.085400589 -0.23703778 0.52200001 37 31 14 255
0.086990692 -0.23749489 0.523 36 30 13 255
0.088586353 -0.23795216 0.52400005 37 31 14 255
0.089843966 -0.23750132 0.523 34 28 11 255
0.091270737 -0.23750474 0.523 33 29 12 255
0.092697605 -0.2375083 0.523 33 29 12 255
0.09448453 -0.23842031 0.52500004 31 29 11 255
0.095734358 -0.23797004 0.52400005 30 28 10 255
0.096978843 -0.23751992 0.523 35 33 15 255
0.09802983 -0.23661579 0.52100003 34 32 14 255
0.099642679 -0.23707429 0.52200001 34 32 14 255
0.10106751 -0.23707883 0.52200001 34 30 13 255
0.10249245 -0.23708351 0.52200001 30 26 9 255
0.10391753 -0.23708838 0.52200001 30 26 9 255
0.10534275 -0.23709342 0.52200001 29 25 8 255
0.10676814 -0.23709869 0.52200001 34 28 11 255
0.1086082 -0.23801258 0.52400005 31 27 10 255
0.11024933 -0.23847246 0.52500004 35 31 14 255
0.11189609 -0.23893256 0.52600002 38 35 15 255
0.11290211 -0.23803017 0.52400005 39 36 15 255
0.11433377 -0.23803647 0.52400005 39 36 15 255
0.11532374 -0.2371344 0.52200001 44 41 20 255
0.11697396 -0.23759541 0.523 42 39 18 255
0.11840343 -0.23760234 0.523 42 37 16 255
0.12006226 -0.23806387 0.52400005 45 40 20 255
0.12172676 -0.23852566 0.52500004 44 39 19 255
0.12339693 -0.2389877 0.52600002 42 37 17 255
0.12483547 -0.23899566 0.52600002 44 39 18 255
0.1272345 -0.24082141 0.53000003 53 48 27 255
0.13038406 -0.24401073 0.537 55 50 29 255
0.13381772 -0.24765499 0.54500002 60 53 32 255
0.13630234 -0.2494821 0.54900002 54 47 26 255
0.13906014 -0.25176403 0.55400002 52 45 24 255
0.14108434 -0.25268313 0.55600005 49 39 20 255
0.14311981 -0.25360256 0.55800003 42 32 15 255
0.1449073 -0.2540679 0.55900002 44 34 17 255
0.14670059 -0.25453359 0.56 44 34 17 255
0.14876442 -0.25545424 0.56200004 42 32 15 255
0.15057206 -0.25592071 0.56300002 42 34 17 255
0.15238556 -0.25638759 0.56400001 45 38 17 255
0.15393199 -0.25640023 0.56400001 40 35 14 255
0.15547875 -0.25641328 0.56400001 39 34 13 255
0.15786119 -0.25779065 0.56700003 39 34 13 255
0.15941699 -0.25780451 0.56700003 40 35 14 255
0.16154099 -0.25872812 0.56900001 39 34 14 255
0.1631031 -0.25874284 0.56900001 37 32 12 255
0.16495503 -0.25921267 0.57000005 37 32 11 255
0.16622865 -0.25877342 0.56900001 40 35 15 255
0.16808701 -0.25924417 0.57000005 41 36 16 255
0.16965364 -0.25926054 0.57000005 45 40 20 255
0.17152119 -0.25973222 0.57100004 41 36 16 255
0.17309158 -0.25974947 0.57100004 45 38 18 255
0.17558016 -0.261132 0.574 47 40 20 255
0.17746851 -0.26160529 0.57500005 49 42 22 255
0.17998567 -0.26298907 0.57800001 57 48 27 255
0.18220581 -0.26391855 0.58000004 52 45 24 255
0.1847544 -0.26530364 0.583 54 46 29 255
0.18859877 -0.26850992 0.59000003 65 59 42 255
0.19635132 -0.27717882 0.60900003 65 59 42 255
0.20485967 -0.28676006 0.63000005 65 59 42 255
0.21151698 -0.29361212 0.64500004 72 66 49 255
0.21627367 -0.29773444 0.65400004 82 78 61 255
0.2217477 -0.30276868 0.66500002 95 92 76 255
0.015235476 -0.23155934 0.50700003 48 41 20 255
0.016780866 -0.23384312 0.51200002 45 38 18 255
0.018211506 -0.23430002 0.51300001 39 33 16 255
0.019609377 -0.23430023 0.51300001 28 22 5 255
0.021048201 -0.23475716 0.514 27 23 7 255
0.022492481 -0.23521416 0.51500005 27 22 11 255
0.023895813 -0.23521441 0.51500005 28 23 12 255
0.025299152 -0.23521468 0.51500005 24 19 8 255
0.026702501 -0.23521502 0.51500005 24 19 8 255
0.028105853 -0.23521535 0.51500005 29 24 13 255
0.02956651 -0.23567244 0.51600003 24 19 8 255
0.0309726 -0.2356728 0.51600003 27 22 11 255
0.0323787 -0.23567323 0.51600003 28 24 10 255
0.033719342 -0.23521696 0.51500005 30 27 13 255
0.035054531 -0.23476067 0.514 29 26 10 255
0.036597062 -0.23567466 0.51600003 29 26 10 255
0.038003203 -0.23567522 0.51600003 30 27 11 255
0.03933299 -0.23521908 0.51500005 29 26 10 255
0.040578231 -0.23430623 0.51300001 28 25 9 255
0.041894414 -0.23385015 0.51200002 33 31 13 255
0.043458812 -0.23476431 0.514 34 30 13 255
0.044859573 -0.23476505 0.514 30 26 9 255
0.046350371 -0.23522264 0.51500005 28 24 7 255
0.04756844 -0.23430996 0.51300001 31 27 10 255
0.049252901 -0.23568113 0.51600003 31 29 11 255
0.050659195 -0.23568207 0.51600003 30 28 10 255
0.052166417 -0.2361398 0.51700002 29 27 9 255
0.053264603 -0.23477061 0.514 33 29 12 255
0.054559179 -0.23431501 0.51300001 33 29 12 255
0.055957399 -0.23431619 0.51300001 31 27 10 255
0.057355657 -0.23431744 0.51300001 33 29 12 255
0.058868468 -0.2347755 0.514 33 29 12 255
0.06026952 -0.2347769 0.514 33 29 12 255
0.061550617 -0.23432158 0.51300001 31 27 10 255
0.062826306 -0.23386638 0.51200002 36 30 13 255
0.064347453 -0.23432474 0.51300001 34 28 11 255
0.066130407 -0.23569679 0.51600003 35 29 12 255
0.067667991 -0.23615536 0.51700002 35 31 14 255
0.069211081 -0.23661403 0.51800001 37 33 16 255
0.070486993 -0.23615924 0.51700002 34 32 14 255
0.072035633 -0.23661809 0.51800001 36 32 15 255
0.073589787 -0.23707709 0.51900005 33 29 12 255
0.075293958 -0.23799293 0.52100003 35 29 12 255
0.076861873 -0.23845215 0.52200001 37 29 12 255
0.078135349 -0.23799784 0.52100003 39 31 14 255
0.079403438 -0.23754367 0.52000004 39 32 12 255
0.080821581 -0.23754641 0.52000004 38 32 15 255
0.082556084 -0.23846288 0.52200001 38 32 15 255
0.084140711 -0.2389227 0.523 36 30 13 255
0.085567258 -0.23892583 0.523 36 30 13 255
0.086993895 -0.23892908 0.523 37 31 14 255
0.08842063 -0.23893249 0.523 37 31 14 255
0.089847445 -0.23893602 0.523 34 30 13 255
0.091274358 -0.23893969 0.523 31 27 10 255
0.092878625 -0.2394004 0.52400005 34 32 14 255
0.094308488 -0.23940438 0.52400005 34 32 14 255
0.095555738 -0.23895162 0.523 33 31 13 255
0.096797645 -0.23849905 0.52200001 33 31 13 255
0.098034225 -0.23804659 0.52100003 33 31 13 255
0.099265471 -0.23759432 0.52000004 35 33 15 255
0.10107225 -0.23851293 0.52200001 34 30 13 255
0.10249738 -0.23851793 0.52200001 37 33 16 255
0.10412173 -0.23898001 0.523 35 31 14 255
0.10514624 -0.23807149 0.52100003 37 33 16 255
0.10677362 -0.23853397 0.52200001 34 30 13 255
0.10840662 -0.2389967 0.523 35 31 14 255
0.11004525 -0.23945966 0.52400005 35 31 14 255
0.11168951 -0.23992285 0.52500004 34 31 11 255
0.11290847 -0.23947227 0.52400005 38 35 14 255
0.11455854 -0.2399359 0.52500004 40 37 16 255
0.11599333 -0.23994273 0.52500004 39 36 15 255
0.11742831 -0.23994982 0.52500004 40 35 14 255
0.1186371 -0.23950011 0.52400005 41 36 16 255
0.12006976 -0.23950763 0.52400005 40 35 15 255
0.12150265 -0.23951545 0.52400005 42 37 17 255
0.12340496 -0.2404377 0.52600002 48 41 20 255
0.12508109 -0.24090314 0.52700001 49 42 19 255
0.12772328 -0.24319746 0.53200001 50 43 20 255
0.13063589 -0.24594937 0.53800005 61 52 29 255
0.13382715 -0.24915893 0.54500002 62 53 32 255
0.13631213 -0.25099748 0.54900002 57 48 27 255
0.13881931 -0.25283647 0.55300003 50 41 20 255
0.14058734 -0.25330421 0.55400002 49 39 22 255
0.14236116 -0.25377229 0.55500001 43 33 16 255
0.14414082 -0.25424081 0.55600005 42 32 15 255
0.1461882 -0.25516692 0.55800003 45 37 20 255
0.14851166 -0.25655082 0.56100005 42 34 17 255
0.15031694 -0.25702047 0.56200004 32 26 9 255
0.15212807 -0.25749055 0.56300002 38 33 13 255
0.15367211 -0.25750366 0.56300002 41 36 15 255
0.1554922 -0.25797454 0.56400001 40 35 14 255
0.15787508 -0.2593607 0.56700003 38 31 10 255
0.15971246 -0.2598325 0.56800002 42 35 14 255
0.16155572 -0.26030472 0.56900001 42 35 14 255
0.16311823 -0.26031992 0.56900001 41 34 13 255
0.16468117 -0.26033551 0.56900001 45 38 17 255
0.1662446 -0.26035151 0.56900001 46 39 18 255
0.16780847 -0.26036796 0.56900001 48 43 22 255
0.16967051 -0.26084247 0.57000005 39 34 13 255
0.17123811 -0.26085985 0.57000005 45 38 17 255
0.17310937 -0.26133531 0.57100004 52 43 22 255
0.1752926 -0.26226902 0.57300001 47 38 17 255
0.17717868 -0.26274556 0.574 49 38 17 255
0.17938225 -0.26368049 0.57600003 60 49 28 255
0.18128322 -0.26415819 0.57700002 59 47 28 255
0.18414111 -0.26601002 0.58100003 60 50 33 255
0.18798071 -0.26923627 0.588 59 53 36 255
0.19508408 -0.27704278 0.60500002 64 58 41 255
0.20390795 -0.28714094 0.62700003 59 53 36 255
0.20990223 -0.2931194 0.64000005 69 65 48 255
0.21497682 -0.29772538 0.65000004 73 69 52 255
0.015205603 -0.23248407 0.50600004 43 33 14 255
0.016748287 -0.23478155 0.51100004 45 35 18 255
0.018211722 -0.23570067 0.51300001 40 32 15 255
0.019609611 -0.23570092 0.51300001 32 24 8 255
0.02100751 -0.23570119 0.51300001 30 24 8 255
0.022449085 -0.23616095 0.514 28 23 12 255
0.02389612 -0.23662077 0.51500005 26 21 10 255
0.025299484 -0.2366211 0.51500005 27 22 11 255
0.026702857 -0.2366215 0.51500005 24 19 8 255
0.02816081 -0.23708136 0.51600003 26 21 10 255
0.029566923 -0.23708178 0.51600003 27 23 9 255
0.030973045 -0.23708226 0.51600003 27 23 9 255
0.032316428 -0.23662332 0.51500005 29 25 11 255
0.033719849 -0.23662385 0.51500005 28 24 8 255
0.035055071 -0.23616494 0.514 29 26 10 255
0.036668573 -0.23754397 0.51700002 30 27 11 255
0.038077474 -0.23754461 0.51700002 29 26 10 255
0.039410021 -0.23708585 0.51600003 29 26 10 255
0.040658027 -0.23616762 0.514 29 25 9 255
0.042058803 -0.23616841 0.514 31 27 11 255
0.043459598 -0.2361692 0.514 31 25 9 255
0.044860415 -0.23617011 0.514 32 26 10 255
0.046261251 -0.23617102 0.514 28 24 8 255
0.047662105 -0.23617201 0.514 30 26 9 255
0.049062982 -0.236173 0.514 31 29 11 255
0.050562065 -0.2366336 0.51500005 34 31 15 255
0.051965728 -0.23663478 0.51500005 28 25 9 255
0.053265769 -0.23617646 0.514 30 27 11 255
0.054560401 -0.23571824 0.51300001 32 29 13 255
0.055958692 -0.23571956 0.51300001 31 29 11 255
0.057357021 -0.23572099 0.51300001 34 30 13 255
0.058869909 -0.23618196 0.514 34 30 13 255
0.060271028 -0.23618352 0.514 34 30 13 255
0.061552204 -0.23572564 0.51300001 36 30 13 255
0.062950678 -0.23572737 0.51300001 37 31 14 255
0.064600073 -0.23664819 0.51500005 35 29 12 255
0.06626042 -0.23756911 0.51700002 39 31 14 255
0.067931704 -0.23849012 0.51900005 38 32 15 255
0.069480352 -0.23895173 0.52000004 37 31 14 255
0.071034491 -0.23941346 0.52100003 38 32 15 255
0.072316006 -0.23895623 0.52000004 34 28 11 255
0.07387571 -0.23941812 0.52100003 36 30 13 255
0.075440943 -0.23988017 0.52200001 35 29 12 255
0.077158935 -0.24080187 0.52400005 36 30 13 255
0.078287996 -0.23988552 0.52200001 37 31 14 255
0.079711631 -0.23988836 0.52200001 34 28 11 255
0.080979906 -0.23943177 0.52100003 34 28 11 255
0.082559124 -0.23989442 0.52200001 35 29 12 255
0.083822116 -0.23943809 0.52100003 34 28 11 255
0.085406952 -0.23990101 0.52200001 35 29 12 255
0.086831003 -0.23990452 0.52200001 37 31 14 255
0.088255145 -0.23990814 0.52200001 35 29 12 255
0.089507572 -0.23945232 0.52100003 38 32 15 255
0.090929188 -0.23945624 0.52100003 34 30 13 255
0.092705414 -0.24037954 0.523 34 30 13 255
0.09431269 -0.24084342 0.52400005 35 33 15 255
0.095560096 -0.24038821 0.523 32 30 12 255
0.096802168 -0.23993315 0.52200001 31 29 11 255
0.098227069 -0.23993787 0.52200001 32 30 12 255
0.099461205 -0.23948313 0.52100003 37 35 17 255
0.1010773 -0.23994789 0.52200001 39 36 16 255
0.10269897 -0.24041285 0.523 39 36 16 255
0.10432626 -0.24087803 0.52400005 36 32 15 255
0.10555548 -0.24042396 0.523 37 34 14 255
0.10718856 -0.24088959 0.52400005 34 31 11 255
0.10882723 -0.2413554 0.52500004 35 32 12 255
0.11005149 -0.24090198 0.52400005 34 31 11 255
0.11127046 -0.24044871 0.523 36 33 13 255
0.11269964 -0.24045542 0.523 36 33 12 255
0.11434723 -0.24092215 0.52400005 39 36 15 255
0.11600047 -0.24138913 0.52500004 39 34 13 255
0.11721201 -0.24093677 0.52400005 39 34 14 255
0.1186447 -0.24094443 0.52400005 35 30 10 255
0.12007761 -0.24095233 0.52400005 41 34 14 255
0.12151074 -0.24096049 0.52400005 43 36 16 255
0.12364797 -0.24234846 0.52700001 48 41 21 255
0.1255645 -0.243277 0.52900004 54 47 26 255
0.12845261 -0.2460454 0.53500003 57 48 25 255
0.13088815 -0.2478945 0.53900003 62 53 30 255
0.13408254 -0.25112376 0.546 58 49 28 255
0.13632233 -0.25251386 0.54900002 56 45 24 255
0.13882987 -0.25436428 0.55300003 54 43 22 255
0.14034447 -0.25437525 0.55300003 46 34 15 255
0.14237243 -0.25530651 0.55500001 42 32 15 255
0.14441168 -0.25623825 0.55700004 38 30 13 255
0.14672422 -0.25763044 0.56 39 33 16 255
0.14852406 -0.25810295 0.56100005 39 33 16 255
0.15032972 -0.25857589 0.56200004 37 31 14 255
0.15214124 -0.25904918 0.56300002 36 31 11 255
0.15368564 -0.25906274 0.56300002 36 31 11 255
0.15578187 -0.25999707 0.565 39 34 14 255
0.15788949 -0.26093188 0.56700003 40 33 13 255
0.15972728 -0.26140693 0.56800002 38 31 11 255
0.16128699 -0.26142219 0.56800002 43 36 15 255
0.16313389 -0.26189813 0.56900001 41 34 13 255
0.16469724 -0.26191425 0.56900001 41 34 13 255
0.16626111 -0.26193079 0.56900001 42 35 14 255
0.16782542 -0.26194778 0.56900001 46 41 20 255
0.16968791 -0.2624256 0.57000005 44 37 16 255
0.17185687 -0.26336437 0.57200003 44 37 16 255
0.1734309 -0.26338276 0.57200003 49 40 17 255
0.1756174 -0.26432261 0.574 49 40 17 255
0.17719805 -0.26434207 0.574 54 43 20 255
0.17940217 -0.26528311 0.57600003 57 46 23 255
0.18130368 -0.26576418 0.57700002 58 49 28 255
0.18384525 -0.26716709 0.58000004 57 50 29 255
0.18736316 -0.26995277 0.58600003 58 53 32 255
0.1941397 -0.27734652 0.60200006 58 53 32 255
0.20295671 -0.28750652 0.62400001 58 53 32 255
0.20959984 -0.29444337 0.63900006 61 59 39 255
0.21467265 -0.29907787 0.64900005 69 67 47 255
0.015205819 -0.23386618 0.50600004 46 36 19 255
0.016748529 -0.23617736 0.51100004 46 36 19 255
0.018247489 -0.23756419 0.514 36 28 11 255
0.019648129 -0.23756449 0.514 34 26 10 255
0.021089729 -0.23802704 0.51500005 29 22 9 255
0.022493109 -0.23802739 0.51500005 27 22 11 255
0.023942895 -0.23848999 0.51600003 25 20 9 255
0.025349014 -0.2384904 0.51600003 27 22 11 255
0.026703289 -0.23802868 0.51500005 26 21 10 255
0.02821585 -0.23895352 0.51700002 29 24 13 255
0.02956742 -0.23849183 0.51600003 26 22 8 255
0.03091355 -0.23803023 0.51500005 29 25 11 255
0.032191485 -0.2371064 0.51300001 31 27 13 255
0.033654965 -0.2375692 0.514 30 26 10 255
0.034987509 -0.23710768 0.51300001 30 26 10 255
0.036527403 -0.23803283 0.51500005 31 27 11 255
0.037930895 -0.23803356 0.51500005 30 26 10 255
0.039334413 -0.23803438 0.51500005 31 27 11 255
0.040579736 -0.23711079 0.51300001 30 26 10 255
0.04197783 -0.23711166 0.51300001 30 26 10 255
0.043375954 -0.23711263 0.51300001 31 25 9 255
0.044774089 -0.2371136 0.51300001 30 26 10 255
0.046172258 -0.23711467 0.51300001 33 29 13 255
0.047663167 -0.23757796 0.514 31 27 10 255
0.049064111 -0.23757914 0.514 30 27 11 255
0.050563253 -0.23804259 0.51500005 36 33 17 255
0.051866062 -0.23758164 0.514 30 27 11 255
0.053059824 -0.23665857 0.51200002 34 31 15 255
0.054455426 -0.23665997 0.51200002 34 31 15 255
0.055741981 -0.23619926 0.51100004 33 31 13 255
0.057246737 -0.23666306 0.51200002 34 30 13 255
0.05864244 -0.23666467 0.51200002 33 29 12 255
0.060272709 -0.23759088 0.514 33 29 12 255
0.061793942 -0.23805493 0.51500005 38 32 15 255
0.063320659 -0.23851906 0.51600003 36 30 13 255
0.064727455 -0.23852105 0.51600003 35 29 12 255
0.066390611 -0.23944761 0.51800001 37 31 14 255
0.068064734 -0.24037433 0.52000004 33 25 8 255
0.069749825 -0.24130113 0.52200001 40 34 17 255
0.071173184 -0.24130353 0.52200001 38 32 15 255
0.072457507 -0.24084373 0.52100003 36 30 13 255
0.073878266 -0.24084637 0.52100003 35 29 12 255
0.075443603 -0.24131134 0.52200001 34 28 11 255
0.077161729 -0.24223877 0.52400005 36 30 13 255
0.078440875 -0.24177942 0.523 37 31 14 255
0.079714648 -0.24132021 0.52200001 32 28 11 255
0.080983043 -0.24086109 0.52100003 36 32 15 255
0.082404248 -0.24086443 0.52100003 38 34 17 255
0.083825529 -0.2408679 0.52100003 31 27 10 255
0.085246883 -0.24087147 0.52100003 32 28 11 255
0.086834684 -0.24133754 0.52200001 36 30 13 255
0.088428058 -0.2418038 0.523 34 30 13 255
0.089855164 -0.2418078 0.523 38 34 17 255
0.091282375 -0.24181201 0.523 35 31 14 255
0.092886984 -0.24227877 0.52400005 35 31 14 255
0.094137162 -0.2418209 0.523 34 30 13 255
0.095381998 -0.2413632 0.52200001 30 28 10 255
0.096621506 -0.24090567 0.52100003 31 29 11 255
0.098232038 -0.24137308 0.52200001 36 34 16 255
0.099466339 -0.24091585 0.52100003 38 36 18 255
0.10127626 -0.24184607 0.523 40 37 17 255
0.1027045 -0.24185167 0.523 36 33 13 255
0.10453109 -0.24278235 0.52500004 34 31 11 255
0.10556141 -0.24186343 0.523 37 34 14 255
0.10719469 -0.24233212 0.52400005 36 33 13 255
0.10862628 -0.24233849 0.52400005 36 33 13 255
0.10984802 -0.24188262 0.523 36 33 13 255
0.11106446 -0.24142694 0.52200001 39 34 14 255
0.11292215 -0.24235904 0.52400005 40 35 15 255
0.11413623 -0.2419038 0.523 41 36 15 255
0.115787 -0.24237387 0.52400005 41 36 15 255
0.11699601 -0.24191906 0.523 35 30 10 255
0.11887909 -0.24285223 0.52500004 40 34 17 255
0.12008583 -0.24239792 0.52400005 42 35 15 255
0.12198303 -0.24333167 0.52600002 40 33 13 255
0.12365675 -0.24380308 0.52700001 48 41 21 255
0.12581097 -0.24520013 0.53000003 52 45 24 255
0.12846208 -0.24752286 0.53500003 57 48 25 255
0.13114083 -0.24984606 0.54000002 57 48 25 255
0.13433841 -0.25309515 0.54700005 56 47 24 255
0.13658126 -0.25449389 0.55000001 52 43 22 255
0.13884088 -0.25589314 0.55300003 49 40 19 255
0.14060959 -0.25636727 0.55400002 43 36 16 255
0.14264069 -0.25730458 0.55600005 38 33 13 255
0.14442377 -0.25777948 0.55700004 41 36 16 255
0.14647467 -0.25871763 0.55900002 34 31 11 255
0.14853692 -0.25965616 0.56100005 39 34 14 255
0.15007547 -0.25966945 0.56100005 37 32 12 255
0.15188463 -0.26014599 0.56200004 39 34 14 255
0.15342666 -0.26016003 0.56200004 37 32 12 255
0.15579632 -0.26156327 0.565 38 33 13 255
0.15734738 -0.26157817 0.565 41 34 14 255
0.15946136 -0.26251945 0.56700003 43 33 14 255
0.16101874 -0.26253521 0.56700003 43 34 13 255
0.16286333 -0.26301444 0.56800002 45 36 15 255
0.16442437 -0.26303107 0.56800002 46 39 18 255
0.16627811 -0.26351121 0.56900001 43 36 15 255
0.16784288 -0.26352873 0.56900001 45 38 17 255
0.16970585 -0.26400989 0.57000005 44 37 17 255
0.17157483 -0.26449153 0.57100004 46 36 17 255
0.17344984 -0.26497373 0.57200003 43 34 13 255
0.17533089 -0.26545647 0.57300001 48 37 14 255
0.17721802 -0.26593974 0.574 54 43 20 255
0.17911121 -0.26642361 0.57500005 59 51 26 255
0.18132477 -0.26737142 0.57700002 60 52 27 255
0.18354994 -0.2683199 0.57900006 52 45 22 255
0.18706581 -0.27112284 0.58500004 56 54 30 255
0.19319573 -0.2776348 0.59900004 60 58 38 255
0.20200589 -0.28785676 0.62100005 56 54 30 255
0.20896998 -0.29529956 0.63700002 60 58 38 255
0.21503077 -0.30135351 0.65000004 65 63 43 255
0.015206077 -0.235249 0.50600004 41 33 16 255
0.016748816 -0.23757391 0.51100004 41 33 16 255
0.018247809 -0.23896898 0.514 37 31 14 255
0.019724932 -0.23989917 0.51600003 31 25 9 255
0.021049153 -0.23896971 0.514 28 24 10 255
0.022493513 -0.23943509 0.51500005 27 24 10 255
0.023896933 -0.23943554 0.51500005 28 25 11 255
0.025398608 -0.24036585 0.51700002 28 25 11 255
0.026703794 -0.23943657 0.51500005 26 23 9 255
0.028161816 -0.23990203 0.51600003 26 23 9 255
0.029510697 -0.23943771 0.51500005 28 25 11 255
0.030914169 -0.23943835 0.51500005 28 24 10 255
0.032254893 -0.23897409 0.514 26 22 6 255
0.033721145 -0.23943976 0.51500005 29 25 9 255
0.034988243 -0.23851062 0.51300001 30 26 10 255
0.036528185 -0.23944134 0.51500005 35 29 13 255
0.038005374 -0.2399071 0.51600003 37 31 15 255
0.039488044 -0.24037294 0.51700002 29 23 7 255
0.040738869 -0.23944405 0.51500005 29 23 7 255
0.041978806 -0.23851517 0.51300001 29 23 7 255
0.043376982 -0.23851624 0.51300001 32 26 10 255
0.044862457 -0.23898228 0.514 32 28 12 255
0.046173397 -0.23851851 0.51300001 32 28 12 255
0.047757108 -0.23944968 0.51500005 34 30 14 255
0.048969917 -0.23852105 0.51300001 30 26 10 255
0.050368216 -0.23852241 0.51300001 34 31 15 255
0.051665645 -0.23805889 0.51200002 32 29 13 255
0.053164911 -0.23852533 0.51300001 31 29 11 255
0.054563314 -0.23852693 0.51300001 28 26 8 255
0.05596175 -0.23852856 0.51300001 33 31 13 255
0.057360224 -0.23853029 0.51300001 37 33 16 255
0.058758736 -0.2385321 0.51300001 34 30 13 255
0.060391821 -0.23946396 0.51500005 34 30 13 255
0.062035859 -0.24039589 0.51700002 36 30 13 255
0.06356813 -0.24086298 0.51800001 35 29 12 255
0.064980455 -0.24086514 0.51800001 37 31 14 255
0.066521019 -0.24133243 0.51900005 40 32 15 255
0.068197966 -0.24226478 0.52100003 38 30 13 255
0.069752268 -0.24273229 0.52200001 38 30 13 255
0.071175724 -0.24273488 0.52200001 38 30 13 255
0.072460167 -0.24227257 0.52100003 33 27 10 255
0.07388103 -0.2422754 0.52100003 35 29 12 255
0.075446486 -0.24274334 0.52200001 38 32 15 255
0.077017479 -0.24321142 0.523 33 29 12 255
0.078444012 -0.24321459 0.523 30 26 9 255
0.079717904 -0.24275289 0.52200001 32 29 13 255
0.081141867 -0.24275631 0.52200001 33 30 14 255
0.082565933 -0.2427599 0.52200001 31 28 12 255
0.083829165 -0.24229854 0.52100003 34 32 14 255
0.085250676 -0.24230237 0.52100003 34 32 14 255
0.087004982 -0.2432365 0.523 34 30 13 255
0.088601246 -0.24370576 0.52400005 33 29 12 255
0.089859419 -0.24324498 0.523 34 30 13 255
0.091286786 -0.24324943 0.523 36 32 15 255
0.09271428 -0.24325407 0.523 36 32 15 255
0.093961895 -0.24279374 0.52200001 32 28 12 255
0.095021449 -0.24186845 0.52000004 30 26 9 255
0.096441112 -0.24187358 0.52000004 35 31 14 255
0.098049104 -0.24234401 0.52100003 35 31 14 255
0.099662706 -0.24281466 0.52200001 36 32 15 255
0.10128191 -0.24328551 0.523 37 34 14 255
0.10271034 -0.24329141 0.523 32 29 9 255
0.10433805 -0.24376272 0.52400005 34 31 11 255
0.10576952 -0.24376902 0.52400005 34 32 12 255
0.10699657 -0.2433103 0.523 36 33 13 255
0.10842563 -0.24331699 0.523 33 30 10 255
0.10943481 -0.24239346 0.52100003 38 33 13 255
0.11107156 -0.24286586 0.52200001 40 35 15 255
0.11249847 -0.24287324 0.52200001 40 35 15 255
0.1141438 -0.24334612 0.523 41 36 16 255
0.11579482 -0.24381931 0.52400005 39 32 12 255
0.11722779 -0.24382743 0.52400005 40 35 15 255
0.11888744 -0.24430117 0.52500004 37 32 12 255
0.12032359 -0.2443098 0.52500004 43 38 17 255
0.1219919 -0.24478409 0.52600002 48 41 18 255
0.12413525 -0.24618945 0.52900004 48 41 18 255
0.12653264 -0.2480606 0.53300005 54 47 24 255
0.12943248 -0.25086302 0.53900003 55 47 22 255
0.1318797 -0.25273508 0.54300004 60 52 27 255
0.13459471 -0.25507304 0.54800004 59 50 27 255
0.13659233 -0.25601506 0.55000001 51 42 21 255
0.13885233 -0.25742304 0.55300003 50 41 20 255
0.14062139 -0.25790036 0.55400002 45 38 18 255
0.14290944 -0.2593092 0.55700004 42 37 17 255
0.1444363 -0.25932181 0.55700004 42 37 17 255
0.14674966 -0.26073149 0.56 36 33 13 255
0.14855026 -0.2612105 0.56100005 37 34 14 255
0.1503567 -0.26168987 0.56200004 38 33 13 255
0.15216899 -0.26216969 0.56300002 38 33 13 255
0.15371418 -0.26218426 0.56300002 39 34 14 255
0.1555355 -0.26266491 0.56400001 35 28 8 255
0.15736271 -0.26314601 0.565 39 32 12 255
0.1591959 -0.26362762 0.56600004 39 32 12 255
0.16103496 -0.26410964 0.56700003 41 34 14 255
0.16230649 -0.26366055 0.56600004 43 36 15 255
0.16415197 -0.26414347 0.56700003 46 39 18 255
0.16600345 -0.26462692 0.56800002 41 34 14 255
0.1678609 -0.26511088 0.56900001 42 35 15 255
0.16972436 -0.26559538 0.57000005 46 36 17 255
0.17159386 -0.26608041 0.57100004 47 37 18 255
0.17346936 -0.26656595 0.57200003 49 38 17 255
0.17565694 -0.2675181 0.574 50 39 16 255
0.17723857 -0.2675387 0.574 58 47 24 255
0.1791323 -0.26802593 0.57500005 57 49 24 255
0.18134643 -0.26897991 0.57700002 54 48 23 255
0.18357222 -0.26993459 0.57900006 51 47 22 255
0.18676905 -0.27228868 0.58400005 58 56 32 255
0.19257474 -0.27837402 0.597 59 57 37 255
0.20105553 -0.28819162 0.61800003 59 57 37 255
0.2086688 -0.29661247 0.63600004 59 57 37 255
0.21505886 -0.30316979 0.65000004 64 62 42 255
0.013663534 -0.23382629 0.5 42 36 19 255
0.015206379 -0.23663253 0.50600004 41 35 18 255
0.016716374 -0.2385035 0.51000005 44 38 21 255
0.018177172 -0.23943919 0.51200002 30 26 9 255
0.019687107 -0.24084257 0.51500005 27 23 7 255
0.021049587 -0.24037533 0.514 27 24 10 255
0.022493986 -0.2408435 0.51500005 28 25 11 255
0.023897437 -0.24084401 0.51500005 26 23 9 255
0.025448283 -0.24224754 0.51800001 28 25 11 255
0.026808079 -0.24178047 0.51700002 26 23 9 255
0.028107861 -0.24084583 0.51500005 26 23 9 255
0.029454052 -0.24037883 0.514 27 24 10 255
0.030854836 -0.24037954 0.514 28 25 11 255
0.032318391 -0.24084799 0.51500005 27 23 9 255
0.033721939 -0.24084881 0.51500005 29 25 11 255
0.035057284 -0.24038197 0.514 29 25 9 255
0.036458135 -0.24038288 0.514 27 23 7 255
0.03793266 -0.24085154 0.51500005 30 26 10 255
0.039489038 -0.24178791 0.51700002 29 25 9 255
0.040739913 -0.24085364 0.51500005 32 26 10 255
0.042061727 -0.24038707 0.514 30 24 8 255
0.04337813 -0.23992059 0.51300001 30 26 10 255
0.044863667 -0.2403895 0.514 32 28 12 255
0.046264678 -0.24039081 0.514 32 28 12 255
0.047665704 -0.24039216 0.514 32 26 10 255
0.048971318 -0.23992594 0.51300001 31 27 11 255
0.050369684 -0.23992743 0.51300001 30 26 10 255
0.05166718 -0.23946133 0.51200002 33 29 12 255
0.053062886 -0.23946297 0.51200002 30 28 10 255
0.054671366 -0.24040011 0.514 31 29 11 255
0.055963516 -0.23993421 0.51300001 34 32 14 255
0.05747389 -0.24040382 0.514 33 29 12 255
0.058875211 -0.2404058 0.514 37 31 14 255
0.060511116 -0.2413433 0.51600003 37 31 14 255
0.062157977 -0.24228092 0.51800001 36 30 13 255
0.063693084 -0.24275094 0.51900005 40 32 15 255
0.065233678 -0.24322101 0.52000004 38 30 13 255
0.066779785 -0.24369124 0.52100003 38 30 13 255
0.068200499 -0.24369381 0.52100003 38 30 13 255
0.069621287 -0.2436965 0.52100003 42 34 17 255
0.071042128 -0.24369933 0.52100003 38 30 13 255
0.072463028 -0.24370223 0.52100003 35 29 12 255
0.07388401 -0.24370526 0.52100003 34 28 11 255
0.075449593 -0.24417615 0.52200001 36 30 13 255
0.076873444 -0.24417944 0.52200001 31 27 10 255
0.078147382 -0.24371506 0.52100003 31 27 10 255
0.079263233 -0.24278304 0.51900005 32 29 13 255
0.08083459 -0.24325448 0.52000004 36 33 17 255
0.082411505 -0.24372606 0.52100003 32 29 13 255
0.083993964 -0.24419782 0.52200001 34 32 14 255
0.085418344 -0.24420191 0.52200001 31 29 11 255
0.087009199 -0.244674 0.523 34 30 13 255
0.088436514 -0.24467839 0.523 33 29 12 255
0.089863941 -0.244683 0.523 34 30 13 255
0.091291472 -0.24468772 0.523 32 28 12 255
0.092719138 -0.24469262 0.523 33 29 13 255
0.093966924 -0.24422985 0.52200001 33 29 13 255
0.095026605 -0.24329932 0.52000004 33 29 12 255
0.096446462 -0.24330473 0.52000004 37 31 14 255
0.098054647 -0.2437782 0.52100003 36 32 15 255
0.099477507 -0.243784 0.52100003 32 28 11 255
0.10090053 -0.24378999 0.52100003 31 28 8 255
0.10232368 -0.24379615 0.52100003 37 33 16 255
0.10394614 -0.24427049 0.52200001 39 37 17 255
0.10537235 -0.24427707 0.52200001 32 30 10 255
0.10659416 -0.24381594 0.52100003 34 31 11 255
0.10781065 -0.24335496 0.52000004 33 30 10 255
0.10923194 -0.24336222 0.52000004 34 28 11 255
0.11107899 -0.2443057 0.52200001 40 34 17 255
0.11272165 -0.24478142 0.523 40 35 15 255
0.11415172 -0.24478942 0.523 42 35 15 255
0.115582 -0.24479763 0.523 36 29 9 255
0.11701249 -0.24480611 0.523 40 33 12 255
0.11889613 -0.24575104 0.52500004 42 37 16 255
0.12033256 -0.24576008 0.52500004 40 35 14 255
0.12246504 -0.24717376 0.528 50 44 19 255
0.12437951 -0.24811968 0.53000003 52 46 21 255
0.12677999 -0.25000229 0.53400004 53 47 22 255
0.12968297 -0.25282171 0.54000002 58 50 25 255
0.13237621 -0.2551735 0.54500002 57 49 24 255
0.13460582 -0.25658929 0.54800004 59 49 24 255
0.13685219 -0.25800553 0.551 52 41 18 255
0.1386131 -0.25848573 0.55200005 46 37 16 255
0.14037979 -0.25896627 0.55300003 41 36 16 255
0.14240888 -0.2599155 0.55500001 42 37 17 255
0.14444929 -0.26086518 0.55700004 41 36 16 255
0.14676307 -0.26228368 0.56 40 35 15 255
0.14882889 -0.26323432 0.56200004 38 33 13 255
0.1503709 -0.26324856 0.56200004 39 34 14 255
0.15218362 -0.26373166 0.56300002 39 34 14 255
0.15345612 -0.26327825 0.56200004 37 31 14 255
0.15555091 -0.26423064 0.56400001 36 29 9 255
0.15710005 -0.26424652 0.56400001 41 34 14 255
0.1592122 -0.26519993 0.56600004 37 30 10 255
0.16076769 -0.26521671 0.56600004 44 39 19 255
0.16232364 -0.2652339 0.56600004 37 32 12 255
0.16359051 -0.26478291 0.565 42 37 16 255
0.16543697 -0.26526964 0.56600004 39 34 14 255
0.16699436 -0.26528817 0.56600004 47 40 20 255
0.16914783 -0.26624462 0.56800002 45 35 16 255
0.1710123 -0.2667329 0.56900001 46 36 17 255
0.17348945 -0.26815939 0.57200003 46 37 16 255
0.1750655 -0.26818004 0.57200003 56 45 24 255
0.17695092 -0.26867002 0.57300001 50 39 18 255
0.17915401 -0.26962954 0.57500005 55 46 23 255
0.18136874 -0.27058971 0.57700002 55 47 22 255
0.18359511 -0.2715506 0.57900006 52 46 21 255
0.18615299 -0.2729812 0.58200002 52 51 29 255
0.19098641 -0.27769616 0.59200001 50 49 27 255
0.19912949 -0.2871038 0.61200005 50 49 27 255
0.20738384 -0.29651377 0.63200003 50 49 27 255
0.21442589 -0.30404922 0.648 57 55 37 255
0.013718499 -0.2361349 0.50200003 44 39 19 255
0.015236778 -0.2384872 0.50700003 44 38 21 255
0.016749535 -0.24036914 0.51100004 40 36 19 255
0.018106587 -0.23989917 0.51000005 28 26 8 255
0.01957288 -0.24084042 0.51200002 26 23 7 255
0.020927224 -0.24037053 0.51100004 25 22 8 255
0.022450838 -0.24178222 0.514 28 25 11 255
0.023898013 -0.24225324 0.51500005 28 25 11 255
0.025448902 -0.24366504 0.51800001 28 25 11 255
0.026808741 -0.24319534 0.51700002 29 26 12 255
0.028108561 -0.24225527 0.51500005 26 23 9 255
0.029454798 -0.24178562 0.514 27 26 12 255
0.030855628 -0.24178642 0.514 27 24 10 255
0.032381989 -0.2427281 0.51600003 28 25 9 255
0.033788305 -0.24272902 0.51600003 28 25 9 255
0.035194639 -0.24272999 0.51600003 28 24 8 255
0.036600992 -0.242731 0.51600003 29 25 9 255
0.038007367 -0.24273209 0.51600003 29 25 9 255
0.039413761 -0.2427332 0.51600003 30 26 10 255
0.040741071 -0.242264 0.51500005 30 26 10 255
0.042062946 -0.24179479 0.514 29 25 9 255
0.043463968 -0.24179611 0.514 30 26 10 255
0.044952299 -0.24226792 0.51500005 32 28 12 255
0.046356104 -0.24226938 0.51500005 30 26 10 255
0.047852665 -0.24274132 0.51600003 31 27 10 255
0.049163792 -0.24227248 0.51500005 31 27 10 255
0.050567687 -0.24227414 0.51500005 30 26 9 255
0.0518707 -0.2418054 0.514 34 30 13 255
0.053375587 -0.24227768 0.51500005 32 28 11 255
0.054779593 -0.24227957 0.51500005 36 32 15 255
0.056292731 -0.24275199 0.51600003 36 32 15 255
0.057699561 -0.24275409 0.51600003 36 30 13 255
0.059220966 -0.24322669 0.51700002 36 30 13 255
0.060747873 -0.24369937 0.51800001 33 27 10 255
0.062400296 -0.24464269 0.52000004 36 30 13 255
0.063940942 -0.24511562 0.52100003 36 28 11 255
0.065612555 -0.24605913 0.523 37 29 12 255
0.066910587 -0.24559133 0.52200001 36 28 11 255
0.068465054 -0.24606462 0.523 35 27 10 255
0.06975776 -0.24559702 0.52200001 39 31 14 255
0.071181439 -0.24560004 0.52200001 35 29 12 255
0.072466105 -0.24513267 0.52100003 36 30 13 255
0.073887199 -0.24513592 0.52100003 32 26 9 255
0.075452931 -0.2456098 0.52200001 34 28 12 255
0.076876909 -0.24561332 0.52200001 34 28 12 255
0.078150973 -0.24514642 0.52100003 35 31 14 255
0.079419665 -0.24467966 0.52000004 32 28 11 255
0.081149355 -0.24562465 0.52200001 30 26 9 255
0.082890078 -0.24656983 0.52400005 33 29 12 255
0.084319964 -0.24657404 0.52400005 30 28 10 255
0.085913591 -0.24704899 0.52500004 26 24 6 255
0.087180041 -0.24658294 0.52400005 30 28 10 255
0.088441141 -0.24611703 0.523 31 29 11 255
0.089696907 -0.24565129 0.52200001 34 32 14 255
0.091296434 -0.24612688 0.523 32 30 12 255
0.09254697 -0.24566145 0.52200001 33 29 12 255
0.093972221 -0.24566682 0.52200001 30 26 9 255
0.095032066 -0.24473107 0.52000004 31 27 10 255
0.096637584 -0.24520741 0.52100003 32 26 9 255
0.098248698 -0.24568395 0.52200001 40 34 17 255
0.099865444 -0.24616075 0.523 34 28 11 255
0.10090676 -0.24522567 0.52100003 36 30 13 255
0.10252653 -0.24570285 0.52200001 35 31 14 255
0.1039528 -0.24570958 0.52200001 33 31 13 255
0.10537923 -0.24571651 0.52200001 37 35 17 255
0.10639662 -0.24478219 0.52000004 37 33 16 255
0.10802529 -0.24526028 0.52100003 35 31 14 255
0.10944952 -0.24526787 0.52100003 34 30 13 255
0.11129957 -0.24621724 0.523 41 35 18 255
0.11251415 -0.24575454 0.52200001 42 36 19 255
0.11415999 -0.24623364 0.523 42 35 15 255
0.11559052 -0.24624224 0.523 41 31 12 255
0.11724502 -0.24672192 0.52400005 44 35 14 255
0.11867873 -0.24673106 0.52400005 44 37 16 255
0.12057113 -0.24768218 0.52600002 45 38 17 255
0.12247471 -0.24863367 0.528 51 44 21 255
0.12485889 -0.25052732 0.53200001 51 45 20 255
0.12750265 -0.25289237 0.537 55 47 22 255
0.13041429 -0.25572893 0.54300004 56 48 23 255
0.13287322 -0.25762403 0.54700005 58 48 23 255
0.13510871 -0.25904861 0.55000001 54 44 19 255
0.13711256 -0.26000264 0.55200005 45 34 11 255
0.13887654 -0.26048604 0.55300003 43 34 13 255
0.14064632 -0.26096982 0.55400002 42 35 15 255
0.14293519 -0.26239619 0.55700004 43 36 16 255
0.14498147 -0.26335192 0.55900002 46 39 19 255
0.14677697 -0.26383695 0.56 43 38 18 255
0.14857836 -0.26432249 0.56100005 43 38 18 255
0.15011801 -0.26433721 0.56100005 40 35 15 255
0.15219872 -0.26529476 0.56300002 41 36 16 255
0.15374468 -0.26531032 0.56300002 40 33 13 255
0.15556686 -0.26579756 0.56400001 40 33 13 255
0.15711638 -0.26581395 0.56400001 39 32 12 255
0.15894769 -0.26630211 0.565 41 34 14 255
0.16078494 -0.26679075 0.56600004 43 38 18 255
0.16234133 -0.26680851 0.56600004 38 33 13 255
0.16418774 -0.2672981 0.56700003 40 35 15 255
0.16545554 -0.26684532 0.56600004 41 36 16 255
0.16730848 -0.26733592 0.56700003 45 38 18 255
0.16916741 -0.26782703 0.56800002 44 34 15 255
0.17133299 -0.26879025 0.57000005 47 37 18 255
0.17351012 -0.26975408 0.57200003 47 37 18 255
0.17508668 -0.26977533 0.57200003 48 36 17 255
0.17666379 -0.26979706 0.57200003 52 43 22 255
0.17886467 -0.27076271 0.574 54 45 22 255
0.18107729 -0.27172911 0.57600003 53 46 23 255
0.18330152 -0.27269614 0.57800001 49 42 19 255
0.18585731 -0.27413574 0.58100003 53 51 31 255
0.19068895 -0.27887928 0.59100002 53 51 31 255
0.19785446 -0.2869277 0.60800004 53 51 31 255
0.20609924 -0.29639414 0.62800002 53 51 31 255
0.21313162 -0.30397499 0.64400005 49 47 29 255
0.01369152 -0.23703583 0.50100005 49 42 22 255
0.015237167 -0.23987496 0.50700003 45 39 22 255
0.016684409 -0.24082164 0.509 42 36 19 255
0.018071553 -0.24082211 0.509 30 26 9 255
0.019496938 -0.24129578 0.51000005 29 26 10 255
0.020968731 -0.24224257 0.51200002 27 24 10 255
0.02245144 -0.24318945 0.514 24 23 9 255
0.023945061 -0.24413636 0.51600003 24 23 9 255
0.025400467 -0.24461022 0.51700002 25 24 10 255
0.026809478 -0.24461097 0.51700002 28 25 11 255
0.028109346 -0.24366552 0.51500005 27 24 10 255
0.029455626 -0.24319319 0.514 26 25 9 255
0.030916542 -0.24366724 0.51500005 28 25 11 255
0.032382924 -0.24414137 0.51600003 30 27 11 255
0.033789296 -0.24414237 0.51600003 25 22 6 255
