ply
format ascii 1.0
comment PCL generated
element vertex 954
property float x
property float y
property float z
property uchar red
property uchar green
property uchar blue
property uchar alpha
element camera 0
property float view_px
property float view_py
property float view_pz
property float x_axisx
property float x_axisy
property float x_axisz
property float y_axisx
property float y_axisy
property float y_axisz
property float z_axisx
property float z_axisy
property float z_axisz
property float focal
property float scalex
property float scaley
property float centerx
property float centery
property int viewportx
property int viewporty
property float k1
property float k2
end_header
-0.065278687 0.096934862 0.62700003 50 43 30 255
-0.063866466 0.097402945 0.63000005 45 41 27 255
-0.062240336 0.097561732 0.63100004 41 37 23 255
-0.060608514 0.097720429 0.63200003 37 33 22 255
-0.058877844 0.097724415 0.63200003 36 33 19 255
-0.057146981 0.097728305 0.63200003 34 30 19 255
-0.055591285 0.098041363 0.634 32 28 17 255
-0.054109383 0.098508991 0.63700002 33 29 19 255
-0.052528661 0.098821901 0.63900006 34 29 18 255
-0.05085732 0.098980062 0.64000005 36 31 20 255
-0.049103599 0.098983467 0.64000005 36 31 20 255
-0.04734971 0.09898676 0.64000005 34 29 19 255
-0.045738127 0.099299274 0.64200002 36 31 21 255
-0.043978427 0.099302351 0.64200002 38 33 23 255
-0.042415842 0.099769361 0.64500004 35 30 20 255
-0.040647604 0.09977223 0.64500004 35 30 19 255
-0.038999774 0.10008436 0.64700001 50 39 24 255
-0.037283301 0.10024168 0.648 51 39 22 255
-0.035670795 0.10070831 0.65100002 57 43 26 255
-0.033937603 0.10086543 0.65200001 66 46 28 255
-0.032198805 0.10102244 0.65300006 75 54 34 255
-0.030361265 0.10086992 0.65200001 75 52 30 255
-0.028660575 0.10118142 0.65400004 82 59 37 255
-0.02690772 0.10133806 0.65500003 80 55 33 255
-0.025149286 0.10149461 0.65600002 86 61 39 255
-0.023349673 0.10149631 0.65600002 77 52 30 255
-0.021615677 0.10180734 0.65800005 81 56 34 255
-0.019870624 0.10211824 0.66000003 78 53 31 255
-0.018114526 0.10242903 0.66200006 82 57 35 255
-0.016347382 0.1027397 0.66400003 85 60 37 255
-0.014634829 0.10351444 0.66900003 83 58 36 255
-0.012856522 0.10397962 0.67200005 82 56 37 255
-0.011061698 0.10444465 0.67500001 84 61 41 255
-0.0092094401 0.10444537 0.67500001 81 59 43 255
-0.0074007451 0.1050649 0.67900002 81 61 45 255
-0.0055456022 0.10522009 0.68000001 79 63 47 255
-0.003695773 0.10568462 0.68300003 78 64 47 255
-0.0018321311 0.10630376 0.68700004 82 67 54 255
5.3626278e-05 0.10723224 0.69300002 72 58 48 255
0.0019694928 0.10800585 0.69800001 81 65 55 255
0.00391836 0.10893407 0.70400006 68 52 43 255
0.0059333839 0.11048108 0.71400005 76 50 42 255
0.0080695944 0.11295634 0.73000002 86 55 48 255
0.010196998 0.1143483 0.73900002 89 60 55 255
0.012291046 0.11496644 0.74300003 95 68 63 255
0.014387714 0.11542969 0.74600005 84 72 65 255
0.016500788 0.11589278 0.74900001 156 151 145 255
0.018679818 0.11666519 0.75400001 211 218 215 255
-0.14725247 0.11824682 0.78000003 241 247 250 255
-0.14475517 0.11795157 0.77800006 219 225 228 255
-0.13585164 0.11234955 0.74100006 123 121 119 255
-0.12733006 0.10689837 0.70500004 90 81 70 255
-0.12345152 0.10523737 0.69400001 94 82 65 255
-0.12033329 0.10418273 0.68700004 94 82 53 255
-0.11708049 0.1029762 0.67900002 88 74 54 255
-0.11454982 0.10237614 0.67500001 88 74 55 255
-0.11187371 0.10162428 0.67000002 87 75 56 255
-0.10971732 0.10132731 0.66800004 74 64 45 255
-0.10724849 0.10072685 0.66400003 63 60 40 255
-0.10527758 0.10058136 0.66300005 62 60 42 255
-0.1029997 0.10013236 0.66000003 43 47 30 255
-0.10104458 0.099986687 0.65900004 46 52 35 255
-0.099395826 0.1001444 0.66000003 43 48 34 255
-0.097889215 0.1004538 0.66200006 41 46 32 255
-0.095935963 0.1003079 0.66100001 40 43 29 255
-0.093275867 0.099403106 0.65500003 42 46 29 255
-0.090787947 0.098649904 0.65000004 47 51 34 255
-0.088464014 0.098048314 0.64600003 47 51 33 255
-0.086564317 0.097901925 0.64500004 48 52 34 255
-0.084538333 0.097603649 0.64300001 44 48 30 255
-0.082523033 0.097305268 0.64100003 43 47 29 255
-0.080518395 0.097006775 0.63900006 46 48 30 255
-0.078770995 0.09701179 0.63900006 44 44 26 255
-0.07702335 0.097016722 0.63900006 49 47 29 255
-0.075393252 0.097173393 0.64000005 52 48 32 255
-0.07341224 0.096874468 0.63800001 58 51 38 255
-0.071441941 0.096575424 0.63600004 62 51 36 255
-0.069153577 0.095820703 0.63100004 60 49 34 255
-0.067426622 0.095825121 0.63100004 59 48 35 255
-0.065387085 0.095373832 0.62800002 52 43 30 255
-0.063870668 0.095681809 0.63000005 51 43 27 255
-0.062145799 0.095685914 0.63000005 44 38 22 255
-0.060612526 0.09599372 0.63200003 46 41 30 255
-0.058788598 0.095845781 0.63100004 39 35 21 255
-0.057241224 0.096153408 0.63300002 37 32 21 255
-0.055682696 0.096460968 0.63500005 35 30 19 255
-0.054197967 0.096920356 0.63800001 37 32 22 255
-0.052532192 0.097075835 0.63900006 42 35 22 255
-0.050860755 0.097231224 0.64000005 40 33 20 255
-0.049030196 0.09708266 0.63900006 42 35 22 255
-0.047352921 0.097237833 0.64000005 35 30 19 255
-0.045741241 0.097544856 0.64200002 38 33 22 255
-0.044118445 0.09785179 0.64400005 39 34 23 255
-0.042418752 0.098006681 0.64500004 36 32 22 255
-0.040776446 0.098313406 0.64700001 34 29 18 255
-0.039123025 0.098620042 0.64900005 42 32 15 255
-0.037458494 0.098926581 0.65100002 47 35 18 255
-0.03572806 0.099081062 0.65200001 58 44 27 255
-0.03393995 0.099083453 0.65200001 64 47 28 255
-0.03210241 0.098933756 0.65100002 73 54 34 255
-0.030316804 0.09893591 0.65100002 76 53 31 255
-0.028574914 0.099089921 0.65200001 83 60 38 255
-0.02682743 0.099243812 0.65300006 86 61 39 255
-0.025074359 0.099397592 0.65400004 84 59 37 255
-0.023315707 0.099551253 0.65500003 82 57 35 255
-0.021617189 0.10000879 0.65800005 82 57 35 255
-0.019902125 0.1004662 0.66100001 84 59 37 255
-0.01814316 0.10077152 0.66300005 84 59 37 255
-0.01637315 0.1010767 0.66500002 85 60 38 255
-0.014657735 0.10183776 0.67000002 84 58 39 255
-0.012895691 0.10244671 0.67400002 84 58 39 255
-0.011078867 0.10275156 0.67600006 82 59 39 255
-0.0092510227 0.10305627 0.67800003 82 58 40 255
-0.0074121659 0.10336084 0.68000001 79 59 43 255
-0.005570461 0.10381731 0.68300003 76 60 44 255
-0.0037068566 0.10412164 0.68500006 77 63 46 255
-0.0018402615 0.10488185 0.69000006 74 63 50 255
5.3707445e-05 0.10548991 0.69400001 79 70 59 255
0.0019724534 0.10624986 0.69900006 104 94 85 255
0.0039186361 0.10700966 0.70400006 152 142 133 255
0.0059504225 0.10883334 0.71600002 141 131 124 255
0.0081143826 0.11156888 0.73400003 111 101 94 255
0.010335709 0.11384825 0.74900001 90 67 63 255
0.012473889 0.11460745 0.75400001 137 112 108 255
0.014620178 0.1152145 0.75800002 177 166 161 255
0.016788365 0.11582139 0.76200002 228 233 229 255
-0.13659245 0.11092266 0.74500006 128 128 126 255
-0.12769833 0.10527189 0.70700002 92 84 75 255
-0.1238142 0.10364088 0.69600004 91 81 64 255
-0.1205152 0.10245634 0.68800002 90 78 59 255
-0.11708709 0.10112265 0.67900002 88 76 57 255
-0.11455633 0.10053344 0.67500001 92 80 63 255
-0.1120471 0.099944085 0.671 81 69 52 255
-0.10988789 0.099652514 0.66900003 72 64 47 255
-0.1072547 0.098913945 0.66400003 57 53 36 255
-0.10544252 0.098920099 0.66400003 57 55 37 255
-0.10316183 0.098479226 0.66100001 43 46 32 255
-0.1012039 0.09833622 0.66000003 40 45 33 255
-0.099251129 0.098193131 0.65900004 41 48 36 255
-0.097451434 0.09819895 0.65900004 42 47 35 255
-0.095215999 0.097757652 0.65600002 46 49 35 255
-0.092569433 0.096869141 0.65000004 54 56 39 255
-0.090514094 0.096576579 0.648 53 55 38 255
-0.088469423 0.096283928 0.64600003 57 57 39 255
-0.086435422 0.095991164 0.64400005 55 55 37 255
-0.084543563 0.095847331 0.64300001 54 54 36 255
-0.082528152 0.095554352 0.64100003 50 50 32 255
-0.080523424 0.095261261 0.63900006 47 49 31 255
-0.078775942 0.095266201 0.63900006 54 54 36 255
-0.07714875 0.095420174 0.64000005 52 49 33 255
-0.075398028 0.095424965 0.64000005 50 46 32 255
-0.073647067 0.095429666 0.64000005 52 48 34 255
-0.07167118 0.095136032 0.63800001 52 43 30 255
-0.069596417 0.094693176 0.63500005 53 44 31 255
-0.067751557 0.094548434 0.634 50 43 30 255
-0.065703705 0.094105326 0.63100004 47 40 27 255
-0.064077593 0.094258629 0.63200003 44 40 26 255
-0.062248502 0.094113581 0.63100004 41 37 23 255
-0.060616497 0.094266713 0.63200003 41 34 23 255
-0.0589788 0.094419762 0.63300002 43 36 25 255
-0.057516299 0.094871059 0.63600004 38 33 22 255
-0.055949461 0.095173128 0.63800001 44 36 27 255
-0.054456431 0.095624298 0.64100003 40 35 25 255
-0.052782334 0.095777012 0.64200002 43 36 25 255
-0.051023096 0.095780447 0.64200002 49 41 25 255
-0.049263678 0.095783785 0.64200002 47 39 23 255
-0.047430098 0.095637798 0.64100003 38 31 18 255
-0.045886829 0.096088536 0.64400005 39 32 19 255
-0.04418993 0.096240751 0.64500004 40 36 22 255
-0.042421613 0.09624365 0.64500004 35 31 20 255
-0.040779203 0.096544884 0.64700001 37 34 20 255
-0.039125681 0.096846037 0.64900005 39 33 16 255
-0.037461042 0.097147055 0.65100002 44 36 19 255
-0.035785295 0.097447999 0.65300006 47 37 20 255
-0.033994336 0.097450383 0.65300006 57 42 22 255
-0.032203242 0.097452633 0.65300006 64 48 25 255
-0.030412031 0.097454764 0.65300006 78 57 35 255
-0.028664537 0.097606011 0.65400004 81 61 37 255
-0.026870364 0.097607911 0.65400004 79 59 35 255
-0.02511443 0.097758941 0.65500003 79 56 34 255
-0.023352914 0.097909838 0.65600002 78 57 37 255
-0.021651538 0.098359153 0.65900004 78 57 37 255
-0.019933613 0.098808341 0.66200006 81 57 39 255
-0.018144418 0.098958924 0.66300005 85 61 43 255
-0.016398909 0.099407889 0.66600001 84 60 42 255
-0.014658752 0.100006 0.67000002 79 55 37 255
-0.012877451 0.10045474 0.67300004 84 61 41 255
-0.011096026 0.10105263 0.67700005 84 63 43 255
-0.0092653111 0.10135186 0.67900002 78 58 40 255
-0.007423583 0.10165098 0.68100005 76 61 42 255
-0.0055708485 0.10194996 0.68300003 75 61 44 255
-0.0037179377 0.10254735 0.68700004 78 65 50 255
-0.0018457239 0.10329388 0.69200003 75 66 55 255
5.3788579e-05 0.10374176 0.69500005 91 86 79 255
0.0019754127 0.10448802 0.70000005 168 167 161 255
0.0039356085 0.1055327 0.70700002 216 221 217 255
0.0059757703 0.10732358 0.71900004 233 240 237 255
-0.13825004 0.11020444 0.75400001 171 175 175 255
-0.12842782 0.10392656 0.71100003 92 84 75 255
-0.1241768 0.10203317 0.69800001 94 83 68 255
-0.12087223 0.1008704 0.69000006 94 82 65 255
-0.11778342 0.099853627 0.68300003 90 78 61 255
-0.11490222 0.098982885 0.67700005 90 80 63 255
-0.11222043 0.098258175 0.67200005 86 75 60 255
-0.10972988 0.097679533 0.66800004 74 66 49 255
-0.10726085 0.097100772 0.66400003 60 57 41 255
-0.10528979 0.096960589 0.66300005 54 51 37 255
-0.1031678 0.096674077 0.66100001 45 48 36 255
-0.10136316 0.096679993 0.66100001 41 46 35 255
-0.099558197 0.096685849 0.66100001 42 49 37 255
-0.097309299 0.096252769 0.65800005 44 49 37 255
-0.094931357 0.095673285 0.65400004 52 55 41 255
-0.092432544 0.094947375 0.64900005 53 55 38 255
-0.090519533 0.094806507 0.648 55 54 38 255
-0.08847478 0.094519258 0.64600003 54 54 36 255
-0.086574897 0.094378203 0.64500004 48 46 28 255
-0.084680222 0.094237067 0.64400005 46 46 28 255
-0.082790732 0.094095811 0.64300001 40 40 22 255
-0.080906458 0.093954474 0.64200002 37 37 19 255
-0.079027399 0.093813039 0.64100003 36 35 19 255
-0.077394664 0.093964219 0.64200002 40 37 21 255
-0.075756185 0.094115324 0.64300001 38 35 21 255
-0.074112013 0.09426637 0.64400005 44 37 24 255
-0.072237417 0.09412457 0.64300001 42 35 22 255
-0.070368074 0.093982667 0.64200002 44 35 22 255
-0.068503954 0.093840651 0.64100003 44 37 24 255
-0.066540964 0.093552127 0.63900006 39 32 19 255
-0.064690068 0.093409881 0.63800001 38 31 20 255
-0.062745795 0.093121126 0.63600004 34 29 18 255
-0.061100002 0.093271509 0.63700002 36 29 18 255
-0.059448518 0.093421809 0.63800001 36 28 19 255
-0.058062676 0.094011329 0.64200002 32 24 15 255
-0.056479316 0.094307914 0.64400005 35 27 18 255
-0.054884795 0.09460441 0.64600003 40 32 23 255
-0.053114682 0.094607934 0.64600003 38 31 20 255
-0.05134438 0.094611339 0.64600003 42 33 20 255
-0.049573891 0.094614647 0.64600003 40 31 18 255
-0.04787723 0.094764322 0.64700001 39 32 19 255
-0.046174899 0.094913878 0.648 39 35 21 255
-0.044398416 0.094916873 0.648 37 33 19 255
-0.042555995 0.094773285 0.64700001 37 34 20 255
-0.040844969 0.09492252 0.648 34 31 17 255
-0.039188597 0.095218174 0.65000004 32 29 13 255
-0.037521105 0.095513701 0.65200001 39 33 16 255
-0.035787705 0.095662653 0.65300006 46 36 19 255
-0.034048688 0.095811501 0.65400004 56 42 22 255
-0.032254737 0.095813721 0.65400004 64 47 27 255
-0.03050724 0.095962331 0.65500003 69 50 30 255
-0.028666481 0.095817812 0.65400004 79 58 36 255
-0.026831102 0.095673181 0.65300006 78 55 33 255
-0.025039451 0.095674932 0.65300006 76 55 35 255
-0.023390107 0.096262626 0.65700001 77 55 37 255
-0.021718729 0.096850239 0.66100001 76 54 36 255
-0.020055426 0.097584248 0.66600001 79 57 39 255
-0.018255133 0.097732082 0.66700006 79 57 39 255
-0.016498528 0.098172851 0.67000002 72 50 32 255
-0.014703516 0.098466955 0.67200005 81 59 41 255
-0.012935741 0.099054016 0.67600006 80 59 37 255
-0.011113178 0.099347889 0.67800003 76 57 35 255
-0.009279592 0.099641636 0.68000001 72 57 28 255
-0.0074458956 0.10008182 0.68300003 78 64 45 255
-0.0056038587 0.1006684 0.68700004 76 60 50 255
-0.0037344298 0.10110831 0.69000006 73 59 49 255
-0.0018485179 0.10154811 0.69300002 76 68 59 255
5.3869673e-05 0.10198777 0.69600004 88 85 79 255
0.0019755482 0.10257383 0.70000005 185 186 182 255
0.0039414456 0.1037459 0.708 220 225 222 255
0.0059844926 0.10550398 0.72000003 231 238 235 255
-0.12915729 0.10255909 0.71500003 95 90 80 255
-0.12453937 0.10041425 0.70000005 98 87 72 255
-0.12122919 0.099273257 0.69200003 96 84 67 255
-0.11813482 0.098275535 0.68500006 92 79 64 255
-0.11507832 0.097277626 0.67800003 88 77 64 255
-0.11239369 0.096566498 0.67300004 83 72 59 255
-0.1100646 0.096142218 0.67000002 71 64 51 255
-0.10759 0.095574297 0.66600001 61 57 46 255
-0.10513697 0.095006272 0.66200006 53 49 39 255
-0.10317373 0.094868653 0.66100001 45 47 37 255
-0.101369 0.094874479 0.66100001 42 47 36 255
-0.0997146 0.095023803 0.66200006 42 47 35 255
-0.097462878 0.09459886 0.65900004 44 49 37 255
-0.094791755 0.093743123 0.65300006 43 46 32 255
-0.092438012 0.093174346 0.64900005 50 51 37 255
-0.090524912 0.093036152 0.648 48 47 33 255
-0.088753983 0.09304145 0.648 44 40 29 255
-0.086982779 0.093046658 0.648 44 41 27 255
-0.085079812 0.092908211 0.64700001 46 43 27 255
-0.083053291 0.09262605 0.64500004 44 41 25 255
-0.081163444 0.092487402 0.64400005 43 39 22 255
-0.079402119 0.092492267 0.64400005 47 41 25 255
-0.077640541 0.092497043 0.64400005 45 36 23 255
-0.075878695 0.092501737 0.64400005 45 36 23 255
-0.074231699 0.092649989 0.64500004 47 36 21 255
-0.072354272 0.092510864 0.64400005 49 38 23 255
-0.070701323 0.092658952 0.64500004 46 35 20 255
-0.06872201 0.092375964 0.64300001 48 37 22 255
-0.066649288 0.091949195 0.64000005 47 36 21 255
-0.064694166 0.091665961 0.63800001 48 37 24 255
-0.062848441 0.091526292 0.63700002 42 30 20 255
-0.061199822 0.091673903 0.63800001 44 32 22 255
-0.05954551 0.091821425 0.63900006 39 29 20 255
-0.057975963 0.092112556 0.64100003 38 28 19 255
-0.056307539 0.092259914 0.64200002 39 29 20 255
-0.05471842 0.092550896 0.64400005 38 30 23 255
-0.052953675 0.092554353 0.64400005 37 29 22 255
-0.051268235 0.092701435 0.64500004 37 29 20 255
-0.049577121 0.092848413 0.64600003 32 24 15 255
-0.047880355 0.092995301 0.64700001 32 27 16 255
-0.046249192 0.093285836 0.64900005 31 26 15 255
-0.044538382 0.093432531 0.65000004 32 29 15 255
-0.042756137 0.093435384 0.65000004 32 29 15 255
-0.040973738 0.093438126 0.65000004 34 31 17 255
-0.039311774 0.093728267 0.65200001 34 30 14 255
-0.037581146 0.093874559 0.65300006 42 36 20 255
-0.035844892 0.094020739 0.65400004 42 34 18 255
-0.034050953 0.094023041 0.65400004 55 41 24 255
-0.032306209 0.094169006 0.65500003 60 43 24 255
-0.030555854 0.094314858 0.65600002 70 50 32 255
-0.028843744 0.094604388 0.65800005 78 55 35 255
-0.026956171 0.09431868 0.65600002 82 59 39 255
-0.025156172 0.094320424 0.65600002 76 54 36 255
-0.023427285 0.094609603 0.65800005 76 54 36 255
-0.021687333 0.094898686 0.66000003 74 52 34 255
-0.01999655 0.095475227 0.66400003 74 54 36 255
-0.018228993 0.095764078 0.66600001 72 52 34 255
-0.016475016 0.096196614 0.66900003 69 49 31 255
-0.01470451 0.096629031 0.67200005 73 53 35 255
-0.012936617 0.097205147 0.67600006 78 59 37 255
-0.011130322 0.097637333 0.67900002 77 60 40 255
-0.0092938682 0.097925611 0.68100005 77 62 33 255
-0.0074573024 0.098357573 0.68400002 78 64 44 255
-0.0056042382 0.098789401 0.68700004 75 61 44 255
-0.0037346834 0.099221118 0.69000006 71 60 47 255
-0.0018486433 0.099652693 0.69300002 75 67 60 255
5.3873326e-05 0.10008416 0.69600004 79 78 72 255
0.0019813271 0.10094687 0.70200002 156 159 155 255
0.0039528478 0.10209708 0.71000004 204 211 208 255
0.0059932098 0.10367852 0.72100002 221 228 227 255
-0.12988676 0.1011695 0.71900004 93 89 79 255
-0.12507981 0.098924845 0.70300001 98 88 71 255
-0.12176134 0.097805656 0.69500005 102 90 73 255
-0.11848618 0.096686251 0.68700004 89 76 61 255
-0.11542407 0.095707379 0.68000001 90 77 64 255
-0.11273391 0.095009856 0.67500001 83 71 61 255
-0.11007068 0.094312161 0.67000002 69 62 51 255
-0.107596 0.093755104 0.66600001 56 53 39 255
-0.10514288 0.093197919 0.66200006 58 54 43 255
-0.10302346 0.092922159 0.66000003 49 49 39 255
-0.10137476 0.093068711 0.66100001 48 50 40 255
-0.099419028 0.092933588 0.66000003 43 46 34 255
-0.09717267 0.09251675 0.65700001 40 43 29 255
-0.094506897 0.091677323 0.65100002 40 41 27 255
-0.092443384 0.091401055 0.64900005 45 44 30 255
-0.090669915 0.091406353 0.64900005 51 50 36 255
-0.089033157 0.091552444 0.65000004 50 46 35 255
-0.087390654 0.09169846 0.65100002 55 52 38 255
-0.085610904 0.091703556 0.65100002 56 52 36 255
-0.083573334 0.091426834 0.64900005 57 53 36 255
-0.081420384 0.091009095 0.64600003 57 49 32 255
-0.079406902 0.090732135 0.64400005 62 52 35 255
-0.077524677 0.090595961 0.64300001 65 50 35 255
-0.075647645 0.090459682 0.64200002 63 48 33 255
-0.073890947 0.090464205 0.64200002 66 52 35 255
-0.072246358 0.090609565 0.64300001 63 49 32 255
-0.070376813 0.090472996 0.64200002 63 49 32 255
-0.068298735 0.090054482 0.63900006 57 43 26 255
-0.066236854 0.089635827 0.63600004 57 43 26 255
-0.064393982 0.089498922 0.63500005 59 46 31 255
-0.062753707 0.089643814 0.63600004 59 46 33 255
-0.06110774 0.089788631 0.63700002 59 43 33 255
-0.059362885 0.089792401 0.63700002 54 40 30 255
-0.057708275 0.089937024 0.63800001 54 40 30 255
-0.055960264 0.089940608 0.63800001 54 42 35 255
-0.054212064 0.089944087 0.63800001 46 36 29 255
-0.05262813 0.090229429 0.64000005 47 37 30 255
-0.050874069 0.09023273 0.64000005 48 38 29 255
-0.049273312 0.090517901 0.64200002 41 33 24 255
-0.04758741 0.090661988 0.64300001 36 31 20 255
-0.046038385 0.091087997 0.64600003 35 30 19 255
-0.044404216 0.091372915 0.648 36 32 18 255
-0.042824693 0.091798745 0.65100002 34 31 17 255
-0.041102488 0.091942467 0.65200001 36 32 18 255
-0.039374638 0.092086099 0.65300006 37 33 19 255
-0.03764116 0.09222962 0.65400004 40 31 18 255
-0.035902053 0.092373036 0.65500003 47 36 23 255
-0.034001123 0.092093252 0.65300006 57 41 25 255
-0.032209687 0.09209542 0.65300006 63 45 29 255
-0.030418126 0.092097461 0.65300006 71 49 31 255
-0.028801808 0.092663556 0.65700001 75 51 33 255
-0.026999047 0.092665382 0.65700001 81 57 39 255
-0.025196185 0.092667088 0.65700001 80 58 40 255
-0.023393231 0.09266869 0.65700001 78 58 42 255
-0.021688769 0.093093328 0.66000003 78 58 42 255
-0.019967759 0.093517855 0.66300005 74 55 35 255
-0.01828495 0.094224378 0.66800004 77 58 38 255
-0.016525367 0.094648689 0.671 79 60 38 255
-0.014749255 0.095072903 0.67400002 79 60 38 255
-0.012956618 0.095496997 0.67700005 77 61 38 255
-0.011131064 0.095779911 0.67900002 73 58 38 255
-0.0092944885 0.09606272 0.68100005 73 59 42 255
-0.0074578007 0.096486457 0.68400002 74 59 44 255
-0.0056127701 0.097051121 0.68800002 76 62 52 255
-0.0037349325 0.097333573 0.69000006 81 71 64 255
-0.0018514345 0.097898006 0.69400001 73 67 61 255
5.4031738e-05 0.098462313 0.69800001 106 105 99 255
0.0019899274 0.099449709 0.70500004 185 188 185 255
0.0039642472 0.10043695 0.71200001 216 223 222 255
0.0059936107 0.10170618 0.72100002 221 229 228 255
-0.13133883 0.10030972 0.72700006 90 88 78 255
-0.12544227 0.0972808 0.70500004 93 83 64 255
-0.12194301 0.096045397 0.69600004 99 87 68 255
-0.11883747 0.09508577 0.68900001 93 79 62 255
-0.11576983 0.094125964 0.68200004 89 76 63 255
-0.11290706 0.093303993 0.67600006 82 70 61 255
-0.11040531 0.092757925 0.67200005 77 70 59 255
-0.10792506 0.092211716 0.66800004 65 61 47 255
-0.10546637 0.091665387 0.66400003 64 61 47 255
-0.1031853 0.091256976 0.66100001 54 50 39 255
-0.10138045 0.091262661 0.66100001 55 51 40 255
-0.099123351 0.090854041 0.65800005 54 51 37 255
-0.096734464 0.090307221 0.65400004 51 48 34 255
-0.094367124 0.089760266 0.65000004 52 49 35 255
-0.092448696 0.089627475 0.64900005 55 51 40 255
-0.090675145 0.089632705 0.64900005 57 53 42 255
-0.08903832 0.08977598 0.65000004 55 50 39 255
-0.087395757 0.089919195 0.65100002 59 55 41 255
-0.085615925 0.089924224 0.65100002 67 57 40 255
-0.083449475 0.089514732 0.648 71 59 42 255
-0.081173122 0.088966988 0.64400005 73 59 42 255
-0.079288319 0.08883357 0.64300001 74 56 40 255
-0.077167578 0.088423729 0.64000005 75 55 39 255
-0.075298682 0.088290095 0.63900006 78 58 42 255
-0.073435001 0.088156365 0.63800001 78 58 42 255
-0.071801282 0.088298902 0.63900006 71 51 35 255
-0.070052214 0.088303171 0.63900006 75 55 39 255
-0.067982242 0.087892771 0.63600004 70 50 34 255
-0.065928452 0.087482236 0.63300002 69 49 33 255
-0.064093702 0.087347999 0.63200003 72 52 34 255
-0.062362883 0.087351866 0.63200003 67 47 31 255
-0.060823712 0.087632075 0.634 63 47 32 255
-0.059086986 0.087635778 0.634 59 44 31 255
-0.057350047 0.087639369 0.634 61 45 35 255
-0.055525187 0.087504648 0.63300002 57 41 32 255
-0.053790588 0.087508053 0.63300002 54 40 31 255
-0.052138027 0.087649599 0.634 54 40 31 255
-0.050400302 0.08765281 0.634 51 39 29 255
-0.04881591 0.087932453 0.63600004 39 30 19 255
-0.047220368 0.088211976 0.63800001 41 32 19 255
-0.04568496 0.088629715 0.64100003 42 35 22 255
-0.04413294 0.08904738 0.64400005 38 31 18 255
-0.042564288 0.089464948 0.64700001 43 36 23 255
-0.040915992 0.089744166 0.64900005 40 33 20 255
-0.03931687 0.090161569 0.65200001 41 34 21 255
-0.037643589 0.090440609 0.65400004 49 40 27 255
-0.03584956 0.090442963 0.65400004 55 44 31 255
-0.033899173 0.090030305 0.65100002 62 46 30 255
-0.032014456 0.089755841 0.64900005 65 47 31 255
-0.030280344 0.089896142 0.65000004 73 51 33 255
-0.028584471 0.090174645 0.65200001 80 56 38 255
-0.026877515 0.090453051 0.65400004 77 53 35 255
-0.025236182 0.091007978 0.65800005 80 58 40 255
-0.023430368 0.091009557 0.65800005 76 54 38 255
-0.021690188 0.091287643 0.66000003 79 57 41 255
-0.019938948 0.091565631 0.66200006 81 60 40 255
-0.018258777 0.092258461 0.66700006 78 57 35 255
-0.016477196 0.092536233 0.66900003 80 61 39 255
-0.01472834 0.093090527 0.67300004 77 58 36 255
-0.012938328 0.093506403 0.67600006 79 62 42 255
-0.011131796 0.093922153 0.67900002 75 60 41 255
-0.0093087489 0.094337791 0.68200004 75 61 44 255
-0.007458291 0.09461499 0.68400002 76 61 48 255
-0.0056049814 0.095030397 0.68700004 74 62 53 255
-0.0037351788 0.095445693 0.69000006 79 69 62 255
-0.0018542246 0.096137509 0.69500005 69 63 56 255
5.4190135e-05 0.096829198 0.70000005 73 68 62 255
0.0019957037 0.097797424 0.70700002 104 105 101 255
0.0039867805 0.09904217 0.71600002 180 185 182 255
0.0060272589 0.10028679 0.72500002 217 224 223 255
-0.13170695 0.098594457 0.72900003 98 96 86 255
-0.12580468 0.095625564 0.70700002 95 86 65 255
-0.12247505 0.094549924 0.69900006 98 87 66 255
-0.11970619 0.093879901 0.69400001 89 77 60 255
-0.11628526 0.092668623 0.68500006 87 76 63 255
-0.11341419 0.091862977 0.67900002 82 72 63 255
-0.11073986 0.091192469 0.67400002 75 68 57 255
-0.10825406 0.09065713 0.67000002 64 59 48 255
-0.10563096 0.089986339 0.66500002 62 58 44 255
-0.10334709 0.089586064 0.66200006 63 58 47 255
-0.10123267 0.089320987 0.66000003 61 56 45 255
-0.098827563 0.088785134 0.65600002 56 52 38 255
-0.096591949 0.088384517 0.65300006 63 57 41 255
-0.094227232 0.087848395 0.64900005 65 58 45 255
-0.092596374 0.087988995 0.65000004 60 57 43 255
-0.090959758 0.088129528 0.65100002 67 64 50 255
-0.089317389 0.088270016 0.65200001 70 64 48 255
-0.087400772 0.088139646 0.65100002 67 61 44 255
-0.085226297 0.08773841 0.648 75 63 44 255
-0.083196752 0.087472446 0.64600003 76 62 43 255
-0.081177853 0.087206364 0.64400005 75 60 41 255
-0.079169646 0.086940184 0.64200002 79 59 43 255
-0.07717213 0.086673908 0.64000005 86 64 48 255
-0.075303137 0.086542942 0.63900006 78 56 40 255
-0.073439352 0.086411864 0.63800001 79 57 41 255
-0.071693189 0.086416163 0.63800001 75 55 39 255
-0.069946773 0.086420365 0.63800001 77 57 41 255
-0.067879431 0.0860181 0.63500005 70 50 34 255
-0.065828279 0.085615709 0.63200003 74 52 36 255
-0.063996166 0.085484132 0.63100004 69 47 29 255
-0.062366676 0.085623413 0.63200003 73 51 33 255
-0.060731489 0.085762627 0.63300002 69 47 29 255
-0.0589974 0.085766256 0.63300002 69 49 33 255
-0.057353567 0.085905291 0.634 62 44 28 255
-0.05561633 0.085908741 0.634 59 43 28 255
-0.053963881 0.086047612 0.63500005 60 43 31 255
-0.05214126 0.085915364 0.634 62 46 36 255
-0.050403442 0.085918538 0.634 59 43 33 255
-0.048895713 0.086328171 0.63700002 55 40 27 255
-0.047297344 0.086602211 0.63900006 53 38 25 255
-0.045616552 0.08674062 0.64000005 52 39 26 255
-0.04393011 0.086878955 0.64100003 50 37 24 255
-0.0423696 0.08728826 0.64400005 47 36 23 255
-0.040855531 0.087833047 0.648 46 35 22 255
-0.039198752 0.088106655 0.65000004 52 41 28 255
-0.037530851 0.088380173 0.65200001 51 39 22 255
-0.035797022 0.088518046 0.65300006 59 45 28 255
-0.033953413 0.08838468 0.65200001 62 47 28 255
-0.032016501 0.087980084 0.64900005 70 53 33 255
-0.030235695 0.087982066 0.64900005 75 54 32 255
-0.028542461 0.08825507 0.65100002 76 55 33 255
-0.026879244 0.088663541 0.65400004 80 57 35 255
-0.025199451 0.089071915 0.65700001 78 55 33 255
-0.023467487 0.089344628 0.65900004 77 54 34 255
-0.021790184 0.089888386 0.66300005 82 57 35 255
-0.02006072 0.090296455 0.66600001 83 58 36 255
-0.018314706 0.090704434 0.66900003 80 60 36 255
-0.016502889 0.090841122 0.67000002 79 58 36 255
-0.014751178 0.09138447 0.67400002 81 64 35 255
-0.012958308 0.091792107 0.67700005 74 59 39 255
-0.011148912 0.092199638 0.68000001 73 57 41 255
-0.0093230037 0.092607066 0.68300003 75 60 47 255
-0.0074696802 0.092878789 0.68500006 72 56 46 255
-0.0056216638 0.093421571 0.68900001 75 65 58 255
-0.0037462483 0.093828648 0.69200003 67 61 54 255
-0.0018570131 0.094371185 0.69600004 73 68 62 255
5.4348486e-05 0.095184788 0.70200002 89 90 84 255
0.002001479 0.096133858 0.70900005 171 176 172 255
0.004003745 0.097489581 0.71900004 215 222 221 255
-0.12634499 0.094091639 0.71000004 93 91 71 255
-0.12300704 0.093037792 0.70200002 94 87 67 255
-0.12005741 0.092248812 0.69600004 91 81 64 255
-0.11663088 0.091062039 0.68700004 87 76 61 255
-0.11342017 0.090007603 0.67900002 88 77 62 255
-0.11058142 0.08921811 0.67300004 79 71 55 255
-0.10809827 0.088693596 0.66900003 77 69 53 255
-0.10563665 0.088168971 0.66500002 71 63 47 255
-0.10335268 0.087776795 0.66200006 71 62 49 255
-0.1010848 0.087384515 0.65900004 67 58 45 255
-0.09883298 0.086992107 0.65600002 71 61 44 255
-0.096745193 0.086732216 0.65400004 71 61 44 255
-0.09423247 0.086074345 0.64900005 70 60 43 255
-0.092601538 0.086212121 0.65000004 72 64 47 255
-0.090964846 0.086349845 0.65100002 73 67 50 255
-0.089322425 0.086487524 0.65200001 73 67 50 255
-0.087271467 0.086227164 0.65000004 70 62 45 255
-0.085099623 0.085834034 0.64700001 77 65 46 255
-0.082943916 0.085440785 0.64400005 77 63 44 255
-0.080930404 0.085180096 0.64200002 78 63 44 255
-0.079050899 0.085051991 0.64100003 80 62 46 255
-0.07705602 0.084791094 0.63900006 79 59 43 255
-0.075071812 0.084530078 0.63700002 81 61 45 255
-0.073213436 0.084401675 0.63600004 76 56 40 255
-0.071472637 0.084405884 0.63600004 75 57 41 255
-0.069841258 0.084542722 0.63700002 76 58 42 255
-0.067883447 0.084281325 0.63500005 74 56 40 255
-0.065832198 0.08388707 0.63200003 73 53 37 255
-0.063898563 0.083625443 0.63000005 68 48 30 255
-0.062271725 0.083761923 0.63100004 69 49 31 255
-0.060639199 0.083898336 0.63200003 67 47 29 255
-0.058814552 0.083769158 0.63100004 69 49 33 255
-0.057266582 0.084038153 0.63300002 70 52 36 255
-0.055444255 0.083908781 0.63200003 68 50 34 255
-0.053882178 0.084177606 0.634 69 53 38 255
-0.052062202 0.084048055 0.63300002 63 46 34 255
-0.050565545 0.084449507 0.63600004 65 50 35 255
-0.048898723 0.084585324 0.63700002 59 44 29 255
-0.047374286 0.084986635 0.64000005 61 46 31 255
-0.045619372 0.084989488 0.64000005 61 46 31 255
-0.044001374 0.085257828 0.64200002 59 44 29 255
-0.04237223 0.085526094 0.64400005 61 46 33 255
-0.040795021 0.085927077 0.64700001 55 40 27 255
-0.039080575 0.086062357 0.648 57 43 26 255
-0.037418067 0.086330369 0.65000004 58 44 27 255
-0.035689615 0.086465441 0.65100002 60 46 27 255
-0.033903465 0.086467616 0.65100002 62 47 27 255
-0.03206785 0.086336844 0.65000004 69 53 30 255
-0.030284192 0.086338796 0.65000004 71 52 30 255
-0.028500417 0.086340636 0.65000004 72 53 31 255
-0.026798734 0.086608022 0.65200001 80 57 35 255
-0.025162689 0.087141007 0.65600002 77 54 32 255
-0.023540201 0.087806724 0.66100001 76 50 31 255
-0.021857303 0.088339508 0.66500002 76 51 29 255
-0.020122239 0.088739358 0.66800004 82 57 34 255
-0.018288493 0.088740572 0.66800004 81 61 37 255
-0.016503941 0.089007363 0.67000002 78 60 36 255
-0.014752118 0.089539744 0.67400002 80 63 43 255
-0.013016559 0.090337709 0.68000001 79 62 43 255
-0.01121521 0.090869874 0.68400002 76 62 45 255
-0.0093645509 0.091136232 0.68600005 74 57 52 255
-0.0074919672 0.09126962 0.68700004 75 61 52 255
-0.0056220228 0.09153574 0.68900001 70 62 55 255
-0.0037519017 0.09206745 0.69300002 73 68 61 255
-0.0018624682 0.092731893 0.69800001 91 88 82 255
5.4506811e-05 0.093529075 0.70400006 157 158 152 255
0.0020072532 0.094458982 0.71100003 207 212 208 255
0.0040151388 0.095787339 0.72100002 227 234 233 255
-0.12777506 0.093190014 0.71800005 94 94 66 255
-0.123539 0.091508992 0.70500004 94 88 71 255
-0.12058109 0.090736359 0.69900006 92 84 67 255
-0.11714622 0.089574091 0.69000006 91 80 65 255
-0.11376017 0.088411644 0.68100005 82 74 58 255
-0.11058721 0.087378785 0.67300004 81 73 57 255
-0.10810395 0.08686512 0.66900003 75 67 51 255
-0.10564225 0.086351335 0.66500002 74 66 50 255
-0.10335819 0.08596728 0.66200006 74 63 48 255
-0.10109022 0.085583106 0.65900004 72 61 46 255
-0.098988973 0.085328698 0.65700001 72 62 45 255
-0.096898377 0.085074194 0.65500003 76 66 49 255
-0.094528005 0.084559806 0.65100002 76 66 47 255
-0.092749089 0.084564887 0.65100002 73 64 43 255
-0.090969875 0.084569901 0.65100002 72 65 45 255
-0.089327373 0.084704757 0.65200001 68 60 43 255
-0.087276325 0.084449798 0.65000004 78 68 51 255
-0.085235924 0.08419472 0.648 73 63 46 255
-0.083077393 0.083809614 0.64500004 75 63 46 255
-0.081187114 0.083684273 0.64400005 77 63 46 255
-0.079178721 0.08342889 0.64200002 75 60 45 255
-0.077181011 0.083173394 0.64000005 70 55 40 255
-0.07531184 0.083047763 0.63900006 72 58 41 255
-0.073563017 0.083052009 0.63900006 74 60 43 255
-0.071701549 0.082926191 0.63800001 65 53 36 255
-0.069954962 0.082930267 0.63800001 68 56 39 255
-0.067887411 0.08254429 0.63500005 63 51 34 255
-0.065940216 0.082288168 0.63300002 65 52 37 255
-0.064105183 0.082161948 0.63200003 58 44 27 255
-0.062374093 0.082165644 0.63200003 63 49 32 255
-0.060642779 0.08216925 0.63200003 63 47 31 255
-0.058911253 0.082172774 0.63200003 60 44 28 255
-0.057360467 0.082436249 0.634 63 47 31 255
-0.055710778 0.082569629 0.63500005 62 46 30 255
-0.054140393 0.082832962 0.63700002 60 44 29 255
-0.052394342 0.082836129 0.63700002 63 48 33 255
-0.050727621 0.082969263 0.63800001 62 48 31 255
-0.049131989 0.083232343 0.64000005 63 49 32 255
-0.047451183 0.083365306 0.64100003 64 48 32 255
-0.045764714 0.083498172 0.64200002 66 48 33 255
-0.04414114 0.083761007 0.64400005 68 50 34 255
-0.042506419 0.084023759 0.64600003 71 53 37 255
-0.040860578 0.084286429 0.648 69 51 35 255
-0.039082978 0.084288865 0.648 70 53 34 255
-0.037305228 0.08429119 0.648 65 48 28 255
-0.035582166 0.084423512 0.64900005 69 53 30 255
-0.033853479 0.084555715 0.65000004 65 49 26 255
-0.03211917 0.084687829 0.65100002 73 57 33 255
-0.030332662 0.084689744 0.65100002 75 56 36 255
-0.028589882 0.084821641 0.65200001 71 52 32 255
-0.026882615 0.085083559 0.65400004 76 55 33 255
-0.025202615 0.085475452 0.65700001 80 57 35 255
-0.023577286 0.086127475 0.66200006 83 60 38 255
-0.02192441 0.086779401 0.66700006 84 61 38 255
-0.020213872 0.08730112 0.671 81 58 35 255
-0.018344397 0.08717221 0.67000002 80 60 36 255
-0.016554244 0.08743351 0.67200005 80 61 39 255
-0.014796821 0.087954931 0.67600006 78 61 41 255
-0.013055663 0.088736467 0.68200004 78 63 44 255
-0.011232313 0.089127563 0.68500006 74 60 43 255
-0.0093787909 0.08938843 0.68700004 72 59 44 255
-0.0075142495 0.089649178 0.68900001 70 58 48 255
-0.0056386967 0.089909822 0.69100004 77 72 65 255
-0.003762966 0.090430573 0.69500005 92 89 83 255
-0.0018705906 0.091211446 0.70100003 98 99 93 255
5.4665099e-05 0.09186209 0.70600003 206 211 207 255
0.0020130265 0.092772841 0.71300006 229 236 233 255
0.0040209605 0.093943693 0.72200006 227 235 234 255
-0.12938313 0.092371464 0.72700006 84 84 76 255
-0.12407091 0.089963533 0.708 94 88 71 255
-0.12041465 0.088698916 0.69800001 85 77 60 255
-0.11715219 0.087688237 0.69000006 86 75 60 255
-0.11393304 0.086677372 0.68200004 85 77 61 255
-0.11075723 0.085666314 0.67400002 83 72 57 255
-0.10810956 0.08503639 0.66900003 80 70 53 255
-0.1059655 0.084787689 0.66700006 74 64 47 255
-0.10367589 0.084411755 0.66400003 78 66 49 255
-0.10140236 0.084035702 0.66100001 78 66 49 255
-0.099144913 0.083659559 0.65800005 77 65 46 255
-0.096903563 0.08328329 0.65500003 83 71 52 255
-0.094678298 0.082906924 0.65200001 78 67 46 255
-0.092611618 0.082657598 0.65000004 74 65 42 255
-0.090695314 0.082535349 0.64900005 72 63 42 255
-0.089058235 0.082667381 0.65000004 72 62 43 255
-0.087012559 0.082417786 0.648 73 63 46 255
-0.084977537 0.082168087 0.64600003 73 62 47 255
-0.082824372 0.081791088 0.64300001 68 57 42 255
-0.080939479 0.081668399 0.64200002 63 50 35 255
-0.07893648 0.081418395 0.64000005 65 54 39 255
-0.077064753 0.081295513 0.63900006 55 44 29 255
-0.075198218 0.081172533 0.63800001 57 47 30 255
-0.073682316 0.081431173 0.64000005 52 44 27 255
-0.071930416 0.081435286 0.64000005 51 43 26 255
-0.070178278 0.081439301 0.64000005 50 44 27 255
-0.068318963 0.081315979 0.63900006 45 39 23 255
-0.066360727 0.081065305 0.63700002 43 36 23 255
-0.064413205 0.080814525 0.63500005 45 37 21 255
-0.062575109 0.080690891 0.634 50 39 24 255
-0.060838234 0.080694452 0.634 50 36 19 255
-0.05919436 0.08082521 0.63500005 51 37 20 255
-0.057454314 0.080828592 0.63500005 54 40 23 255
-0.055714056 0.0808319 0.63500005 58 42 26 255
-0.054143589 0.08108969 0.63700002 58 42 27 255
-0.052561961 0.081347428 0.63900006 64 48 33 255
-0.050889667 0.081477769 0.64000005 64 48 32 255
-0.049211688 0.081608027 0.64100003 65 49 33 255
-0.047454018 0.081610888 0.64100003 64 46 30 255
-0.045767456 0.081740968 0.64200002 72 54 38 255
-0.044212338 0.082125627 0.64500004 70 50 32 255
-0.042508978 0.082255535 0.64600003 69 49 33 255
-0.040799979 0.082385346 0.64700001 72 50 34 255
-0.03902502 0.08238773 0.64700001 67 47 29 255
-0.03730749 0.082517363 0.648 69 50 30 255
-0.035639156 0.082774252 0.65000004 70 51 31 255
-0.033907622 0.082903691 0.65100002 72 53 33 255
-0.032170467 0.083033025 0.65200001 65 49 26 255
-0.030381108 0.08303491 0.65200001 74 55 35 255
-0.028635485 0.083164066 0.65300006 77 58 38 255
-0.02688426 0.083293103 0.65400004 80 59 39 255
-0.025242524 0.083804131 0.65800005 79 58 36 255
-0.023614347 0.084442437 0.66300005 80 59 37 255
-0.021991501 0.085208014 0.66900003 82 61 39 255
-0.020215116 0.085464031 0.671 81 61 37 255
-0.018400289 0.085592575 0.67200005 81 63 39 255
-0.016604535 0.085848391 0.67400002 78 59 37 255
-0.014863404 0.086486213 0.67900002 75 58 38 255
-0.013075613 0.086996563 0.68300003 74 59 40 255
-0.011249404 0.087379426 0.68600005 72 58 39 255
-0.0093793711 0.087507434 0.68700004 70 57 42 255
-0.0075147147 0.087762706 0.68900001 72 63 52 255
-0.0056390446 0.088017866 0.69100004 91 86 80 255
-0.0037631991 0.088527665 0.69500005 90 89 83 255
-0.0018707066 0.089292109 0.70100003 116 119 115 255
5.4745906e-05 0.090056427 0.70700002 194 201 198 255
0.0020244448 0.091330148 0.71700001 210 218 215 255
-0.13170315 0.09200073 0.74000001 106 107 101 255
-0.12460278 0.088401407 0.71100003 90 85 74 255
-0.12076569 0.087039709 0.70000005 96 88 72 255
-0.11766741 0.086175166 0.69300002 89 78 65 255
-0.11460704 0.085310459 0.68600005 88 77 62 255
-0.11142018 0.084321201 0.67800003 83 72 57 255
-0.10892311 0.083829269 0.67400002 82 70 53 255
-0.10644754 0.083337195 0.67000002 81 69 52 255
-0.10414968 0.082969405 0.66700006 76 64 47 255
-0.10171445 0.0824771 0.66300005 79 65 48 255
-0.099300772 0.081984676 0.65900004 78 64 45 255
-0.09705659 0.081616528 0.65600002 79 65 45 255
-0.094828524 0.081248291 0.65300006 82 69 45 255
-0.092901506 0.081128784 0.65200001 82 69 45 255
-0.090979673 0.081009209 0.65100002 77 64 40 255
-0.089063011 0.080889538 0.65000004 74 63 42 255
-0.086882956 0.080520883 0.64700001 72 60 41 255
-0.084850594 0.080276579 0.64500004 68 57 42 255
-0.082828879 0.080032162 0.64300001 63 52 39 255
-0.081069998 0.08003661 0.64300001 57 48 35 255
-0.079064161 0.079792008 0.64100003 48 44 30 255
-0.077189617 0.0796718 0.64000005 44 40 26 255
-0.07555601 0.079800479 0.64100003 41 38 22 255
-0.074031822 0.080053598 0.64300001 38 35 19 255
-0.07238403 0.08018215 0.64400005 37 36 22 255
-0.070511192 0.080061615 0.64300001 32 31 17 255
-0.068750508 0.080065504 0.64300001 37 35 24 255
-0.066781215 0.07982026 0.64100003 34 30 20 255
-0.064924084 0.079699442 0.64000005 35 31 21 255
-0.063072205 0.079578519 0.63900006 32 28 17 255
-0.061225578 0.079457499 0.63800001 36 31 20 255
-0.059570663 0.079585485 0.63900006 43 34 21 255
-0.05772908 0.079464279 0.63800001 48 37 24 255
-0.056068253 0.079592094 0.63900006 56 42 25 255
-0.054316737 0.079595268 0.63900006 56 42 25 255
-0.052647285 0.079722911 0.64000005 61 47 30 255
-0.050892632 0.079725899 0.64000005 62 47 28 255
-0.049214568 0.079853371 0.64100003 64 49 30 255
-0.047530837 0.079980753 0.64200002 62 47 28 255
-0.045912735 0.08023265 0.64400005 69 52 33 255
-0.044214945 0.080359861 0.64500004 70 51 31 255
-0.0425773 0.080611587 0.64700001 73 52 32 255
-0.040802401 0.080614038 0.64700001 73 52 32 255
-0.039087664 0.080740981 0.648 74 53 33 255
-0.037367288 0.080867842 0.64900005 77 56 36 255
-0.035641283 0.080994606 0.65000004 73 51 33 255
-0.033961736 0.081245877 0.65200001 70 50 32 255
-0.032172397 0.081247836 0.65200001 68 48 30 255
-0.030429533 0.081374317 0.65300006 76 54 36 255
-0.028724916 0.081625313 0.65500003 77 56 36 255
-0.027009202 0.081876203 0.65700001 75 56 36 255
-0.025359137 0.082376257 0.66100001 77 58 38 255
-0.023687011 0.082876228 0.66500002 76 57 37 255
-0.022025703 0.083500728 0.67000002 79 60 40 255
-0.020276595 0.08387588 0.67300004 76 57 37 255
-0.018483553 0.084126309 0.67500001 80 61 41 255
-0.016654817 0.084251992 0.67600006 78 59 39 255
-0.014886196 0.084751472 0.68000001 71 54 35 255
-0.01305726 0.085001588 0.68200004 70 55 35 255
-0.011233687 0.085376225 0.68500006 72 58 41 255
-0.009366286 0.085501485 0.68600005 69 58 43 255
-0.0075151706 0.085875899 0.68900001 63 58 47 255
-0.0056475489 0.086250223 0.69200003 111 110 104 255
-0.0037742574 0.086873695 0.69700003 153 156 152 255
-0.001873489 0.08749707 0.70200002 190 197 194 255
5.4826676e-05 0.08824496 0.708 210 218 215 255
0.0020386863 0.089989856 0.72200006 228 236 235 255
-0.12530985 0.086944222 0.71500003 89 84 73 255
-0.12128914 0.085490905 0.70300001 90 82 66 255
-0.11784299 0.084402189 0.69400001 89 78 65 255
-0.11477977 0.083556533 0.68700004 86 75 62 255
-0.11175442 0.082710698 0.68000001 86 75 60 255
-0.10909016 0.082107969 0.67500001 76 64 47 255
-0.10677068 0.081748411 0.67200005 81 69 52 255
-0.10446727 0.081388742 0.66900003 77 63 46 255
-0.10217991 0.081028961 0.66600001 79 65 48 255
-0.099456556 0.080304064 0.66000003 78 64 45 255
-0.097061604 0.079822376 0.65600002 77 64 41 255
-0.094978668 0.079583935 0.65400004 75 62 38 255
-0.093191348 0.079588786 0.65400004 73 60 36 255
-0.091124192 0.079350159 0.65200001 75 62 39 255
-0.089067705 0.079111449 0.65000004 76 62 42 255
-0.086753272 0.078629196 0.64600003 73 59 42 255
-0.084723555 0.078390278 0.64400005 69 56 41 255
-0.082575679 0.078029528 0.64100003 65 54 41 255
-0.080696091 0.077912137 0.64000005 57 48 37 255
-0.078821741 0.077794664 0.63900006 44 39 28 255
-0.077073194 0.077798843 0.63900006 42 38 27 255
-0.075442262 0.077924713 0.64000005 40 37 23 255
-0.073690452 0.077928752 0.64000005 37 36 20 255
-0.072050802 0.07805448 0.64100003 31 30 16 255
-0.070405424 0.078180149 0.64200002 32 31 17 255
-0.068861246 0.078427523 0.64400005 30 28 17 255
-0.0670975 0.078431264 0.64400005 31 29 19 255
-0.065130606 0.078191333 0.64200002 33 31 21 255
-0.063371874 0.078194901 0.64200002 36 32 22 255
-0.06142097 0.077954777 0.64000005 34 30 19 255
-0.059667259 0.077958159 0.64000005 38 31 18 255
-0.05764186 0.077596009 0.63700002 49 40 27 255
-0.055895943 0.077599205 0.63700002 55 41 24 255
-0.054149821 0.077602305 0.63700002 58 44 27 255
-0.052485757 0.077727146 0.63800001 58 42 26 255
-0.050816029 0.077851914 0.63900006 68 53 34 255
-0.049063832 0.077854753 0.63900006 66 49 30 255
-0.047459539 0.078101188 0.64100003 68 53 34 255
-0.045844093 0.078347549 0.64300001 67 52 33 255
-0.044148955 0.078471988 0.64400005 74 57 37 255
-0.042513963 0.078718178 0.64600003 72 53 33 255
-0.040804774 0.078842431 0.64700001 73 52 30 255
-0.039150268 0.079088472 0.64900005 76 55 35 255
-0.037427053 0.079212546 0.65000004 74 52 34 255
-0.035698205 0.079336531 0.65100002 72 50 32 255
-0.034015827 0.079582311 0.65300006 74 54 38 255
-0.032223638 0.079584233 0.65300006 76 54 38 255
-0.030477926 0.079707935 0.65400004 74 52 36 255
-0.028770465 0.079953417 0.65600002 74 52 34 255
-0.027051914 0.080198824 0.65800005 77 55 37 255
-0.025360636 0.080566004 0.66100001 80 58 40 255
-0.023688415 0.081054993 0.66500002 79 59 41 255
-0.021961259 0.081422001 0.66800004 70 53 34 255
-0.020157278 0.081545122 0.66900003 77 60 41 255
-0.018402498 0.081911936 0.67200005 76 56 38 255
-0.016631167 0.082278654 0.67500001 73 56 37 255
-0.014887081 0.08288905 0.68000001 68 50 34 255
-0.013038892 0.083011784 0.68100005 76 60 44 255
-0.011250758 0.083621986 0.68600005 73 59 42 255
-0.0093941549 0.083866395 0.68800002 71 60 47 255
-0.0075374362 0.084232599 0.69100004 95 90 80 255
-0.0056478865 0.084354885 0.69200003 169 170 164 255
-0.0037690678 0.084842756 0.69600004 201 206 203 255
-0.0018762699 0.085696228 0.70300001 215 222 221 255
5.5139728e-05 0.086793393 0.71200001 226 234 233 255
-0.12724376 0.086296961 0.72600001 81 81 73 255
-0.12181259 0.083925448 0.70600003 82 79 63 255
-0.11818831 0.082742386 0.69600004 87 80 67 255
-0.11495243 0.081796877 0.68800002 78 69 56 255
-0.11192425 0.080970101 0.68100005 85 74 61 255
-0.10925716 0.080380954 0.67600006 86 74 57 255
-0.10693487 0.08002951 0.67300004 76 62 45 255
-0.10462863 0.079677962 0.67000002 80 66 49 255
-0.10233846 0.079326302 0.66700006 79 65 48 255
-0.099762969 0.07873667 0.66200006 79 65 48 255
-0.097214483 0.07814689 0.65700001 73 59 40 255
-0.094983511 0.077794895 0.65400004 76 62 42 255
-0.093053617 0.0776807 0.65300006 77 63 43 255
-0.091268674 0.077685401 0.65300006 76 62 42 255
-0.089346394 0.077571042 0.65200001 70 56 37 255
-0.087160699 0.077218659 0.64900005 72 58 41 255
-0.08499112 0.076866157 0.64600003 68 54 37 255
-0.082966506 0.076632537 0.64400005 63 52 37 255
-0.081204742 0.076636828 0.64400005 60 48 38 255
-0.079319343 0.076522022 0.64300001 53 43 34 255
-0.077318542 0.076288141 0.64100003 40 36 26 255
-0.075564183 0.076292187 0.64100003 38 34 23 255
-0.073694423 0.076177135 0.64000005 31 29 18 255
-0.072054692 0.076300055 0.64100003 32 30 19 255
-0.070409238 0.076422907 0.64200002 30 28 17 255
-0.068865001 0.076664746 0.64400005 29 27 17 255
-0.067101173 0.076668426 0.64400005 27 24 17 255
-0.065134183 0.076433897 0.64200002 29 26 19 255
-0.063375361 0.076437399 0.64200002 31 26 19 255
-0.061328385 0.076083615 0.63900006 36 31 24 255
-0.059577335 0.076086938 0.63900006 37 32 22 255
-0.057645068 0.075852014 0.63700002 41 34 23 255
-0.055899061 0.075855143 0.63700002 48 37 22 255
-0.054237865 0.075977273 0.63800001 51 38 23 255
-0.052488711 0.075980246 0.63800001 60 46 29 255
-0.050739363 0.075983122 0.63800001 62 48 31 255
-0.049066607 0.076105006 0.63900006 66 50 34 255
-0.047462229 0.076345913 0.64100003 64 48 32 255
-0.045846697 0.076586738 0.64300001 70 52 36 255
-0.044220023 0.076827504 0.64500004 73 53 37 255
-0.042582206 0.077068187 0.64700001 72 53 33 255
-0.040870182 0.077189662 0.648 69 50 30 255
-0.039152514 0.077311061 0.64900005 75 54 34 255
-0.037429202 0.077432357 0.65000004 69 49 31 255
-0.035645422 0.077434435 0.65000004 71 51 35 255
-0.033965688 0.077674679 0.65200001 74 54 38 255
-0.032225501 0.077795714 0.65300006 70 48 32 255
-0.030572899 0.078154922 0.65600002 75 53 37 255
-0.028815992 0.078275755 0.65700001 77 55 39 255
-0.027135713 0.078634799 0.66000003 77 57 41 255
-0.025438854 0.078993753 0.66300005 76 56 40 255
-0.023725417 0.079352602 0.66600001 74 56 40 255
-0.021962538 0.07959222 0.66800004 76 58 42 255
-0.020188585 0.079831734 0.67000002 72 54 38 255
-0.018430959 0.080190316 0.67300004 74 56 40 255
-0.016706061 0.0807871 0.67800003 73 55 39 255
-0.014887953 0.081026323 0.68000001 71 55 39 255
-0.013058804 0.081265457 0.68200004 68 54 37 255
-0.011235015 0.081623629 0.68500006 67 56 43 255
-0.0093947044 0.081981704 0.68800002 72 64 55 255
-0.0075487862 0.082458831 0.69200003 131 126 119 255
-0.0056563793 0.082578383 0.69300002 171 172 166 255
-0.0037801203 0.08317446 0.69800001 211 218 217 255
-0.001879049 0.083889589 0.70400006 224 231 233 255
5.5607652e-05 0.085557908 0.71800005 230 237 239 255
-0.129353 0.085705429 0.73800004 107 113 106 255
-0.12250851 0.082459472 0.71000004 86 83 69 255
-0.11836372 0.08095523 0.69700003 85 78 65 255
-0.1149579 0.079915352 0.68800002 83 74 61 255
-0.11209398 0.079223782 0.68200004 85 73 63 255
-0.10926244 0.078532055 0.67600006 80 67 52 255
-0.10678116 0.078072533 0.67200005 77 65 48 255
