ply
format ascii 1.0
comment PCL generated
element vertex 969
property float x
property float y
property float z
property uchar red
property uchar green
property uchar blue
property uchar alpha
element camera 0
property float view_px
property float view_py
property float view_pz
property float x_axisx
property float x_axisy
property float x_axisz
property float y_axisx
property float y_axisy
property float y_axisz
property float z_axisx
property float z_axisy
property float z_axisz
property float focal
property float scalex
property float scaley
property float centerx
property float centery
property int viewportx
property int viewporty
property float k1
property float k2
end_header
0.13880217 -0.20940547 0.77000004 31 27 10 255
0.14071554 -0.20912488 0.76900005 36 32 15 255
0.14243753 -0.20857233 0.76700002 36 32 15 255
0.14433691 -0.20829175 0.76600003 37 33 16 255
0.14623064 -0.20801117 0.76500005 39 35 18 255
0.14850649 -0.20827438 0.76600003 38 35 15 255
0.15078759 -0.20853755 0.76700002 39 36 16 255
0.15307395 -0.20880069 0.76800001 38 35 15 255
0.15475948 -0.20824821 0.76600003 34 32 14 255
0.15663871 -0.20796765 0.76500005 40 38 20 255
0.15851232 -0.20768709 0.76400006 36 34 14 255
0.16059051 -0.20767842 0.76400006 35 33 13 255
0.16266856 -0.20766978 0.76400006 41 38 18 255
0.16474645 -0.20766112 0.76400006 41 38 17 255
0.16638744 -0.20710887 0.76200002 39 36 16 255
0.16823851 -0.20682852 0.76100004 41 38 18 255
0.17030779 -0.20682 0.76100004 41 38 17 255
0.17260343 -0.20708327 0.76200002 40 37 17 255
0.17490438 -0.20734656 0.76300001 44 41 21 255
0.17721064 -0.20760989 0.76400006 45 41 17 255
0.17952222 -0.20787326 0.76500005 43 39 15 255
0.18231389 -0.20868006 0.76800001 46 41 20 255
0.18488167 -0.20921521 0.77000004 42 37 16 255
0.18746018 -0.20975032 0.77200001 34 31 11 255
0.1900495 -0.21028551 0.77400005 36 34 16 255
0.19240132 -0.21054907 0.77500004 37 35 17 255
0.19425654 -0.21026935 0.77400005 41 38 22 255
0.19610626 -0.20998974 0.77300006 40 38 20 255
0.19820689 -0.20998189 0.77300006 40 38 20 255
0.20056659 -0.21024577 0.77400005 40 34 17 255
0.20266981 -0.21023816 0.77400005 40 34 17 255
0.20450845 -0.20995902 0.77300006 40 35 15 255
0.20660889 -0.20995161 0.77300006 48 42 25 255
0.20870931 -0.20994435 0.77300006 47 41 24 255
0.21108244 -0.21020877 0.77400005 48 43 23 255
0.21373639 -0.21074492 0.77600002 48 43 23 255
0.21640126 -0.21128117 0.77800006 54 49 29 255
0.21907702 -0.21181753 0.78000003 57 50 30 255
0.22148006 -0.21208246 0.78100002 49 41 24 255
0.22388861 -0.21234757 0.78200006 54 46 29 255
0.22659162 -0.21288432 0.78400004 60 52 35 255
0.22959733 -0.21369278 0.78700006 57 53 36 255
0.23320834 -0.21504441 0.79200006 69 66 50 255
0.24041264 -0.21965429 0.80900002 70 67 51 255
-0.34196427 -0.22492027 0.82000005 100 90 63 255
-0.33557039 -0.22216719 0.81000006 98 91 61 255
-0.33293632 -0.2218833 0.80900002 100 93 63 255
-0.33276153 -0.22324555 0.81400001 98 95 67 255
-0.32971787 -0.22268845 0.81200004 116 115 87 255
-0.32265291 -0.21938951 0.80000001 99 98 74 255
-0.3176575 -0.21746249 0.79300004 84 82 62 255
-0.31429261 -0.21663293 0.79000002 79 77 59 255
-0.31173515 -0.2163523 0.78900003 71 69 51 255
-0.30996868 -0.21662056 0.79000002 62 60 42 255
-0.30819759 -0.21688928 0.79100001 62 59 43 255
-0.3064217 -0.21715844 0.79200006 52 49 33 255
-0.30425692 -0.21715383 0.79200006 47 44 28 255
-0.30209282 -0.21714965 0.79200006 43 40 24 255
-0.29955065 -0.21687169 0.79100001 46 42 25 255
-0.2977666 -0.21714255 0.79200006 48 44 27 255
-0.29523119 -0.21686544 0.79100001 47 43 27 255
-0.29270187 -0.21658874 0.79000002 44 40 24 255
-0.29054633 -0.21658662 0.79000002 47 43 26 255
-0.28802627 -0.21631069 0.78900003 49 47 29 255
-0.28514993 -0.21576101 0.78700006 48 44 27 255
-0.28192538 -0.21493755 0.78400004 52 48 31 255
-0.27943137 -0.21466275 0.78300005 53 48 28 255
-0.27658918 -0.21411414 0.78100002 42 39 18 255
-0.27410975 -0.21384004 0.78000003 48 43 22 255
-0.27163625 -0.21356626 0.77900004 43 41 17 255
-0.26882252 -0.21301866 0.77700001 41 40 18 255
-0.26670662 -0.21301965 0.77700001 39 38 16 255
-0.26527214 -0.21356933 0.77900004 39 37 17 255
-0.2631515 -0.21357095 0.77900004 43 41 21 255
-0.26136628 -0.21384706 0.78000003 47 45 25 255
-0.25857884 -0.21330097 0.77800006 49 47 29 255
-0.25646186 -0.21330348 0.77800006 42 40 20 255
-0.25401825 -0.21303207 0.77700001 49 47 27 255
-0.25158036 -0.21276096 0.77600002 44 42 22 255
-0.2491481 -0.21249008 0.77500004 42 39 18 255
-0.24704033 -0.21249364 0.77500004 42 39 18 255
-0.24493273 -0.21249743 0.77500004 43 40 20 255
-0.24313867 -0.21277566 0.77600002 40 37 17 255
-0.24164999 -0.21332838 0.77800006 37 35 17 255
-0.24015054 -0.21388128 0.78000003 33 31 13 255
-0.23833528 -0.21416028 0.78100002 34 32 14 255
-0.23621219 -0.21416524 0.78100002 32 30 12 255
-0.2343891 -0.21444468 0.78200006 30 28 10 255
-0.23256058 -0.2147243 0.78300005 27 24 8 255
-0.23131531 -0.21555263 0.78600001 29 26 10 255
-0.23034544 -0.21665543 0.79000002 28 25 9 255
-0.22935389 -0.21775848 0.79400003 32 29 13 255
-0.22691 -0.21749046 0.79300004 37 34 18 255
-0.22447158 -0.21722262 0.79200006 33 31 13 255
-0.2217579 -0.21668063 0.79000002 32 29 13 255
-0.21961115 -0.21668737 0.79000002 29 26 10 255
-0.21773967 -0.21696851 0.79100001 24 23 9 255
-0.21613532 -0.21752416 0.79300004 23 22 8 255
-0.21371061 -0.21725705 0.79200006 25 24 8 255
-0.21048994 -0.21616706 0.78800005 40 38 20 255
-0.2064978 -0.21425413 0.78100002 46 44 24 255
-0.20175861 -0.21151817 0.77100003 47 45 25 255
-0.19681479 -0.20850779 0.76000005 53 51 31 255
-0.19218695 -0.20577167 0.75000006 54 52 32 255
-0.18761341 -0.20303547 0.74000001 54 52 34 255
-0.18334496 -0.2005735 0.73100001 53 51 33 255
-0.17986968 -0.19893464 0.72500002 53 50 34 255
-0.17667231 -0.19757015 0.72000003 52 49 33 255
-0.17398736 -0.19675446 0.71700001 58 55 39 255
-0.17155857 -0.1962132 0.71500003 52 51 35 255
-0.1693778 -0.1959464 0.71400005 71 69 51 255
-0.16696784 -0.19540516 0.71200001 65 63 43 255
-0.16433686 -0.19458953 0.70900005 48 46 26 255
-0.16195115 -0.19404832 0.70700002 54 53 31 255
-0.1593499 -0.19323267 0.70400006 57 54 33 255
-0.15698844 -0.19269145 0.70200002 48 45 25 255
-0.15530044 -0.19297372 0.70300001 47 44 24 255
-0.15338872 -0.19298156 0.70300001 42 39 19 255
-0.15147686 -0.19298941 0.70300001 47 43 26 255
-0.14913934 -0.19244823 0.70100003 50 46 29 255
-0.1470226 -0.19218156 0.70000005 47 43 26 255
-0.14470385 -0.19164033 0.69800001 50 46 29 255
-0.14280502 -0.19164822 0.69800001 55 51 34 255
-0.14070415 -0.19138151 0.69700003 56 53 33 255
-0.13821028 -0.19056562 0.69400001 66 63 43 255
-0.13612543 -0.19029884 0.69300002 61 58 38 255
-0.13423958 -0.19030666 0.69300002 62 60 42 255
-0.13254453 -0.19058909 0.69400001 48 46 28 255
-0.13065563 -0.19059689 0.69400001 47 45 27 255
-0.1289521 -0.19087934 0.69500005 43 41 21 255
-0.12687731 -0.19061245 0.69400001 40 38 18 255
-0.1249879 -0.19062018 0.69400001 45 42 21 255
-0.12309831 -0.19062789 0.69400001 48 47 25 255
-0.12120855 -0.19063556 0.69400001 47 46 24 255
-0.11914667 -0.1903685 0.69300002 51 50 28 255
-0.11725929 -0.1903761 0.69300002 47 46 24 255
-0.11537173 -0.19038364 0.69300002 43 41 21 255
-0.11364773 -0.19066584 0.69400001 41 39 21 255
-0.11175708 -0.19067331 0.69400001 44 42 24 255
-0.10986624 -0.1906807 0.69400001 48 46 28 255
-0.10813082 -0.19096282 0.69500005 49 47 29 255
-0.10593119 -0.19042054 0.69300002 50 48 30 255
-0.10404253 -0.19042775 0.69300002 48 46 28 255
-0.10200629 -0.19016008 0.69200003 45 41 24 255
-0.10026469 -0.19044192 0.69300002 44 40 24 255
-0.098375514 -0.19044892 0.69300002 45 41 24 255
-0.096486144 -0.19045582 0.69300002 47 45 27 255
-0.094460107 -0.19018783 0.69200003 48 46 26 255
-0.092573114 -0.19019455 0.69200003 45 43 23 255
-0.090685949 -0.19020119 0.69200003 47 46 22 255
-0.088798612 -0.19020775 0.69200003 48 47 25 255
-0.08678548 -0.18993931 0.69100004 51 50 28 255
-0.084777676 -0.18967082 0.69000006 55 54 32 255
-0.082775131 -0.18940213 0.68900001 50 48 28 255
-0.081012711 -0.18968321 0.69000006 54 52 34 255
-0.079015285 -0.18941429 0.68900001 58 55 39 255
-0.077135123 -0.18942024 0.68900001 57 54 40 255
-0.075036347 -0.1888762 0.68700004 57 54 40 255
-0.07326781 -0.18915682 0.68800002 53 50 36 255
-0.071389906 -0.18916243 0.68800002 53 50 34 255
-0.069612868 -0.18944283 0.68900001 46 42 25 255
-0.067731924 -0.18944819 0.68900001 45 41 24 255
-0.065850824 -0.18945342 0.68900001 46 42 25 255
-0.063969582 -0.18945853 0.68900001 44 42 24 255
-0.062178314 -0.18973853 0.69000006 42 40 22 255
-0.060468823 -0.19029337 0.69200003 44 42 24 255
-0.058663622 -0.19057313 0.69300002 42 40 22 255
-0.057016663 -0.19140278 0.69600004 36 33 17 255
-0.055115622 -0.19140728 0.69600004 34 31 15 255
-0.053367369 -0.19196172 0.69800001 38 36 18 255
-0.051313162 -0.19141592 0.69600004 35 33 15 255
-0.04955373 -0.19197008 0.69800001 40 37 21 255
-0.047646739 -0.19197406 0.69800001 42 38 21 255
-0.045739625 -0.19197789 0.69800001 41 37 20 255
-0.043832406 -0.19198157 0.69800001 41 37 20 255
-0.041985154 -0.19226019 0.69900006 41 37 20 255
-0.040074993 -0.19226357 0.69900006 46 44 26 255
-0.038055543 -0.1917167 0.69700003 42 40 20 255
-0.03604693 -0.19116968 0.69500005 47 45 27 255
-0.034147426 -0.1911726 0.69500005 50 48 30 255
-0.032340638 -0.19172551 0.69700003 51 49 29 255
-0.030435508 -0.19172814 0.69700003 49 47 27 255
-0.028530298 -0.19173063 0.69700003 54 52 32 255
-0.026510419 -0.19090769 0.69400001 50 48 28 255
-0.024577808 -0.19063476 0.69300002 48 46 26 255
-0.022585141 -0.1898115 0.69000006 50 47 27 255
-0.020668812 -0.18953823 0.68900001 47 45 27 255
-0.018730639 -0.18898973 0.68700004 49 47 29 255
-0.016852412 -0.18899123 0.68700004 56 54 36 255
-0.014974144 -0.1889926 0.68700004 51 49 31 255
-0.013114901 -0.18926889 0.68800002 53 50 34 255
-0.011217499 -0.18899481 0.68700004 50 47 31 255
-0.0093391305 -0.18899569 0.68700004 60 57 41 255
-0.0074498793 -0.18872131 0.68600005 53 50 34 255
-0.0055823289 -0.18899696 0.68700004 73 69 53 255
-0.0037039043 -0.18899737 0.68700004 83 76 63 255
-0.0018254699 -0.1889976 0.68700004 73 66 53 255
5.2968691e-05 -0.18899767 0.68700004 67 59 43 255
0.0019342186 -0.1892727 0.68800002 59 53 37 255
0.0038320234 -0.19009778 0.69100004 56 50 34 255
0.0057213851 -0.19009736 0.69100004 52 48 31 255
0.0076107313 -0.19009681 0.69100004 48 44 27 255
0.0094863093 -0.18982096 0.69000006 51 47 30 255
0.011372878 -0.18982008 0.69000006 47 43 26 255
0.013278634 -0.19009413 0.69100004 49 45 28 255
0.015211776 -0.1906431 0.69300002 53 49 32 255
0.017131131 -0.19091684 0.69400001 53 47 30 255
0.019001074 -0.19064021 0.69300002 57 51 34 255
0.020895652 -0.19063851 0.69300002 70 64 47 255
0.022823064 -0.19091174 0.69400001 75 72 52 255
0.02475589 -0.19118483 0.69500005 70 67 47 255
0.026655767 -0.19118269 0.69500005 54 52 32 255
0.028514486 -0.19090524 0.69400001 54 52 34 255
0.030411487 -0.19090277 0.69400001 51 49 31 255
0.032261863 -0.19062507 0.69300002 45 43 25 255
0.034057405 -0.19007215 0.69100004 47 45 27 255
0.035945974 -0.19006923 0.69100004 48 46 28 255
0.037834454 -0.19006616 0.69100004 47 45 27 255
0.039837807 -0.19061305 0.69300002 46 44 26 255
0.041731562 -0.19060966 0.69300002 50 48 30 255
0.043751117 -0.19115624 0.69500005 48 46 28 255
0.04571582 -0.1914276 0.69600004 50 46 29 255
0.047754284 -0.19197382 0.69800001 54 50 33 255
0.049661279 -0.19196986 0.69800001 69 61 44 255
0.051642027 -0.19224074 0.69900006 81 73 56 255
0.053704735 -0.19278653 0.70100003 77 70 50 255
0.055619553 -0.19278207 0.70100003 60 55 35 255
0.057452168 -0.19250254 0.70000005 54 47 26 255
0.059448808 -0.19277284 0.70100003 48 45 24 255
0.061625842 -0.193593 0.70400006 47 44 23 255
0.063728854 -0.19413798 0.70600003 49 45 21 255
0.065749645 -0.19440782 0.70700002 45 41 17 255
0.067775756 -0.19467753 0.708 51 47 23 255
0.069807179 -0.19494711 0.70900005 60 53 30 255
0.07204628 -0.19576643 0.71200001 59 52 29 255
0.074301608 -0.19658561 0.71500003 73 66 46 255
0.076466501 -0.19712967 0.71700001 78 70 53 255
0.078860901 -0.19822341 0.72100002 73 65 48 255
0.080940679 -0.19849227 0.72200006 57 49 32 255
0.083255373 -0.19931078 0.72500002 56 50 33 255
0.085468724 -0.19985424 0.72700006 50 45 25 255
0.087933399 -0.20094731 0.73100001 48 43 23 255
0.090173684 -0.20149048 0.73300004 51 44 24 255
0.0926762 -0.20258322 0.73700005 58 51 28 255
0.095200345 -0.20367579 0.74100006 73 66 43 255
0.098008528 -0.20531793 0.74700004 71 64 43 255
0.10084927 -0.20695984 0.75300002 58 51 30 255
0.10358587 -0.20832668 0.75800002 52 45 24 255
0.10607078 -0.2091437 0.76100004 42 37 17 255
0.10857186 -0.20996058 0.76400006 39 33 16 255
0.1110891 -0.2107773 0.76700002 38 32 15 255
0.11391761 -0.21214347 0.77200001 32 28 11 255
0.11677317 -0.21350944 0.77700001 32 30 12 255
0.11996184 -0.21542482 0.78400004 37 34 18 255
0.12287696 -0.21679041 0.78900003 29 26 12 255
0.12534374 -0.21733159 0.79100001 24 21 7 255
0.12766004 -0.2175979 0.79200006 20 18 8 255
0.12948982 -0.21703993 0.79000002 22 20 10 255
0.13114189 -0.21620721 0.78700006 28 24 13 255
0.13226932 -0.21455035 0.78100002 22 19 5 255
0.13370803 -0.21344298 0.77700001 29 26 12 255
0.1354744 -0.21288507 0.77500004 31 27 11 255
0.13722965 -0.21232714 0.77300006 32 28 11 255
0.13897383 -0.21176922 0.77100003 31 27 10 255
0.14070693 -0.21121132 0.76900005 33 29 12 255
0.1426146 -0.21092802 0.76800001 38 34 17 255
0.14451669 -0.2106448 0.76700002 38 35 15 255
0.14641313 -0.21036156 0.76600003 42 37 17 255
0.14849782 -0.21035293 0.76600003 38 33 13 255
0.1507789 -0.21061887 0.76700002 38 33 13 255
0.15326455 -0.21115939 0.76900005 36 33 13 255
0.15495282 -0.21060157 0.76700002 37 35 17 255
0.15683478 -0.21031834 0.76600003 36 34 16 255
0.15871114 -0.21003513 0.76500005 35 33 15 255
0.16079207 -0.21002652 0.76500005 38 36 18 255
0.16265994 -0.2097434 0.76400006 41 38 18 255
0.1645222 -0.20946027 0.76300001 41 38 18 255
0.1663789 -0.20917726 0.76200002 39 34 14 255
0.16845106 -0.20916876 0.76200002 37 33 16 255
0.17052308 -0.20916031 0.76200002 40 38 20 255
0.17304799 -0.20970085 0.76400006 42 40 20 255
0.17535442 -0.20996694 0.76500005 43 40 20 255
0.17766616 -0.21023305 0.76600003 44 41 20 255
0.17998321 -0.2104992 0.76700002 41 39 15 255
0.18254298 -0.21103983 0.76900005 39 37 13 255
0.18511352 -0.21158047 0.77100003 45 42 21 255
0.187452 -0.21184672 0.77200001 41 38 18 255
0.19004138 -0.21238747 0.77400005 39 37 19 255
0.19239327 -0.21265382 0.77500004 45 41 24 255
0.19449957 -0.21264587 0.77500004 47 43 26 255
0.19609843 -0.2120893 0.77300006 42 38 21 255
0.19819917 -0.21208158 0.77300006 43 37 20 255
0.20055895 -0.21234831 0.77400005 41 36 16 255
0.20240046 -0.21206647 0.77300006 41 38 18 255
0.20397194 -0.2115104 0.77100003 48 43 23 255
0.20606706 -0.21150315 0.77100003 43 38 18 255
0.20843217 -0.21177033 0.77200001 44 39 19 255
0.21107543 -0.21231198 0.77400005 49 44 23 255
0.2134541 -0.2125794 0.77500004 49 42 19 255
0.21639451 -0.21339552 0.77800006 51 44 23 255
0.21907042 -0.21393746 0.78000003 49 42 21 255
0.22147359 -0.21420527 0.78100002 52 45 25 255
0.2238823 -0.21447323 0.78200006 58 51 30 255
0.22687446 -0.21528983 0.78500003 59 52 32 255
0.22959135 -0.21583235 0.78700006 55 51 34 255
0.23290803 -0.21692351 0.79100001 60 58 40 255
0.23921821 -0.2207571 0.80500007 67 66 50 255
-0.34380782 -0.22689711 0.81900007 95 87 62 255
-0.34155798 -0.22688587 0.81900007 99 91 66 255
-0.33640909 -0.2249361 0.81200004 99 92 62 255
-0.33294588 -0.22409503 0.80900002 94 87 57 255
-0.33195299 -0.22491652 0.81200004 98 95 65 255
-0.32850817 -0.2240766 0.80900002 110 109 81 255
-0.32185417 -0.22102152 0.79800004 103 102 78 255
-0.31726423 -0.21935198 0.79200006 86 84 64 255
-0.3139016 -0.21851385 0.78900003 67 65 47 255
-0.31174153 -0.2185071 0.78900003 63 60 44 255
-0.30958223 -0.21850079 0.78900003 62 61 45 255
-0.30742374 -0.21849497 0.78900003 65 62 46 255
-0.30565289 -0.2187665 0.79000002 51 48 32 255
-0.30426151 -0.21931541 0.79200006 41 38 22 255
-0.30209693 -0.21931089 0.79200006 44 41 25 255
-0.29993308 -0.2193068 0.79200006 45 41 24 255
-0.29739392 -0.21902625 0.79100001 50 46 29 255
-0.29523408 -0.21902299 0.79100001 44 40 23 255
-0.29270434 -0.21874328 0.79000002 46 42 26 255
-0.29018062 -0.21846393 0.78900003 46 44 26 255
-0.28802797 -0.2184619 0.78900003 47 45 27 255
-0.28551361 -0.21818337 0.78800005 48 46 28 255
-0.28264552 -0.21762832 0.78600001 50 46 29 255
-0.279432 -0.21679674 0.78300005 53 47 30 255
-0.27658942 -0.2162424 0.78100002 48 43 23 255
-0.27446109 -0.21624219 0.78100002 47 42 21 255
-0.27163583 -0.21568857 0.77900004 44 41 20 255
-0.26951373 -0.21568899 0.77900004 39 38 16 255
-0.26739207 -0.21568978 0.77900004 44 42 22 255
-0.2652708 -0.2156909 0.77900004 42 40 20 255
-0.26314986 -0.2156923 0.77900004 46 44 24 255
-0.26102924 -0.21569397 0.77900004 45 43 23 255
-0.2585766 -0.2154191 0.77800006 49 47 29 255
-0.25645933 -0.21542136 0.77800006 46 44 24 255
-0.25434238 -0.21542394 0.77800006 47 45 25 255
-0.25157726 -0.21487294 0.77600002 51 46 26 255
-0.24946626 -0.21487604 0.77600002 47 42 21 255
-0.24671797 -0.21432559 0.77400005 45 40 19 255
-0.2449289 -0.21460609 0.77500004 42 37 16 255
-0.24313462 -0.21488686 0.77600002 43 38 17 255
-0.24164566 -0.21544479 0.77800006 39 37 17 255
-0.23983812 -0.21572605 0.77900004 36 34 16 255
-0.23833048 -0.21628448 0.78100002 33 31 13 255
-0.23650968 -0.21656621 0.78200006 32 30 12 255
-0.23468357 -0.21684815 0.78300005 31 29 11 255
-0.23285215 -0.21713033 0.78400004 30 27 11 255
-0.23130965 -0.21768969 0.78600001 28 25 11 255
-0.23063114 -0.21908017 0.79100001 28 25 11 255
-0.22934784 -0.21991698 0.79400003 29 26 10 255
-0.227476 -0.22020002 0.79500002 30 27 11 255
-0.22446516 -0.21937531 0.79200006 32 30 12 255
-0.22147067 -0.21855074 0.78900003 32 29 13 255
-0.21932647 -0.2185573 0.78900003 28 27 13 255
-0.2174575 -0.218841 0.79000002 26 25 11 255
-0.2158557 -0.21940194 0.79200006 23 20 6 255
-0.21397325 -0.21968602 0.79300004 19 18 2 255
-0.21074975 -0.21858501 0.78900003 38 36 18 255
-0.20675485 -0.21665297 0.78200006 44 42 22 255
-0.20253628 -0.21444383 0.77400005 48 46 26 255
-0.19784322 -0.21168055 0.76400006 51 49 29 255
-0.19320452 -0.20891716 0.75400001 56 54 36 255
-0.18836659 -0.20587662 0.74300003 48 46 28 255
-0.18383917 -0.20311303 0.73300004 55 53 35 255
-0.18060653 -0.2017349 0.72800004 55 52 36 255
-0.17740096 -0.20035675 0.72300005 52 49 33 255
-0.1747078 -0.19953282 0.72000003 55 53 35 255
-0.1720309 -0.19870891 0.71700001 57 55 37 255
-0.1696074 -0.19816215 0.71500003 48 46 28 255
-0.16719471 -0.19761544 0.71300006 50 48 28 255
-0.16432922 -0.1965144 0.70900005 46 45 23 255
-0.16171442 -0.19569048 0.70600003 51 50 28 255
-0.1593422 -0.19514377 0.70400006 49 46 25 255
-0.15698072 -0.19459704 0.70200002 48 45 25 255
-0.15529267 -0.19488195 0.70300001 42 39 19 255
-0.15316273 -0.19461244 0.70200002 44 41 21 255
-0.15146902 -0.19489747 0.70300001 45 41 24 255
-0.14913151 -0.19435076 0.70100003 51 47 30 255
-0.14701478 -0.19408132 0.70000005 49 45 28 255
-0.14469603 -0.19353458 0.69800001 55 51 34 255
-0.14279716 -0.19354236 0.69800001 56 52 35 255
-0.14049447 -0.19299561 0.69600004 51 47 30 255
-0.13840164 -0.19272611 0.69500005 61 58 38 255
-0.13631406 -0.19245654 0.69400001 56 52 35 255
-0.13461921 -0.19274166 0.69500005 60 58 40 255
-0.13272774 -0.19274941 0.69500005 50 48 30 255
-0.13064787 -0.19247979 0.69400001 48 46 26 255
-0.1287588 -0.19248752 0.69400001 43 41 21 255
-0.1268696 -0.19249524 0.69400001 44 42 22 255
-0.12498021 -0.19250292 0.69400001 45 42 21 255
-0.12291329 -0.19223318 0.69300002 44 42 22 255
-0.12102628 -0.19224077 0.69300002 44 42 22 255
-0.11913911 -0.19224836 0.69300002 51 49 29 255
-0.11742095 -0.1925333 0.69400001 42 40 20 255
-0.11569718 -0.19281825 0.69500005 45 43 23 255
-0.11364029 -0.19254825 0.69400001 49 46 26 255
-0.11191071 -0.19283313 0.69500005 46 44 26 255
-0.10985889 -0.192563 0.69400001 42 40 22 255
-0.10796795 -0.1925703 0.69400001 46 44 26 255
-0.10592398 -0.19230005 0.69300002 50 48 30 255
-0.10403538 -0.1923072 0.69300002 49 47 29 255
-0.10199923 -0.19203678 0.69200003 45 43 25 255
-0.10025769 -0.1923213 0.69300002 45 42 26 255
-0.098368585 -0.19232824 0.69300002 45 42 26 255
-0.096479297 -0.19233511 0.69300002 46 44 26 255
-0.094316855 -0.1917868 0.69100004 44 42 24 255
-0.092566445 -0.19207104 0.69200003 48 46 26 255
-0.090548329 -0.19180009 0.69100004 45 44 22 255
-0.088792115 -0.19208416 0.69200003 50 49 27 255
-0.086653523 -0.19153543 0.69000006 49 48 26 255
-0.084771387 -0.19154173 0.69000006 56 54 34 255
-0.082648829 -0.19099274 0.68800002 56 54 34 255
-0.080889218 -0.19127646 0.68900001 54 52 34 255
-0.079009324 -0.19128245 0.68900001 59 56 40 255
-0.077241205 -0.19156599 0.69000006 51 48 34 255
-0.075139828 -0.1910165 0.68800002 51 48 34 255
-0.073155701 -0.19074453 0.68700004 50 47 33 255
-0.071280628 -0.19075006 0.68700004 51 48 32 255
-0.069405407 -0.19075552 0.68700004 43 39 22 255
-0.067530036 -0.19076084 0.68700004 46 40 23 255
-0.065750092 -0.19104373 0.68800002 45 41 24 255
-0.063964531 -0.19132648 0.68900001 41 39 21 255
-0.062173393 -0.19160917 0.69000006 42 40 22 255
-0.060376633 -0.1918917 0.69100004 41 39 21 255
-0.058658931 -0.19245183 0.69300002 39 37 19 255
-0.056766346 -0.19245648 0.69300002 36 34 16 255
-0.054952815 -0.19273865 0.69400001 37 34 18 255
-0.053210147 -0.19329849 0.69600004 39 36 20 255
-0.05130899 -0.19330269 0.69600004 38 36 18 255
-0.049478706 -0.19358455 0.69700003 41 38 22 255
-0.047574583 -0.19358847 0.69700003 40 37 21 255
-0.045670353 -0.19359231 0.69700003 38 36 18 255
-0.043766011 -0.19359599 0.69700003 40 36 19 255
-0.041921623 -0.19387725 0.69800001 48 44 27 255
-0.040014349 -0.19388062 0.69800001 48 46 28 255
-0.038052384 -0.19360609 0.69700003 45 43 23 255
-0.036095791 -0.19333141 0.69600004 44 42 24 255
-0.03414458 -0.19305655 0.69500005 47 45 27 255
-0.032291535 -0.19333711 0.69600004 50 48 30 255
-0.030345632 -0.19306192 0.69500005 51 49 29 255
-0.028486973 -0.19334219 0.69600004 52 50 30 255
-0.026469992 -0.19251111 0.69300002 49 47 27 255
-0.024540275 -0.19223545 0.69200003 52 50 30 255
-0.022583233 -0.19168185 0.69000006 46 44 26 255
-0.020727059 -0.1919615 0.69100004 49 47 29 255
-0.018783575 -0.19140753 0.68900001 52 50 32 255
-0.016875513 -0.19113123 0.68800002 55 53 35 255
-0.014951078 -0.19057699 0.68600005 53 51 33 255
-0.013075665 -0.19057816 0.68600005 50 48 30 255
-0.011183891 -0.19030139 0.68500006 49 47 29 255
-0.0093247434 -0.19058007 0.68600005 56 54 36 255
-0.0074492455 -0.19058079 0.68600005 69 67 49 255
-0.0055737277 -0.19058134 0.68600005 77 73 56 255
-0.0037035886 -0.19085956 0.68700004 79 73 57 255
-0.0018253145 -0.19085978 0.68700004 70 64 48 255
5.3041265e-05 -0.19113766 0.68800002 67 59 43 255
0.0019312426 -0.19085978 0.68700004 57 51 35 255
0.0038206065 -0.19141516 0.68900001 49 43 27 255
0.0057126181 -0.19169258 0.69000006 54 48 31 255
0.0075990697 -0.19169201 0.69000006 48 42 25 255
0.0094855018 -0.19169128 0.69000006 49 45 28 255
0.011355429 -0.19141258 0.68900001 52 47 27 255
0.013258291 -0.19168936 0.69000006 52 46 29 255
0.015166588 -0.19196594 0.69100004 52 46 29 255
0.017104996 -0.19252019 0.69300002 48 42 25 255
0.019026879 -0.19279647 0.69400001 52 46 29 255
0.020924034 -0.19279477 0.69400001 56 50 33 255
0.022821136 -0.19279292 0.69400001 66 63 43 255
0.024682567 -0.19251315 0.69300002 72 69 49 255
0.026576817 -0.19251098 0.69300002 72 70 50 255
0.028471006 -0.19250867 0.69300002 53 51 33 255
0.030365121 -0.19250621 0.69300002 55 53 33 255
0.032212615 -0.19222581 0.69200003 51 49 29 255
0.034054566 -0.19194527 0.69100004 46 44 26 255
0.035942983 -0.19194236 0.69100004 46 44 24 255
0.037886057 -0.19221707 0.69200003 44 43 21 255
0.039834507 -0.19249161 0.69300002 46 44 24 255
0.041788332 -0.19276603 0.69400001 50 48 28 255
0.043810464 -0.19331802 0.69600004 49 47 29 255
0.045777746 -0.19359209 0.69700003 50 48 30 255
0.047681969 -0.19358827 0.69700003 43 39 22 255
0.049657229 -0.19386205 0.69800001 53 47 30 255
0.051637836 -0.19413568 0.69900006 71 65 48 255
0.053700391 -0.19468687 0.70100003 71 65 48 255
0.055694409 -0.19496018 0.70200002 67 62 42 255
0.0576117 -0.19495565 0.70200002 58 53 32 255
0.059613656 -0.19522867 0.70300001 47 42 21 255
0.061708465 -0.19577925 0.70500004 43 39 15 255
0.063904323 -0.19660735 0.708 49 45 21 255
0.065837458 -0.19660226 0.708 52 48 24 255
0.067770444 -0.19659701 0.708 60 56 32 255
0.069801725 -0.19686931 0.70900005 72 65 42 255
0.072040685 -0.19769682 0.71200001 74 67 46 255
0.074399777 -0.1988018 0.71600002 70 62 45 255
0.076567277 -0.19935133 0.71800005 68 60 43 255
0.078745522 -0.19990067 0.72000003 58 52 35 255
0.081046626 -0.20072749 0.72300005 54 46 29 255
0.0832491 -0.20127653 0.72500002 47 41 24 255
0.085462324 -0.20182545 0.72700006 52 47 27 255
0.087686285 -0.2023742 0.72900003 53 48 28 255
0.090044007 -0.20320043 0.73200005 54 47 27 255
0.092543647 -0.20430407 0.73600006 71 64 43 255
0.095064916 -0.20540752 0.74000001 72 65 44 255
0.097739048 -0.20678844 0.74500006 71 64 43 255
0.10044026 -0.2081691 0.75000006 72 65 45 255
0.10316852 -0.20954958 0.75500005 56 51 31 255
0.10592388 -0.21092987 0.76000005 43 38 18 255
0.1084221 -0.2117549 0.76300001 39 33 16 255
0.11108133 -0.21285735 0.76700002 38 32 15 255
0.11390973 -0.21423711 0.77200001 35 31 14 255
0.11691545 -0.21589421 0.77800006 34 32 14 255
0.12025967 -0.21810608 0.78600001 31 28 12 255
0.12318011 -0.21948527 0.79100001 28 25 11 255
0.12581071 -0.22030936 0.79400003 22 20 9 255
0.12781276 -0.22002351 0.79300004 22 20 10 255
0.12964523 -0.21946014 0.79100001 20 18 8 255
0.13113339 -0.21834193 0.78700006 24 20 9 255
0.13209148 -0.21639141 0.78000003 25 22 8 255
0.13352747 -0.21527329 0.77600002 25 22 8 255
0.13529107 -0.21471 0.77400005 28 25 9 255
0.1370436 -0.21414672 0.77200001 33 31 13 255
0.13878503 -0.21358345 0.77000004 30 28 10 255
0.14051537 -0.21302016 0.76800001 36 34 16 255
0.14260603 -0.21301165 0.76800001 40 36 19 255
0.14450811 -0.21272574 0.76700002 39 35 18 255
0.14640455 -0.21243986 0.76600003 40 34 17 255
0.14848922 -0.21243131 0.76600003 43 37 20 255
0.15057372 -0.21242274 0.76600003 41 35 18 255
0.15305661 -0.21296877 0.76800001 36 32 15 255
0.1549442 -0.21268289 0.76700002 36 32 15 255
0.15703091 -0.21267429 0.76700002 36 34 16 255
0.15891001 -0.21238849 0.76600003 36 34 16 255
0.16099367 -0.21237992 0.76600003 37 33 16 255
0.1626514 -0.21181692 0.76400006 38 35 15 255
0.16451372 -0.21153119 0.76300001 41 36 16 255
0.16658877 -0.21152274 0.76300001 40 35 15 255
0.16866368 -0.21151434 0.76300001 42 36 19 255
0.17051472 -0.21122877 0.76200002 40 36 19 255
0.17281313 -0.21149765 0.76300001 43 39 22 255
0.17557532 -0.21232092 0.76600003 43 40 20 255
0.17788981 -0.21258983 0.76700002 42 39 18 255
0.18020965 -0.21285881 0.76800001 44 41 20 255
0.18229744 -0.21285066 0.76800001 44 42 18 255
0.18462524 -0.21311973 0.76900005 42 40 16 255
0.18720113 -0.21366593 0.77100003 37 34 13 255
0.19003336 -0.21448934 0.77400005 40 36 19 255
0.1926336 -0.21503566 0.77600002 39 35 18 255
0.19424081 -0.21447363 0.77400005 42 36 19 255
0.19609071 -0.21418883 0.77300006 42 36 19 255
0.19793513 -0.21390416 0.77200001 44 39 19 255
0.20029232 -0.21417373 0.77300006 42 37 16 255
0.20239307 -0.21416639 0.77300006 42 39 18 255
0.20422922 -0.21388204 0.77200001 42 37 16 255
0.20632721 -0.21387495 0.77200001 44 39 18 255
0.20869517 -0.21414499 0.77300006 47 42 21 255
0.21134125 -0.21469218 0.77500004 49 44 23 255
0.21372277 -0.21496244 0.77600002 51 47 23 255
0.21638791 -0.21550988 0.77800006 56 49 26 255
0.21906394 -0.21605742 0.78000003 50 43 22 255
0.22146729 -0.2163281 0.78100002 50 43 22 255
0.22387613 -0.21659893 0.78200006 55 48 27 255
0.2265795 -0.2171469 0.78400004 57 50 29 255
0.22958551 -0.21797198 0.78700006 59 56 36 255
0.23319682 -0.21935114 0.79200006 63 61 43 255
0.23861834 -0.22239213 0.80300003 71 70 54 255
-0.34073502 -0.22856663 0.81700003 98 90 65 255
-0.33890545 -0.22883527 0.81800002 97 90 59 255
-0.33419052 -0.22714633 0.81200004 95 90 60 255
-0.33318889 -0.22797559 0.81500006 102 99 71 255
-0.32851708 -0.22628787 0.80900002 108 106 82 255
-0.32186243 -0.22320233 0.79800004 98 97 75 255
-0.31767252 -0.22179566 0.79300004 82 80 62 255
-0.31430662 -0.22094898 0.79000002 63 61 43 255
-0.31214336 -0.22094184 0.79000002 60 57 41 255
-0.30958849 -0.22065553 0.78900003 54 53 37 255
-0.30703986 -0.22036967 0.78800005 60 60 42 255
-0.30488443 -0.22036397 0.78800005 53 51 33 255
-0.30311385 -0.22063833 0.78900003 48 46 28 255
-0.30171996 -0.22119278 0.79100001 40 38 20 255
-0.2995584 -0.22118835 0.79100001 51 45 28 255
-0.29739752 -0.22118439 0.79100001 47 43 26 255
-0.29523724 -0.22118081 0.79100001 45 39 22 255
-0.29233664 -0.22061844 0.78900003 49 45 28 255
-0.28981525 -0.22033606 0.78800005 51 47 30 255
-0.28802997 -0.22061335 0.78900003 51 49 31 255
-0.28551519 -0.22033179 0.78800005 49 47 29 255
-0.28264675 -0.21977097 0.78600001 48 46 28 255
-0.27943286 -0.21893094 0.78300005 52 48 31 255
-0.27694416 -0.2186505 0.78200006 40 36 19 255
-0.2744613 -0.21837039 0.78100002 44 42 22 255
-0.27198434 -0.21809065 0.78000003 42 41 19 255
-0.26951325 -0.21781124 0.77900004 44 42 22 255
-0.26773447 -0.21809135 0.78000003 36 36 18 255
-0.26561019 -0.21809219 0.78000003 41 39 21 255
-0.26348621 -0.21809335 0.78000003 44 42 22 255
-0.26136258 -0.2180948 0.78000003 45 42 22 255
-0.25890693 -0.21781695 0.77900004 47 43 26 255
-0.25645703 -0.21753938 0.77800006 47 42 22 255
-0.25433978 -0.21754172 0.77800006 48 43 23 255
-0.2515744 -0.21698508 0.77600002 44 39 19 255
-0.24946313 -0.21698794 0.77600002 45 40 20 255
-0.24671464 -0.21643184 0.77400005 41 36 15 255
-0.24492529 -0.21671486 0.77500004 42 37 17 255
-0.24313074 -0.21699812 0.77600002 44 39 19 255
-0.24164157 -0.21756132 0.77800006 38 34 17 255
-0.2395259 -0.21756542 0.77800006 32 30 12 255
-0.23802075 -0.21812908 0.78000003 35 33 15 255
-0.23620242 -0.21841334 0.78100002 32 30 12 255
-0.23497826 -0.21925716 0.78400004 33 30 14 255
-0.2331439 -0.21954186 0.78500003 31 28 14 255
-0.23189279 -0.22038618 0.78800005 30 27 13 255
-0.23062547 -0.22123069 0.79100001 28 25 11 255
-0.22905308 -0.22179578 0.79300004 27 26 12 255
-0.22746991 -0.22236106 0.79500002 27 24 8 255
-0.22502574 -0.22208744 0.79400003 33 30 14 255
-0.22230634 -0.22153433 0.79200006 34 31 15 255
-0.21959788 -0.22098126 0.79000002 37 34 18 255
-0.21772604 -0.22126755 0.79100001 28 25 11 255
-0.21612135 -0.22183377 0.79300004 24 21 7 255
-0.21396621 -0.22184065 0.79300004 22 19 3 255
-0.21127681 -0.22128819 0.79100001 33 31 13 255
-0.20780517 -0.2198965 0.78600001 43 41 21 255
-0.20383734 -0.21794531 0.77900004 45 43 23 255
-0.19887172 -0.21487495 0.76800001 49 47 27 255
-0.19396591 -0.21180454 0.75700003 53 51 33 255
-0.18886632 -0.20845424 0.74500006 52 50 32 255
-0.18458426 -0.2059432 0.73600006 51 48 32 255
-0.18084727 -0.20399174 0.72900003 53 50 34 255
-0.17763896 -0.20259991 0.72400004 47 44 30 255
-0.17494303 -0.20176773 0.72100002 49 47 29 255
-0.17226335 -0.20093559 0.71800005 52 50 32 255
-0.1698371 -0.20038331 0.71600002 46 44 24 255
-0.16742162 -0.19983105 0.71400005 46 45 23 255
-0.16478516 -0.19899891 0.71100003 45 44 22 255
-0.16239399 -0.19844672 0.70900005 46 45 23 255
-0.15978724 -0.1976146 0.70600003 48 46 26 255
-0.1576439 -0.19734228 0.70500004 51 48 28 255
-0.1555059 -0.19707 0.70400006 46 42 25 255
-0.15359138 -0.19707766 0.70400006 47 43 26 255
-0.15146127 -0.19680539 0.70300001 49 46 26 255
-0.1493365 -0.19653316 0.70200002 45 41 24 255
-0.14721701 -0.19626091 0.70100003 45 41 24 255
-0.14489557 -0.19570871 0.69900006 50 48 30 255
-0.14278941 -0.19543643 0.69800001 56 54 36 255
-0.14048672 -0.19488414 0.69600004 49 47 29 255
-0.13839389 -0.19461185 0.69500005 53 51 33 255
-0.13650273 -0.19461952 0.69500005 55 53 35 255
-0.13461146 -0.19462726 0.69500005 47 45 27 255
-0.13272002 -0.19463494 0.69500005 49 47 27 255
-0.13064016 -0.19436255 0.69400001 48 46 26 255
-0.12875113 -0.19437023 0.69400001 42 39 19 255
-0.12667912 -0.19409777 0.69300002 47 44 24 255
-0.12479249 -0.19410537 0.69300002 49 46 26 255
-0.12272834 -0.19383284 0.69200003 47 43 26 255
-0.12084409 -0.1938404 0.69200003 40 38 20 255
-0.11895967 -0.19384788 0.69200003 45 43 25 255
-0.11707509 -0.19385538 0.69200003 44 42 24 255
-0.11552325 -0.19442306 0.69400001 44 42 24 255
-0.11363288 -0.19443047 0.69400001 47 43 26 255
-0.11190335 -0.19471799 0.69500005 45 43 23 255
-0.10985161 -0.19444512 0.69400001 39 37 17 255
-0.10796071 -0.19445238 0.69400001 42 40 20 255
-0.10576398 -0.19389915 0.69200003 44 43 21 255
-0.10387817 -0.19390625 0.69200003 48 44 27 255
-0.10199222 -0.19391328 0.69200003 37 35 17 255
-0.10025074 -0.19420049 0.69300002 48 46 28 255
-0.098219767 -0.19392712 0.69200003 46 43 27 255
-0.096472494 -0.1942142 0.69300002 46 45 29 255
-0.09431015 -0.19366041 0.69100004 48 48 30 255
-0.092559814 -0.19394733 0.69200003 45 43 25 255
-0.090672821 -0.19395392 0.69200003 51 49 29 255
-0.088657364 -0.19368009 0.69100004 48 46 26 255
-0.086647183 -0.19340619 0.69000006 52 51 29 255
-0.084765144 -0.19341245 0.69000006 59 58 36 255
-0.082762823 -0.19313832 0.68900001 59 58 36 255
-0.080883183 -0.19314438 0.68900001 60 58 38 255
-0.079003379 -0.19315036 0.68900001 65 63 45 255
-0.077123433 -0.19315623 0.68900001 53 50 34 255
-0.075134121 -0.19288164 0.68800002 49 46 32 255
-0.073150098 -0.19260693 0.68700004 53 50 36 255
-0.071378894 -0.19289282 0.68800002 50 46 32 255
-0.069501057 -0.19289823 0.68800002 46 42 25 255
-0.067623079 -0.19290352 0.68800002 48 42 25 255
-0.065840513 -0.1931891 0.68900001 47 43 26 255
-0.063959517 -0.1931942 0.68900001 43 40 20 255
-0.06216849 -0.19347954 0.69000006 43 41 21 255
-0.060371857 -0.19376481 0.69100004 42 40 20 255
-0.058654271 -0.19433032 0.69300002 37 35 15 255
-0.056843713 -0.19461533 0.69400001 39 37 19 255
-0.054948404 -0.1946198 0.69400001 39 37 19 255
-0.053052969 -0.19462414 0.69400001 39 37 19 255
-0.051231131 -0.1949088 0.69500005 37 35 17 255
-0.049403705 -0.19519331 0.69600004 37 35 17 255
-0.047570709 -0.19547768 0.69700003 40 38 20 255
-0.045732137 -0.19576193 0.69800001 41 39 21 255
-0.043825205 -0.19576557 0.69800001 41 39 21 255
-0.041978233 -0.1960496 0.69900006 45 43 25 255
-0.039953727 -0.19549198 0.69700003 42 40 22 255
-0.038049236 -0.1954952 0.69700003 46 44 26 255
-0.036092795 -0.1952178 0.69600004 44 42 24 255
-0.034239985 -0.19550119 0.69700003 44 42 24 255
-0.032288849 -0.19522348 0.69600004 45 43 25 255
-0.030386755 -0.19522607 0.69600004 48 46 26 255
-0.028443664 -0.19494805 0.69500005 54 52 32 255
-0.026505964 -0.19466981 0.69400001 51 49 29 255
-0.024573671 -0.19439146 0.69300002 53 51 31 255
-0.022646785 -0.19411294 0.69200003 53 51 31 255
-0.02072531 -0.19383425 0.69100004 51 49 31 255
-0.01878199 -0.19327489 0.68900001 49 47 27 255
-0.016874084 -0.19299586 0.68800002 55 53 35 255
-0.014949813 -0.19243617 0.68600005 51 49 31 255
-0.013074557 -0.19243737 0.68600005 55 54 32 255
-0.011199269 -0.19243838 0.68600005 71 70 48 255
-0.0093375444 -0.19271979 0.68700004 71 70 48 255
-0.0074594701 -0.19272047 0.68700004 78 76 56 255
-0.005573255 -0.19244052 0.68600005 74 70 53 255
-0.0037032738 -0.19272144 0.68700004 68 64 47 255
-0.0018251593 -0.19272166 0.68700004 59 53 36 255
5.2959673e-05 -0.19272172 0.68700004 57 51 34 255
0.0019310787 -0.19272166 0.68700004 52 46 29 255
0.0038147373 -0.19300194 0.68800002 48 42 25 255
0.0057038539 -0.19328205 0.68900001 54 48 31 255
0.0075874124 -0.1932815 0.68900001 48 42 25 255
0.0094709508 -0.19328076 0.68900001 45 40 20 255
0.011337987 -0.19299938 0.68800002 42 37 16 255
0.013257168 -0.19355939 0.69000006 45 41 24 255
0.015165305 -0.19383872 0.69100004 49 45 28 255
0.017103551 -0.19439837 0.69300002 51 47 30 255
0.01905269 -0.19495788 0.69500005 46 42 25 255
0.020922272 -0.19467568 0.69400001 48 44 27 255
0.022819215 -0.19467385 0.69400001 55 51 34 255
0.02464488 -0.19411086 0.69200003 65 62 42 255
0.026574591 -0.19438921 0.69300002 74 71 51 255
0.028427543 -0.1941064 0.69200003 71 68 48 255
0.030362586 -0.19438444 0.69300002 59 55 38 255
0.032163385 -0.19382085 0.69100004 51 48 28 255
0.034051731 -0.19381809 0.69100004 49 45 28 255
0.035940003 -0.19381522 0.69100004 47 43 26 255
0.037937667 -0.1943731 0.69300002 47 43 26 255
0.03994618 -0.19493085 0.69500005 47 43 26 255
0.041905317 -0.195208 0.69600004 48 44 27 255
0.043932755 -0.19576539 0.69800001 46 42 25 255
0.045905355 -0.19604221 0.69900006 49 45 28 255
0.047746491 -0.1957579 0.69800001 43 39 22 255
0.049724337 -0.19603443 0.69900006 42 36 19 255
0.051707529 -0.19631077 0.70000005 50 44 27 255
0.053696066 -0.19658695 0.70100003 68 62 45 255
0.055769272 -0.19714344 0.70300001 68 63 43 255
0.057771217 -0.19741935 0.70400006 68 61 41 255
0.059778497 -0.19769509 0.70500004 56 51 30 255
0.061878625 -0.1982511 0.70700002 53 49 25 255
0.064170055 -0.19936776 0.71100003 63 59 34 255
0.066111237 -0.19936264 0.71100003 60 57 27 255
0.068052284 -0.19935741 0.71100003 69 65 41 255
0.070091628 -0.19963242 0.71200001 67 62 41 255
0.072237469 -0.20018768 0.71400005 61 53 36 255
0.074497961 -0.20102313 0.71700001 58 50 33 255
0.076561421 -0.20129776 0.71800005 50 42 25 255
0.078848898 -0.2021329 0.72100002 46 38 21 255
0.081152588 -0.20296791 0.72400004 43 35 18 255
0.083357655 -0.20352237 0.72600001 46 38 21 255
0.085455939 -0.20379642 0.72700006 54 47 26 255
0.087800063 -0.20463094 0.73000002 58 51 30 255
0.090160362 -0.20546532 0.73300004 65 56 35 255
0.092662603 -0.20657983 0.73700005 68 59 38 255
0.095186472 -0.2076942 0.74100006 64 55 34 255
0.097731985 -0.20880836 0.74500006 60 50 31 255
0.10029914 -0.20992236 0.74900001 75 68 48 255
0.10302456 -0.21131645 0.75400001 64 57 37 255
0.10591641 -0.21299061 0.76000005 57 50 30 255
0.10841452 -0.21382385 0.76300001 43 36 16 255
0.11107364 -0.21493718 0.76700002 40 32 15 255
0.11375435 -0.21605034 0.77100003 33 29 12 255
0.11705773 -0.21828419 0.77900004 35 31 14 255
0.12055753 -0.22079802 0.78800005 31 28 12 255
0.12348331 -0.2221908 0.79300004 26 23 9 255
0.12596081 -0.22274287 0.79500002 16 14 3 255
0.12828785 -0.22301467 0.79600006 19 19 11 255
0.13029236 -0.22272608 0.79500002 16 16 8 255
0.13145815 -0.22103672 0.78900003 20 18 8 255
0.1322524 -0.21878715 0.78100002 28 25 11 255
0.13334699 -0.21709797 0.77500004 29 26 12 255
0.13493305 -0.21624918 0.77200001 29 26 10 255
0.13685763 -0.21596071 0.77100003 33 31 13 255
0.13859634 -0.2153921 0.76900005 38 36 18 255
0.14050689 -0.21510354 0.76800001 39 37 19 255
0.14259753 -0.21509507 0.76800001 38 34 17 255
0.14468798 -0.21508661 0.76800001 39 35 18 255
0.14716049 -0.21563822 0.77000004 42 38 21 255
0.14886837 -0.21506962 0.76800001 40 34 17 255
0.15056519 -0.21450105 0.76600003 35 31 14 255
0.15264949 -0.21449256 0.76600003 39 35 18 255
0.15473364 -0.21448408 0.76600003 35 33 15 255
0.15702239 -0.21475559 0.76700002 35 33 13 255
0.15931638 -0.21502709 0.76800001 37 35 17 255
0.16098519 -0.21445869 0.76600003 37 35 17 255
0.16264296 -0.21389033 0.76400006 35 33 15 255
0.16450529 -0.21360196 0.76300001 36 32 15 255
0.16679873 -0.21387357 0.76400006 35 32 12 255
0.16865535 -0.21358532 0.76300001 41 38 17 255
0.17028266 -0.21301724 0.76100004 40 37 16 255
0.17257841 -0.21328893 0.76200002 43 40 19 255
0.1751087 -0.21384057 0.76400006 44 39 18 255
0.17788163 -0.21467207 0.76700002 42 37 16 255
0.18043616 -0.21522374 0.76900005 43 38 17 255
0.18276408 -0.21549556 0.77000004 42 38 14 255
0.18509737 -0.21576741 0.77100003 43 38 17 255
0.187436 -0.21603936 0.77200001 41 36 15 255
0.18977997 -0.21631134 0.77300006 40 35 15 255
0.19212933 -0.21658339 0.77400005 39 32 12 255
0.19398214 -0.21629587 0.77300006 45 38 18 255
0.19608313 -0.21628831 0.77300006 46 39 18 255
0.19818407 -0.21628085 0.77300006 46 39 18 255
0.20028497 -0.21627349 0.77300006 41 36 15 255
0.20238583 -0.21626624 0.77300006 48 43 22 255
0.20448668 -0.21625915 0.77300006 41 37 13 255
0.20658746 -0.21625215 0.77300006 43 39 15 255
0.2086883 -0.21624531 0.77300006 47 42 21 255
0.21133453 -0.21679808 0.77500004 49 44 23 255
0.21371618 -0.21707122 0.77600002 50 46 22 255
0.21638146 -0.21762425 0.77800006 50 46 22 255
0.21877679 -0.21789765 0.77900004 54 47 26 255
0.22089402 -0.21789151 0.77900004 61 54 31 255
0.22358388 -0.21844494 0.78100002 56 50 25 255
0.22628467 -0.21899852 0.78300005 58 51 28 255
0.22928813 -0.21983196 0.78600001 52 49 28 255
0.23260245 -0.22094521 0.79000002 54 52 34 255
0.23772152 -0.22373664 0.80000001 65 63 45 255
-0.33824414 -0.2291069 0.81100005 99 91 64 255
-0.33808786 -0.23050793 0.81600004 93 86 63 255
-0.33337781 -0.22880213 0.81000006 96 92 67 255
-0.33319876 -0.23020412 0.81500006 108 107 83 255
-0.32690203 -0.22736982 0.80500007 110 109 87 255
-0.32146773 -0.22510114 0.79700005 99 97 77 255
-0.31687939 -0.223398 0.79100001 88 86 68 255
-0.31391633 -0.22282514 0.78900003 67 64 48 255
-0.3117553 -0.22281764 0.78900003 60 57 43 255
-0.3092027 -0.22252822 0.78800005 58 57 41 255
-0.307046 -0.22252169 0.78800005 66 65 49 255
-0.30489007 -0.22251561 0.78800005 57 56 40 255
-0.30350325 -0.2230747 0.79000002 45 42 26 255
-0.3021062 -0.22363427 0.79200006 41 39 21 255
-0.30032018 -0.22391188 0.79300004 45 41 24 255
-0.29777747 -0.22362521 0.79200006 48 44 27 255
-0.29524079 -0.22333895 0.79100001 41 37 20 255
-0.29233971 -0.22277078 0.78900003 54 50 33 255
-0.28981793 -0.22248538 0.78800005 49 46 26 255
-0.28766724 -0.22248273 0.78800005 48 46 28 255
-0.28551713 -0.22248048 0.78800005 51 49 31 255
-0.28300792 -0.22219624 0.78700006 48 46 28 255
-0.27979094 -0.22134773 0.78400004 55 51 34 255
-0.27694494 -0.22078194 0.78200006 48 44 27 255
-0.27446175 -0.22049886 0.78100002 46 44 24 255
-0.27163574 -0.21993376 0.77900004 46 45 23 255
-0.26951301 -0.21993367 0.77900004 47 45 25 255
-0.2673907 -0.21993396 0.77900004 40 38 20 255
-0.26560929 -0.22021683 0.78000003 40 38 18 255
-0.26348504 -0.22021773 0.78000003 49 46 26 255
-0.26102602 -0.21993662 0.77900004 48 43 22 255
-0.25890514 -0.21993813 0.77900004 51 46 26 255
-0.25678459 -0.21993993 0.77900004 53 48 28 255
-0.25466433 -0.21994203 0.77900004 50 45 25 255
-0.25189596 -0.21937971 0.77700001 48 43 23 255
-0.24946024 -0.21910003 0.77600002 45 40 20 255
-0.24671149 -0.21853825 0.77400005 43 38 18 255
-0.2452379 -0.21910611 0.77600002 42 38 21 255
-0.24344042 -0.21939188 0.77700001 41 37 20 255
-0.24225882 -0.22024266 0.78000003 34 32 14 255
-0.23982963 -0.21996422 0.77900004 35 33 15 255
-0.23832151 -0.22053312 0.78100002 38 36 18 255
-0.23650026 -0.22081994 0.78200006 35 33 15 255
-0.2349734 -0.22138931 0.78400004 34 31 15 255
-0.23313883 -0.22167656 0.78500003 32 29 15 255
-0.23218177 -0.22281122 0.78900003 28 25 11 255
-0.23091152 -0.22366373 0.79200006 27 24 10 255
-0.22904739 -0.22395165 0.79300004 26 25 11 255
-0.22717787 -0.2242398 0.79400003 25 24 10 255
-0.22530302 -0.22452813 0.79500002 27 26 12 255
-0.22342281 -0.22481667 0.79600006 33 30 14 255
-0.22070333 -0.22425804 0.79400003 36 33 17 255
-0.21826999 -0.22398202 0.79300004 29 26 12 255
-0.21638714 -0.22427104 0.79400003 27 24 10 255
-0.21422914 -0.22427782 0.79400003 24 21 5 255
-0.21153691 -0.22371976 0.79200006 33 31 13 255
-0.20806246 -0.22231436 0.78700006 40 38 18 255
-0.20435347 -0.22062647 0.78100002 49 48 26 255
-0.19964138 -0.21780865 0.77100003 46 44 24 255
-0.1949836 -0.21499074 0.76100004 50 48 28 255
-0.19012664 -0.21189027 0.75000006 54 52 34 255
-0.18558019 -0.20907217 0.74000001 54 50 33 255
-0.18158424 -0.20681907 0.73200005 54 50 33 255
-0.17787704 -0.20484848 0.72500002 53 51 33 255
-0.17517833 -0.20400806 0.72200006 53 51 33 255
-0.17249589 -0.20316765 0.71900004 45 43 23 255
-0.17030406 -0.20289242 0.71800005 43 42 20 255
-0.16764864 -0.20205206 0.71500003 47 46 24 255
-0.1652412 -0.20149432 0.71300006 51 50 28 255
-0.16261549 -0.20065396 0.71000004 49 48 26 255
-0.16045864 -0.20037884 0.70900005 46 44 24 255
-0.15830712 -0.20010374 0.708 45 43 23 255
-0.15638179 -0.20011133 0.708 48 46 26 255
-0.15402004 -0.19955364 0.70600003 46 44 26 255
-0.15188448 -0.19927859 0.70500004 48 44 27 255
-0.14954154 -0.1987209 0.70300001 47 43 26 255
-0.14699934 -0.19788051 0.70000005 50 46 29 255
-0.14447331 -0.19704004 0.69700003 55 53 35 255
-0.14237261 -0.19676498 0.69600004 56 54 36 255
-0.14047904 -0.19677259 0.69600004 54 52 34 255
-0.13858533 -0.19678022 0.69600004 53 51 33 255
-0.13649508 -0.19650514 0.69500005 55 53 35 255
-0.1346038 -0.19651276 0.69500005 55 53 35 255
-0.13252141 -0.19623761 0.69400001 46 44 26 255
-0.1304443 -0.19596243 0.69300002 49 45 28 255
-0.12837251 -0.19568723 0.69200003 44 41 21 255
-0.12648876 -0.19569477 0.69200003 44 41 21 255
-0.12460487 -0.1957023 0.69200003 46 42 25 255
-0.12307549 -0.19627544 0.69400001 44 40 23 255
-0.12101121 -0.1960001 0.69300002 42 39 23 255
-0.11912411 -0.19600755 0.69300002 42 39 23 255
-0.1168985 -0.19544928 0.69100004 47 43 26 255
-0.1153494 -0.19602235 0.69300002 45 43 25 255
-0.11329808 -0.19574681 0.69200003 45 41 24 255
-0.11173502 -0.19631985 0.69400001 42 39 19 255
-0.10968608 -0.19604419 0.69300002 47 44 24 255
-0.10795353 -0.1963343 0.69400001 49 46 26 255
-0.10590969 -0.19605851 0.69300002 47 44 24 255
-0.10402124 -0.19606557 0.69300002 48 45 25 255
-0.10183787 -0.19550669 0.69100004 41 39 21 255
-0.10009918 -0.19579653 0.69200003 48 46 28 255
-0.098212942 -0.1958034 0.69200003 44 43 27 255
-0.096465729 -0.19609313 0.69300002 46 45 29 255
-0.094303496 -0.1955339 0.69100004 47 47 29 255
-0.092553228 -0.19582346 0.69200003 43 41 23 255
-0.090535298 -0.195547 0.69100004 45 43 23 255
-0.088522665 -0.19527045 0.69000006 47 45 25 255
-0.0865153 -0.19499375 0.68900001 60 59 37 255
-0.084513254 -0.19471696 0.68800002 63 62 40 255
-0.082516491 -0.19444007 0.68700004 68 67 45 255
-0.08064241 -0.19444609 0.68700004 68 66 46 255
-0.078653514 -0.19416896 0.68600005 66 64 46 255
-0.076781854 -0.19417477 0.68600005 62 60 42 255
-0.074910037 -0.19418047 0.68600005 54 51 35 255
-0.073038064 -0.19418608 0.68600005 52 49 33 255
-0.071269698 -0.19447465 0.68700004 50 46 29 255
-0.069394708 -0.19448003 0.68700004 45 41 24 255
-0.067519568 -0.19448528 0.68700004 53 48 28 255
-0.065644294 -0.19449043 0.68700004 46 43 23 255
-0.063768879 -0.19449545 0.68700004 47 44 23 255
-0.061983418 -0.19478348 0.68800002 46 43 22 255
-0.060105007 -0.19478828 0.68800002 47 44 23 255
-0.058395732 -0.1953592 0.69000006 47 46 24 255
-0.056593496 -0.1956469 0.69100004 42 40 20 255
-0.05478568 -0.19593446 0.69200003 38 36 18 255
-0.052972276 -0.19622189 0.69300002 41 39 21 255
-0.051153295 -0.19650921 0.69400001 42 40 22 255
-0.049399715 -0.1970796 0.69600004 41 39 21 255
-0.047498606 -0.1970835 0.69600004 36 34 16 255
-0.045662899 -0.19737044 0.69700003 41 39 21 255
-0.043758847 -0.19737406 0.69700003 42 40 22 255
-0.041854694 -0.19737756 0.69700003 46 44 26 255
-0.039893128 -0.19709773 0.69600004 41 39 21 255
-0.03799152 -0.19710092 0.69600004 47 45 27 255
-0.036141668 -0.19738716 0.69700003 46 44 26 255
