ply
format ascii 1.0
comment PCL generated
element vertex 979
property float x
property float y
property float z
property uchar red
property uchar green
property uchar blue
property uchar alpha
element camera 0
property float view_px
property float view_py
property float view_pz
property float x_axisx
property float x_axisy
property float x_axisz
property float y_axisx
property float y_axisy
property float y_axisz
property float z_axisx
property float z_axisy
property float z_axisz
property float focal
property float scalex
property float scaley
property float centerx
property float centery
property int viewportx
property int viewporty
property float k1
property float k2
end_header
-0.12151697 -0.34046531 0.85800004 45 43 25 255
-0.1191797 -0.34046781 0.85800004 41 39 21 255
-0.11670628 -0.34007365 0.85700005 41 39 19 255
-0.1141048 -0.3392826 0.85500002 41 39 19 255
-0.11138347 -0.33809474 0.85200006 37 35 15 255
-0.10880645 -0.33730373 0.85000002 39 37 17 255
-0.10636558 -0.33690953 0.84900004 39 37 17 255
-0.10417525 -0.33730906 0.85000002 39 39 19 255
-0.1018596 -0.33731171 0.85000002 37 37 17 255
-0.099426799 -0.33691752 0.84900004 37 37 19 255
-0.096885033 -0.33612654 0.84700006 36 36 18 255
-0.094354115 -0.33533549 0.84500003 38 38 20 255
-0.091943003 -0.3349413 0.84400004 34 34 16 255
-0.089643501 -0.33494389 0.84400004 33 33 15 255
-0.087136999 -0.33415282 0.84200007 39 38 22 255
-0.084641337 -0.33336166 0.84000003 31 28 12 255
-0.081862427 -0.33137992 0.83500004 34 31 15 255
-0.078729466 -0.32781062 0.82600003 34 31 15 255
-0.074256659 -0.31828824 0.80200005 31 31 13 255
-0.06775786 -0.29924074 0.75400001 32 32 14 255
-0.063001983 -0.28693983 0.72300005 110 110 92 255
-0.059681229 -0.28059182 0.70700002 105 100 94 255
-0.056937777 -0.27662498 0.69700003 78 74 63 255
-0.054722589 -0.27503935 0.69300002 56 54 34 255
-0.052757878 -0.27464432 0.69200003 52 49 33 255
-0.050945617 -0.27504298 0.69300002 49 46 30 255
-0.048915502 -0.27425098 0.69100004 49 47 29 255
-0.046896253 -0.27345887 0.68900001 51 49 31 255
-0.044953216 -0.27306363 0.68800002 46 44 24 255
-0.043078214 -0.27306521 0.68800002 45 42 22 255
-0.041203178 -0.27306673 0.68800002 48 45 25 255
-0.039328113 -0.27306819 0.68800002 51 48 27 255
-0.037453026 -0.27306962 0.68800002 49 46 25 255
-0.035526194 -0.27267408 0.68700004 48 45 25 255
-0.033506814 -0.27148461 0.68400002 38 36 16 255
-0.031642549 -0.27148589 0.68400002 44 42 24 255
-0.029778257 -0.27148706 0.68400002 44 42 24 255
-0.027913945 -0.27148813 0.68400002 39 37 17 255
-0.02604961 -0.27148917 0.68400002 38 37 15 255
-0.024185255 -0.27149016 0.68400002 45 43 23 255
-0.022353515 -0.27188799 0.68500006 47 46 24 255
-0.020486396 -0.27188882 0.68500006 43 42 20 255
-0.0185649 -0.27109572 0.68300003 43 42 20 255
-0.016678745 -0.2706995 0.68200004 43 41 21 255
-0.014798032 -0.27030322 0.68100005 43 41 21 255
-0.012884749 -0.26911297 0.67800003 45 41 24 255
-0.011020367 -0.26871654 0.67700005 44 42 24 255
-0.0091614285 -0.26832002 0.67600006 46 44 26 255
-0.0072971061 -0.26752651 0.67400002 48 47 25 255
-0.0054598823 -0.26752675 0.67400002 45 44 22 255
-0.003611906 -0.26673311 0.67200005 44 43 21 255
-0.0017801272 -0.2667332 0.67200005 52 50 30 255
5.1499253e-05 -0.26593935 0.67000002 51 49 31 255
0.0018750248 -0.26554242 0.66900003 50 50 32 255
0.0036930968 -0.26514536 0.66800004 64 64 46 255
0.0054974607 -0.26435137 0.66600001 70 70 52 255
0.0072909156 -0.26355723 0.66400003 67 67 49 255
0.0090734623 -0.26276308 0.66200006 71 69 51 255
0.010861528 -0.26236573 0.66100001 80 80 62 255
0.012605819 -0.26117453 0.65800005 70 70 52 255
0.014355628 -0.26038015 0.65600002 97 97 79 255
0.016094523 -0.25958571 0.65400004 92 93 81 255
0.01784984 -0.25918815 0.65300006 92 95 83 255
0.019569626 -0.25839356 0.65100002 102 103 91 255
0.021245707 -0.257202 0.648 107 108 96 255
0.022940928 -0.25640729 0.64600003 107 106 92 255
0.024586996 -0.25521564 0.64300001 102 101 87 255
0.026175724 -0.25362703 0.63900006 118 118 100 255
0.02774263 -0.25203836 0.63500005 113 113 95 255
0.029287707 -0.25044966 0.63100004 106 108 91 255
0.030810958 -0.24886085 0.62700003 98 100 83 255
0.032416113 -0.24806586 0.625 95 98 84 255
0.033955757 -0.24687393 0.62200004 94 95 81 255
0.035479013 -0.24568191 0.61900002 89 88 72 255
0.036925856 -0.244093 0.61500001 76 75 59 255
0.038413633 -0.24290094 0.61200005 68 65 49 255
0.03988504 -0.24170884 0.60900003 69 67 49 255
0.041544713 -0.24170738 0.60900003 74 72 54 255
0.042920597 -0.24011834 0.60500002 72 70 50 255
0.044495642 -0.23971993 0.60400003 64 62 44 255
0.045912433 -0.23852772 0.60100001 49 47 29 255
0.047471073 -0.23812923 0.60000002 57 55 37 255
0.048860546 -0.23693696 0.597 49 47 29 255
0.050402783 -0.23653843 0.59600002 46 44 26 255
0.052026834 -0.23653674 0.59600002 45 43 23 255
0.053650856 -0.23653503 0.59600002 44 42 22 255
0.055182092 -0.23613641 0.59500003 44 42 22 255
0.056707866 -0.2357378 0.59400004 41 39 19 255
0.058326345 -0.23573601 0.59400004 48 47 25 255
0.059843887 -0.23533739 0.59300005 43 41 21 255
0.061563216 -0.23573239 0.59400004 43 41 21 255
0.063181609 -0.23573056 0.59400004 38 36 16 255
0.064799972 -0.23572871 0.59400004 39 37 17 255
0.066418305 -0.23572686 0.59400004 44 42 22 255
0.067922086 -0.23532818 0.59300005 42 40 20 255
0.069420367 -0.23492946 0.59200001 41 37 20 255
0.070913181 -0.23453075 0.59100002 39 35 18 255
0.072400525 -0.23413205 0.59000003 37 34 18 255
0.074258707 -0.23492388 0.59200001 38 34 17 255
0.075615123 -0.23412837 0.59000003 38 36 18 255
0.0770915 -0.23372972 0.58900005 39 37 19 255
0.078295194 -0.23253745 0.58600003 45 43 25 255
0.080027848 -0.23293246 0.58700001 48 46 26 255
0.081348777 -0.23213708 0.58500004 44 44 24 255
0.083084114 -0.23253213 0.58600003 40 40 20 255
0.084535904 -0.23213364 0.58500004 38 37 15 255
0.085982211 -0.23173513 0.58400005 34 33 11 255
0.087123163 -0.23054306 0.58100003 40 38 18 255
0.088400431 -0.22974786 0.57900006 44 42 22 255
0.089666806 -0.22895271 0.57700002 48 45 25 255
0.090922281 -0.22815761 0.57500005 45 43 23 255
0.092166856 -0.22736259 0.57300001 42 40 20 255
0.093727686 -0.22736119 0.57300001 47 45 25 255
0.094789632 -0.22616948 0.57000005 46 44 24 255
0.095666215 -0.22458106 0.56600004 43 41 21 255
0.097208001 -0.22457987 0.56600004 44 42 22 255
0.098575309 -0.22418194 0.565 41 40 18 255
0.1002916 -0.22457768 0.56600004 42 41 19 255
0.10165349 -0.22417986 0.565 46 45 23 255
0.10319263 -0.22417895 0.565 41 40 18 255
0.10491716 -0.22457494 0.56600004 36 35 13 255
0.10664715 -0.22497097 0.56700003 35 34 12 255
0.10857343 -0.22576383 0.56900001 40 39 17 255
0.11031714 -0.22616006 0.57000005 38 37 15 255
0.11206631 -0.22655639 0.57100004 38 37 15 255
0.11342303 -0.22615926 0.57000005 41 40 18 255
0.11497604 -0.22615902 0.57000005 40 38 18 255
0.11652912 -0.22615889 0.57000005 36 33 13 255
0.11808223 -0.22615887 0.57000005 36 33 13 255
0.11984532 -0.22655573 0.57100004 43 38 18 255
0.12161392 -0.22695275 0.57200003 40 35 15 255
0.12338805 -0.22734988 0.57300001 36 31 11 255
0.1247316 -0.22695364 0.57200003 43 38 18 255
0.12629054 -0.2269543 0.57200003 38 33 13 255
0.12784959 -0.22695509 0.57200003 39 34 14 255
0.12963499 -0.22735284 0.57300001 40 35 15 255
0.13096803 -0.22695719 0.57200003 37 34 14 255
0.13252738 -0.22695845 0.57200003 40 35 15 255
0.13408688 -0.22695991 0.57200003 39 34 14 255
0.13612075 -0.2277551 0.574 38 33 13 255
0.13768597 -0.22775693 0.574 40 37 17 255
0.1394939 -0.22815572 0.57500005 41 38 18 255
0.14057145 -0.2273643 0.57300001 40 38 18 255
0.14163825 -0.22657309 0.57100004 39 37 19 255
0.14319588 -0.2265757 0.57100004 36 34 16 255
0.14500716 -0.22697529 0.57200003 35 33 15 255
0.14682408 -0.22737511 0.57300001 36 34 16 255
0.14864664 -0.22777513 0.574 38 36 18 255
0.15021315 -0.2277786 0.574 36 34 16 255
0.15177989 -0.22778229 0.574 42 40 22 255
0.1528125 -0.22699255 0.57200003 40 38 20 255
0.1543742 -0.2269967 0.57200003 39 37 19 255
0.15593612 -0.2270011 0.57200003 40 38 20 255
0.15722293 -0.22660892 0.57100004 43 41 21 255
0.15850453 -0.22621697 0.57000005 39 37 17 255
0.15978092 -0.22582527 0.56900001 41 39 19 255
0.1616192 -0.22622761 0.57000005 36 34 14 255
0.16346321 -0.22663023 0.57100004 37 35 17 255
0.16531298 -0.22703315 0.57200003 40 36 19 255
0.16746025 -0.22783333 0.574 36 32 15 255
0.16873536 -0.22744304 0.57300001 34 30 13 255
0.17089693 -0.2282439 0.57500005 31 27 10 255
0.17246991 -0.22825119 0.57500005 34 30 13 255
0.17495124 -0.2294497 0.57800001 31 28 12 255
0.17714396 -0.23025165 0.58000004 27 24 10 255
0.17996435 -0.23184802 0.58400005 24 22 11 255
0.18187428 -0.23225376 0.58500004 18 16 5 255
0.18316287 -0.23186587 0.58400005 23 21 10 255
0.1838136 -0.23068419 0.58100003 33 30 16 255
0.18476745 -0.22989985 0.57900006 35 32 16 255
0.18571077 -0.22911581 0.57700002 35 33 15 255
0.18631899 -0.22793499 0.574 36 32 15 255
0.18723856 -0.22715157 0.57200003 32 28 11 255
0.18814766 -0.22636847 0.57000005 34 30 13 255
0.18838055 -0.22479135 0.56600004 31 27 10 255
0.18825644 -0.2228173 0.56100005 33 31 13 255
0.18878201 -0.22163783 0.55800003 33 31 13 255
0.1896327 -0.22085589 0.55600005 35 33 15 255
0.19047292 -0.22007427 0.55400002 36 34 16 255
0.19164924 -0.2196902 0.55300003 34 32 14 255
0.19247134 -0.21890928 0.551 36 34 16 255
0.19328301 -0.21812868 0.54900002 40 38 20 255
0.1933746 -0.21655372 0.54500002 37 35 15 255
0.19451752 -0.21617113 0.54400003 41 38 17 255
0.19529518 -0.21539153 0.54200006 40 37 16 255
0.19678864 -0.21540712 0.54200006 42 41 19 255
0.19755107 -0.21462826 0.54000002 36 35 11 255
0.19830312 -0.21384978 0.53800005 40 39 15 255
0.19904482 -0.21307166 0.53600001 42 41 17 255
0.19977616 -0.21229388 0.53400004 43 41 16 255
0.20125093 -0.21231164 0.53400004 45 45 19 255
0.20196712 -0.21153465 0.53200001 44 43 21 255
0.20420265 -0.21234871 0.53400004 46 43 22 255
0.20490928 -0.21157259 0.53200001 43 40 19 255
0.20599361 -0.21119463 0.53100002 42 39 18 255
0.20668247 -0.21041936 0.52900004 38 35 14 255
0.20736103 -0.20964444 0.52700001 38 35 14 255
0.2084256 -0.20926778 0.52600002 37 34 13 255
0.20988452 -0.20928949 0.52600002 39 36 16 255
0.21134429 -0.20931175 0.52600002 30 26 9 255
0.21240035 -0.20893659 0.52500004 38 34 17 255
0.21304442 -0.20816392 0.523 34 31 11 255
0.21367832 -0.20739168 0.52100003 42 37 17 255
0.21512787 -0.20741606 0.52100003 43 38 18 255
0.21699406 -0.20783918 0.52200001 43 38 18 255
0.2188668 -0.20826299 0.523 36 31 10 255
0.22032487 -0.20828933 0.523 39 34 14 255
0.22178398 -0.20831628 0.523 44 39 19 255
0.22281729 -0.20794551 0.52200001 36 33 13 255
0.2255647 -0.20916896 0.52500004 34 31 11 255
0.22746508 -0.20959643 0.52600002 36 32 15 255
0.22980744 -0.21042323 0.528 37 33 16 255
0.229972 -0.20925805 0.52500004 40 36 19 255
0.23100257 -0.20889047 0.52400005 43 38 18 255
0.23158513 -0.20812479 0.52200001 39 34 14 255
0.23349704 -0.20855586 0.523 42 37 16 255
0.23496659 -0.20858896 0.523 40 35 14 255
0.23643741 -0.2086228 0.523 43 36 13 255
0.23836447 -0.20905636 0.52400005 43 36 13 255
0.23984078 -0.20909177 0.52400005 45 41 17 255
0.24131848 -0.20912796 0.52400005 42 38 14 255
0.24233417 -0.20876573 0.523 40 37 16 255
0.24381186 -0.20880342 0.523 40 35 14 255
0.24529101 -0.20884192 0.523 40 35 14 255
0.24724354 -0.20928064 0.52400005 42 37 16 255
0.24872856 -0.20932084 0.52400005 38 33 12 255
0.25021511 -0.20936191 0.52400005 44 37 16 255
0.25170329 -0.20940381 0.52400005 47 38 17 255
0.25415942 -0.21024598 0.52600002 40 31 10 255
0.25517052 -0.20989002 0.52500004 50 38 19 255
0.25715539 -0.21033452 0.52600002 48 36 17 255
0.25963938 -0.21118003 0.528 47 33 13 255
0.26114744 -0.21122675 0.528 52 39 16 255
0.26265725 -0.21127442 0.528 54 40 17 255
0.26466927 -0.21172327 0.52900004 53 39 16 255
0.26769525 -0.21297389 0.53200001 50 36 13 255
0.27074039 -0.21422611 0.53500003 50 36 13 255
0.27329579 -0.21507935 0.537 49 35 15 255
0.2753529 -0.21553342 0.53800005 49 35 15 255
0.27690321 -0.215588 0.53800005 50 36 16 255
0.27845559 -0.21564366 0.53800005 45 33 14 255
0.28053057 -0.21610129 0.53900003 46 34 15 255
0.28261358 -0.21656021 0.54000002 41 31 14 255
0.28417835 -0.21661934 0.54000002 46 36 19 255
0.28627458 -0.21708083 0.54100001 45 35 18 255
0.28891101 -0.21794508 0.54300004 43 33 14 255
0.29049155 -0.21800797 0.54300004 44 34 15 255
0.2920745 -0.21807203 0.54300004 41 34 14 255
0.29257831 -0.21733382 0.54100001 43 34 13 255
0.29524794 -0.21820375 0.54300004 42 33 12 255
0.29738516 -0.21867341 0.54400003 43 36 15 255
0.29953086 -0.21914458 0.54500002 46 44 26 255
0.30279031 -0.22042176 0.54800004 99 97 79 255
0.31051394 -0.22491987 0.55900002 120 122 105 255
-0.16651088 -0.35395417 0.88600004 169 173 166 255
-0.16243017 -0.35035953 0.87700003 128 130 122 255
-0.15985845 -0.34996098 0.87600005 119 121 111 255
-0.15711248 -0.34916309 0.87400001 127 129 119 255
-0.15490855 -0.34956387 0.87500006 125 128 116 255
-0.15235059 -0.34916571 0.87400001 127 130 118 255
-0.14996968 -0.34916714 0.87400001 131 134 122 255
-0.14741994 -0.34876922 0.87300003 114 117 105 255
-0.14487569 -0.34837139 0.87200004 107 109 92 255
-0.1425003 -0.34837317 0.87200004 64 65 51 255
-0.13980353 -0.34757599 0.87000006 48 52 35 255
-0.13727564 -0.3471784 0.86900002 45 47 29 255
-0.13444272 -0.34598187 0.86600006 41 43 26 255
-0.13193119 -0.34558445 0.86500007 44 43 27 255
-0.12927528 -0.34478751 0.86300004 42 41 27 255
-0.12663028 -0.34399065 0.86100006 42 39 23 255
-0.12399615 -0.34319383 0.85900003 42 40 22 255
-0.12151454 -0.34279656 0.85800004 40 38 20 255
-0.11917727 -0.34279892 0.85800004 46 44 26 255
-0.11670379 -0.34240174 0.85700005 39 36 16 255
-0.11410229 -0.34160504 0.85500002 41 39 19 255
-0.11138094 -0.34040883 0.85200006 40 38 18 255
-0.10905992 -0.34041131 0.85200006 38 36 16 255
-0.1064883 -0.33961463 0.85000002 37 35 17 255
-0.10417268 -0.3396171 0.85000002 35 35 17 255
-0.10185702 -0.33961958 0.85000002 36 36 18 255
-0.099541329 -0.33962205 0.85000002 34 34 16 255
-0.097111233 -0.33922502 0.84900004 38 38 20 255
-0.094574884 -0.33842838 0.84700006 31 33 15 255
-0.092158332 -0.33803126 0.84600002 32 34 16 255
-0.089640975 -0.33723459 0.84400004 35 37 19 255
-0.087134488 -0.33643788 0.84200007 34 34 16 255
-0.084638856 -0.33564115 0.84000003 34 32 14 255
-0.081859984 -0.33364567 0.83500004 34 32 14 255
-0.078345828 -0.32845351 0.82200003 31 29 11 255
-0.07332851 -0.31646836 0.79200006 39 37 19 255
-0.066946991 -0.29769009 0.74500006 34 33 17 255
-0.062564299 -0.28690329 0.71800005 131 129 118 255
-0.059510492 -0.28171051 0.70500004 99 97 86 255
-0.057017606 -0.2789152 0.69800001 73 70 63 255
-0.054878708 -0.27771822 0.69500005 60 56 45 255
-0.05283235 -0.27692077 0.69300002 45 43 25 255
-0.050943892 -0.27692246 0.69300002 46 44 24 255
-0.048913825 -0.27612492 0.69100004 52 49 29 255
-0.047030758 -0.2761265 0.69100004 51 48 27 255
-0.04508232 -0.27572846 0.69000006 52 49 28 255
-0.043201916 -0.27572995 0.69000006 45 42 21 255
-0.041321486 -0.27573141 0.69000006 46 42 25 255
-0.039326701 -0.27493361 0.68800002 48 45 25 255
-0.03745167 -0.27493495 0.68800002 48 45 25 255
-0.035524901 -0.27453664 0.68700004 39 37 19 255
-0.033554573 -0.27373865 0.68500006 44 42 22 255
-0.031641379 -0.2733402 0.68400002 42 41 19 255
-0.029777149 -0.2733413 0.68400002 39 37 17 255
-0.027912902 -0.27334234 0.68400002 41 39 19 255
-0.026048629 -0.27334329 0.68400002 42 41 19 255
-0.024184341 -0.27334425 0.68400002 44 42 22 255
-0.022385299 -0.27414438 0.68600005 46 45 23 255
-0.020485615 -0.27374554 0.68500006 42 39 18 255
-0.018564189 -0.27294701 0.68300003 40 37 16 255
-0.016678104 -0.27254802 0.68200004 40 38 18 255
-0.01481919 -0.27254865 0.68200004 45 43 25 255
-0.012922258 -0.27174988 0.68000001 43 41 23 255
-0.011036218 -0.27095109 0.67800003 48 45 31 255
-0.0091610719 -0.27015221 0.67600006 46 44 26 255
-0.0073076482 -0.26975289 0.67500001 51 50 28 255
-0.0054596695 -0.26935348 0.67400002 45 44 20 255
-0.0036171398 -0.26895401 0.67300004 44 43 21 255
-0.0017800577 -0.26855448 0.67200005 46 45 23 255
5.1497245e-05 -0.26775524 0.67000002 46 46 28 255
0.0018721492 -0.26695594 0.66800004 54 54 36 255
0.0036874248 -0.26655623 0.66700006 56 54 36 255
0.005497246 -0.26615638 0.66600001 64 62 44 255
0.007290632 -0.26535687 0.66400003 70 70 52 255
0.0090594022 -0.26415765 0.66100001 78 78 60 255
0.010828244 -0.26335803 0.65900004 86 88 70 255
0.012567018 -0.26215869 0.65600002 82 84 66 255
0.014333193 -0.26175857 0.65500003 98 100 82 255
0.016044687 -0.26055908 0.65200001 93 94 80 255
0.017821819 -0.26055843 0.65200001 94 95 81 255
0.01953882 -0.2597585 0.65000004 109 110 98 255
0.021212114 -0.25855884 0.64700001 105 106 92 255
0.022869041 -0.25735915 0.64400005 104 103 89 255
0.024547836 -0.25655904 0.64200002 105 104 88 255
0.026133783 -0.25495961 0.63800001 110 108 90 255
0.027741598 -0.25375977 0.63500005 103 101 83 255
0.029333038 -0.25255987 0.63200003 106 104 86 255
0.030957246 -0.25175956 0.63000005 94 92 74 255
0.032518659 -0.25055957 0.62700003 90 88 70 255
0.034063704 -0.24935955 0.62400001 90 89 73 255
0.035477743 -0.24736024 0.61900002 75 77 59 255
0.036924545 -0.24576055 0.61500001 69 71 53 255
0.038412284 -0.24456044 0.61200005 71 73 55 255
0.039949141 -0.24375987 0.61000001 75 75 57 255
0.041611496 -0.2437585 0.61000001 69 69 51 255
0.043131948 -0.24295786 0.60800004 70 68 50 255
0.044567805 -0.24175763 0.60500002 63 61 43 255
0.045987289 -0.24055736 0.60200006 54 52 34 255
0.047469508 -0.23975664 0.60000002 45 43 25 255
0.049022637 -0.2393555 0.59900004 50 48 30 255
0.050570298 -0.23895437 0.59800005 41 40 18 255
0.05228705 -0.23935235 0.59900004 39 38 16 255
0.053919222 -0.23935072 0.59900004 47 46 22 255
0.055365879 -0.23854992 0.597 41 40 16 255
0.056706149 -0.23734953 0.59400004 41 40 18 255
0.058422796 -0.23774742 0.59500003 43 42 20 255
0.059943046 -0.23734617 0.59400004 40 38 18 255
0.061768722 -0.23814358 0.59600002 43 41 21 255
0.063392557 -0.23814188 0.59600002 45 43 23 255
0.065016352 -0.23814014 0.59600002 39 37 19 255
0.06652832 -0.23773882 0.59500003 41 39 21 255
0.068034813 -0.23733753 0.59400004 45 43 25 255
0.069653086 -0.23733579 0.59400004 40 38 20 255
0.071151368 -0.23693454 0.59300005 41 39 21 255
0.072644159 -0.23653322 0.59200001 42 39 23 255
0.074382365 -0.23693107 0.59300005 38 36 18 255
0.07561335 -0.23573072 0.59000003 35 33 15 255
0.077089757 -0.23532952 0.58900005 39 37 19 255
0.078293473 -0.23412922 0.58600003 50 48 28 255
0.079889826 -0.2341276 0.58600003 45 44 22 255
0.081347093 -0.23372644 0.58500004 38 37 15 255
0.083224252 -0.23452391 0.58700001 41 40 18 255
0.084678791 -0.23412284 0.58600003 44 43 21 255
0.086127862 -0.23372181 0.58500004 43 42 20 255
0.087271579 -0.23252173 0.58200002 41 40 18 255
0.088704303 -0.2321208 0.58100003 41 39 19 255
0.090131558 -0.23171988 0.58000004 43 40 19 255
0.091395259 -0.23091948 0.57800001 43 40 19 255
0.092487223 -0.22971968 0.57500005 41 38 17 255
0.093726397 -0.22891943 0.57300001 42 41 19 255
0.095121004 -0.22851878 0.57200003 43 42 20 255
0.096003108 -0.22691965 0.56800002 40 39 17 255
0.09720692 -0.22611964 0.56600004 46 45 23 255
0.098748781 -0.22611871 0.56600004 45 44 20 255
0.10029066 -0.22611783 0.56600004 44 43 19 255
0.10183259 -0.22611706 0.56600004 45 44 22 255
0.10355715 -0.22651583 0.56700003 40 39 17 255
0.10510184 -0.2265152 0.56700003 36 34 14 255
0.10664656 -0.22651468 0.56700003 36 34 14 255
0.10819131 -0.22651422 0.56700003 38 36 16 255
0.10992965 -0.22691336 0.56800002 35 33 13 255
0.11186977 -0.22771215 0.57000005 36 35 13 255
0.11342284 -0.22771202 0.57000005 36 34 14 255
0.11517767 -0.22811148 0.57100004 36 34 14 255
0.11632472 -0.22731258 0.56900001 39 36 16 255
0.1180824 -0.2277123 0.57000005 40 37 17 255
0.11963572 -0.22771266 0.57000005 41 36 16 255
0.12182695 -0.22891162 0.57300001 38 33 13 255
0.12338862 -0.22891225 0.57300001 38 31 11 255
0.12516843 -0.22931252 0.574 37 32 12 255
0.1265122 -0.22891393 0.57300001 37 31 14 255
0.12829764 -0.22931449 0.574 39 35 18 255
0.12986241 -0.22931574 0.574 44 40 23 255
0.13188523 -0.23011616 0.57600003 35 33 15 255
0.13322397 -0.22971819 0.57500005 37 35 15 255
0.13479182 -0.22971997 0.57500005 37 34 14 255
0.13612261 -0.22932233 0.574 37 34 13 255
0.1379279 -0.22972398 0.57500005 34 31 10 255
0.13925353 -0.22932671 0.574 35 33 13 255
0.14057389 -0.22892968 0.57300001 39 37 17 255
0.14164087 -0.22813331 0.57100004 36 34 14 255
0.14344949 -0.22853571 0.57200003 37 35 17 255
0.1450102 -0.22853883 0.57200003 39 37 19 255
0.14708358 -0.22934119 0.574 37 35 15 255
0.14916812 -0.2301439 0.57600003 38 36 18 255
0.15100199 -0.23054725 0.57700002 42 40 22 255
0.15178384 -0.22935256 0.574 43 41 21 255
0.1528167 -0.22855769 0.57200003 41 39 19 255
0.15410875 -0.2281626 0.57100004 41 39 19 255
0.15594083 -0.22856693 0.57200003 42 39 19 255
0.15750323 -0.22857192 0.57200003 40 37 17 255
0.15906592 -0.22857721 0.57200003 42 39 19 255
0.16034806 -0.22818314 0.57100004 40 37 17 255
0.16190852 -0.22818896 0.57100004 37 34 14 255
0.16404185 -0.22899434 0.57300001 39 35 18 255
0.16618639 -0.22980006 0.57500005 41 37 20 255
0.1677587 -0.2298068 0.57500005 40 38 20 255
0.16903682 -0.22941412 0.574 33 31 13 255
0.17090425 -0.22982119 0.57500005 36 34 16 255
0.17277752 -0.23022856 0.57600003 32 28 11 255
0.17526197 -0.23143575 0.57900006 33 29 13 255
0.17745779 -0.23224361 0.58100003 32 29 15 255
0.17997311 -0.2334516 0.58400005 25 23 12 255
0.18219434 -0.23426028 0.58600003 22 20 9 255
0.18379967 -0.23426986 0.58600003 17 15 4 255
0.1847726 -0.2334802 0.58400005 25 23 12 255
0.18541589 -0.23229103 0.58100003 33 30 16 255
0.18636505 -0.23150198 0.57900006 34 31 15 255
0.18697906 -0.23031338 0.57600003 31 28 12 255
0.1875771 -0.22912502 0.57300001 33 31 13 255
0.18782908 -0.22753711 0.56900001 33 31 13 255
0.18872526 -0.22674926 0.56700003 31 29 11 255
0.18860419 -0.2247619 0.56200004 33 31 13 255
0.18913285 -0.22357465 0.55900002 33 31 13 255
0.18930449 -0.22198771 0.55500001 33 31 13 255
0.19014233 -0.221201 0.55300003 33 31 13 255
0.19096972 -0.22041462 0.551 34 32 14 255
0.19178672 -0.21962862 0.54900002 36 34 16 255
0.19294538 -0.219243 0.54800004 38 36 18 255
0.19374423 -0.21845764 0.546 36 34 14 255
0.19453272 -0.21767268 0.54400003 38 35 14 255
0.19531082 -0.21688804 0.54200006 38 35 14 255
0.19607849 -0.21610375 0.54000002 40 39 15 255
0.19720171 -0.21572004 0.53900003 41 39 15 255
0.19795141 -0.21493649 0.537 43 42 18 255
0.19906217 -0.21455358 0.53600001 46 45 21 255
0.19979393 -0.21377081 0.53400004 43 43 17 255
0.20126922 -0.21378911 0.53400004 43 43 17 255
0.20236555 -0.21340749 0.53300005 40 39 15 255
0.20460437 -0.21422762 0.53500003 43 42 20 255
0.20531428 -0.21344659 0.53300005 38 37 15 255
0.20640182 -0.21306638 0.53200001 37 36 14 255
0.20709391 -0.21228616 0.53000003 41 38 17 255
0.20856278 -0.21230747 0.53000003 39 36 15 255
0.20963617 -0.21192871 0.52900004 41 38 18 255
0.21070488 -0.21155041 0.528 34 31 11 255
0.21176893 -0.21117263 0.52700001 34 30 13 255
0.21282834 -0.21079534 0.52600002 39 33 16 255
0.21347572 -0.21001776 0.52400005 38 33 13 255
0.21411285 -0.20924056 0.52200001 38 33 13 255
0.21515281 -0.20886469 0.52100003 40 33 12 255
0.21701968 -0.2092912 0.52200001 41 34 13 255
0.2188931 -0.20971845 0.523 41 34 13 255
0.2203518 -0.20974536 0.523 37 32 11 255
0.22223571 -0.21017407 0.52400005 40 35 15 255
0.22369929 -0.21020234 0.52400005 37 32 12 255
0.22602341 -0.21103369 0.52600002 37 33 16 255
0.22706231 -0.21066216 0.52500004 34 30 13 255
0.2289674 -0.21109383 0.52600002 36 32 15 255
0.22956496 -0.21032219 0.52400005 38 34 17 255
0.23103431 -0.2103539 0.52400005 42 37 17 255
0.23161744 -0.2095833 0.52200001 40 35 15 255
0.23308361 -0.20961627 0.52200001 41 36 15 255
0.23455107 -0.20965004 0.52200001 42 35 14 255
0.23601983 -0.20968452 0.52200001 46 39 16 255
0.23839985 -0.21052329 0.52400005 46 39 16 255
0.23941913 -0.21015759 0.523 43 41 17 255
0.24135542 -0.21059637 0.52400005 44 42 18 255
0.24237183 -0.21023209 0.523 38 35 14 255
0.24431664 -0.2106726 0.52400005 40 35 14 255
0.24579941 -0.21071193 0.52400005 42 37 16 255
0.24775563 -0.21115428 0.52500004 44 37 16 255
0.24924433 -0.21119538 0.52500004 45 38 17 255
0.25073457 -0.21123731 0.52500004 43 36 15 255
0.25222644 -0.21128011 0.52500004 46 37 16 255
0.2542032 -0.21172629 0.52600002 45 36 15 255
0.25618735 -0.21217357 0.52700001 47 36 15 255
0.25817889 -0.21262188 0.528 49 38 17 255
0.26017791 -0.21307133 0.52900004 50 36 16 255
0.26168975 -0.21311902 0.52900004 53 40 17 255
0.26320338 -0.21316764 0.52900004 54 41 18 255
0.26571968 -0.21402332 0.53100002 53 40 17 255
0.26824939 -0.21488041 0.53300005 51 38 15 255
0.27129871 -0.21614209 0.53600001 46 32 12 255
0.27385822 -0.21700208 0.53800005 50 36 16 255
0.27591935 -0.21746004 0.53900003 51 37 17 255
0.27798837 -0.21791923 0.54000002 47 35 16 255
0.27902994 -0.21757242 0.53900003 45 33 14 255
0.28058845 -0.21763022 0.53900003 43 33 14 255
0.28267264 -0.21809301 0.54000002 44 34 17 255
0.28476492 -0.21855715 0.54100001 41 31 14 255
0.28739455 -0.21942675 0.54300004 47 39 22 255
0.28844166 -0.21908532 0.54200006 45 37 20 255
0.29055557 -0.21955349 0.54300004 47 39 22 255
0.29160169 -0.21921419 0.54200006 43 36 16 255
0.29318541 -0.21928041 0.54200006 44 35 14 255
0.29531559 -0.21975258 0.54300004 48 39 18 255
0.29745418 -0.22022623 0.54400003 40 36 12 255
0.30015102 -0.22110637 0.546 44 41 20 255
0.30341506 -0.22239341 0.54900002 75 75 45 255
0.3100332 -0.22611389 0.55800003 104 104 84 255
-0.16575852 -0.3547582 0.88200003 173 177 170 255
-0.1622442 -0.35234538 0.87600005 118 119 113 255
-0.15967511 -0.35194385 0.87500006 114 116 108 255
-0.15693171 -0.35114017 0.87300003 122 124 116 255
-0.15473038 -0.35154328 0.87400001 124 126 116 255
-0.15217501 -0.35114211 0.87300003 129 131 121 255
-0.14962515 -0.35074103 0.87200004 140 142 132 255
-0.14724962 -0.35074234 0.87200004 131 134 122 255
-0.14454184 -0.34993923 0.87000006 122 125 111 255
-0.14200839 -0.34953851 0.86900002 95 98 84 255
-0.1393197 -0.3487356 0.86700004 67 71 54 255
-0.13695787 -0.34873724 0.86700004 47 49 32 255
-0.13444081 -0.34833676 0.86600006 47 49 32 255
-0.13177668 -0.34753406 0.86400002 43 43 25 255
-0.12912345 -0.34673148 0.86200005 43 42 26 255
-0.1264811 -0.34592894 0.86000001 46 44 26 255
-0.12399401 -0.34552869 0.85900003 44 42 24 255
-0.12137073 -0.34472623 0.85700005 42 40 22 255
-0.11889723 -0.34432608 0.85600007 44 42 24 255
-0.11642917 -0.34392592 0.85500002 46 44 24 255
-0.11409999 -0.3439281 0.85500002 48 46 26 255
-0.11150935 -0.34312579 0.85300004 41 39 19 255
-0.10918558 -0.343128 0.85300004 41 39 19 255
-0.10661122 -0.34232572 0.85100001 42 40 22 255
-0.1041703 -0.34192571 0.85000002 38 38 20 255
-0.10161498 -0.34112349 0.84800005 42 42 24 255
-0.099304743 -0.34112579 0.84800005 35 35 17 255
-0.096880093 -0.34072581 0.84700006 35 35 17 255
-0.09446083 -0.34032577 0.84600002 33 35 17 255
-0.091938086 -0.33952349 0.84400004 32 34 16 255
-0.089426197 -0.33872125 0.84200007 35 35 17 255
-0.087028667 -0.33832124 0.84100002 36 36 18 255
-0.084435023 -0.3371166 0.83800006 33 31 13 255
-0.081465565 -0.33430281 0.83100003 34 32 14 255
-0.077771753 -0.32827058 0.81600004 32 30 12 255
-0.072307959 -0.31419238 0.78100002 33 31 13 255
-0.066405863 -0.29729789 0.73900002 27 26 12 255
-0.062301029 -0.28764459 0.71500003 123 123 113 255
-0.059424274 -0.28322104 0.70400006 87 88 76 255
-0.05693417 -0.28040665 0.69700003 74 73 59 255
-0.054876998 -0.27960372 0.69500005 59 56 40 255
-0.052830685 -0.27880076 0.69300002 51 49 31 255
-0.050942264 -0.27880234 0.69300002 46 44 24 255
-0.048983026 -0.27840158 0.69200003 47 44 23 255
-0.047097281 -0.27840313 0.69200003 49 47 23 255
-0.045080829 -0.27759993 0.69000006 49 46 25 255
-0.043200478 -0.27760139 0.69000006 47 44 24 255
-0.041260209 -0.2772004 0.68900001 44 40 23 255
-0.039382521 -0.27720171 0.68900001 48 44 27 255
-0.037450381 -0.27680069 0.68800002 51 47 30 255
-0.035523672 -0.27639961 0.68700004 43 41 23 255
-0.033602387 -0.27599844 0.68600005 40 38 18 255
-0.03168653 -0.27559721 0.68500006 41 40 18 255
-0.0297761 -0.27519593 0.68400002 43 41 21 255
-0.027911907 -0.27519694 0.68400002 40 38 18 255
-0.026047699 -0.27519786 0.68400002 43 42 20 255
-0.024183471 -0.27519876 0.68400002 47 45 25 255
-0.022351859 -0.27560192 0.68500006 44 43 21 255
-0.020425061 -0.27479798 0.68300003 41 39 15 255
-0.018536331 -0.27439633 0.68200004 42 40 16 255
-0.016604133 -0.2731899 0.67900002 40 39 17 255
-0.014753462 -0.2731905 0.67900002 41 39 21 255
-0.012864775 -0.27238628 0.67700005 43 41 23 255
-0.011003257 -0.2719844 0.67600006 43 41 23 255
-0.0091336304 -0.27118006 0.67400002 45 43 25 255
-0.0072965515 -0.27118033 0.67400002 42 41 19 255
-0.0054513677 -0.27077821 0.67300004 46 45 21 255
-0.0036116308 -0.27037606 0.67200005 45 44 22 255
-0.0017773425 -0.26997378 0.671 48 46 26 255
5.1341613e-05 -0.26876679 0.66800004 47 47 29 255
0.001869277 -0.26836443 0.66700006 53 53 33 255
0.0036817596 -0.26796195 0.66600001 61 59 41 255
0.0054887882 -0.26755947 0.66500002 64 62 44 255
0.007279383 -0.26675457 0.66300005 74 76 58 255
0.0090590678 -0.26594955 0.66100001 90 92 74 255
0.010827846 -0.26514453 0.65900004 93 95 77 255
0.012547399 -0.26353469 0.65500003 93 95 77 255
0.014288903 -0.26272959 0.65300006 90 92 74 255
0.016019493 -0.26192433 0.65100002 101 102 88 255
0.017739171 -0.26111904 0.64900005 112 113 99 255
0.019477993 -0.26071605 0.648 106 107 95 255
0.021112995 -0.25910598 0.64400005 100 101 89 255
0.022761691 -0.25789818 0.64100003 94 93 77 255
0.024432253 -0.25709271 0.63900006 99 98 82 255
0.026050933 -0.25588483 0.63600004 89 87 69 255
0.027696928 -0.25507918 0.634 86 84 66 255
0.029285597 -0.25387126 0.63100004 93 91 73 255
0.03075962 -0.25185859 0.62600005 92 90 72 255
0.032258227 -0.25024819 0.62200004 85 83 65 255
0.033789597 -0.24904008 0.61900002 84 83 67 255
0.035361912 -0.2482343 0.61700004 80 80 62 255
0.036803227 -0.24662383 0.61300004 84 86 68 255
0.038348231 -0.24581791 0.611 72 74 56 255
0.039947819 -0.24541436 0.61000001 79 81 63 255
0.041610137 -0.24541306 0.61000001 70 70 52 255
0.043059617 -0.2442048 0.60700005 68 66 48 255
0.044419054 -0.24259417 0.60300004 49 47 29 255
0.045833062 -0.24138583 0.60000002 50 48 30 255
0.047388919 -0.24098213 0.59900004 44 42 24 255
0.048939295 -0.24057835 0.59800005 46 44 24 255
0.050568763 -0.24057688 0.59800005 48 47 25 255
0.052198209 -0.24057542 0.59800005 41 40 18 255
0.053917635 -0.24097615 0.59900004 40 39 15 255
0.055364277 -0.24017002 0.597 39 38 16 255
0.056895457 -0.2397662 0.59600002 39 38 16 255
0.058519352 -0.23976463 0.59600002 42 41 19 255
0.060143225 -0.23976305 0.59600002 41 39 19 255
0.061870698 -0.24016373 0.597 41 39 21 255
0.063390881 -0.23975983 0.59600002 43 41 23 255
0.065014683 -0.23975824 0.59600002 41 39 21 255
0.066414841 -0.23895207 0.59400004 47 45 27 255
0.067918606 -0.23854819 0.59300005 41 39 21 255
0.06953416 -0.23854658 0.59300005 41 39 21 255
0.071029715 -0.23814273 0.59200001 44 42 24 255
0.072765216 -0.23854341 0.59300005 39 37 19 255
0.074380726 -0.23854181 0.59300005 39 37 19 255
0.075739898 -0.23773575 0.59100002 34 32 14 255
0.076957263 -0.23652741 0.588 38 36 18 255
0.0782919 -0.23572141 0.58600003 45 43 23 255
0.079888262 -0.2357199 0.58600003 41 39 19 255
0.081623673 -0.2361207 0.58700001 36 34 14 255
0.083222754 -0.23611929 0.58700001 41 40 18 255
0.084821828 -0.23611788 0.58700001 42 41 19 255
0.085979223 -0.2349098 0.58400005 39 38 16 255
0.087420151 -0.23450623 0.583 46 45 23 255
0.088855639 -0.23410274 0.58200002 43 41 21 255
0.090285681 -0.23369928 0.58100003 46 43 23 255
0.091235928 -0.23208918 0.57700002 45 42 21 255
0.092486061 -0.23128363 0.57500005 40 37 17 255
0.093561746 -0.23007593 0.57200003 42 39 18 255
0.095119976 -0.23007494 0.57200003 42 39 18 255
0.096340194 -0.22926961 0.57000005 40 39 17 255
0.097721256 -0.22886652 0.56900001 43 42 20 255
0.099096894 -0.22846355 0.56800002 45 44 20 255
0.10064431 -0.22846287 0.56800002 43 42 18 255
0.10201184 -0.22806007 0.56700003 42 41 19 255
0.10373922 -0.22846179 0.56800002 40 39 17 255
0.10510135 -0.22805914 0.56700003 41 39 19 255
0.10645808 -0.22765659 0.56600004 36 34 16 255
0.10800022 -0.22765639 0.56600004 36 34 16 255
0.10973595 -0.22805849 0.56700003 39 37 19 255
0.11147716 -0.22846068 0.56800002 38 36 16 255
0.11322388 -0.228863 0.56900001 34 32 12 255
0.11497612 -0.22926547 0.57000005 34 32 12 255
0.11652943 -0.22926578 0.57000005 43 40 20 255
0.11808282 -0.22926627 0.57000005 42 37 17 255
0.11984617 -0.22966909 0.57100004 40 35 15 255
0.12161504 -0.23007204 0.57200003 40 35 15 255
0.12360479 -0.23087735 0.574 42 35 15 255
0.1251694 -0.23087837 0.574 34 29 9 255
0.12695491 -0.2312818 0.57500005 37 33 16 255
0.12852246 -0.23128314 0.57500005 35 33 15 255
0.13031635 -0.23168688 0.57600003 36 34 16 255
0.13188684 -0.23168854 0.57600003 38 36 18 255
0.13345745 -0.23169038 0.57600003 33 31 11 255
0.13479379 -0.23129016 0.57500005 35 33 13 255
0.13636194 -0.23129238 0.57500005 39 36 15 255
0.13793024 -0.23129478 0.57500005 37 36 14 255
0.13925606 -0.23089507 0.574 35 33 13 255
0.1405766 -0.2304956 0.57300001 41 39 19 255
0.14189187 -0.23009633 0.57200003 43 41 21 255
0.14370343 -0.2305018 0.57300001 36 34 16 255
0.14501356 -0.23010293 0.57200003 38 36 16 255
0.14683093 -0.23050882 0.57300001 34 32 12 255
0.14891295 -0.2313173 0.57500005 36 34 14 255
0.15048267 -0.23132142 0.57500005 35 33 13 255
0.15152371 -0.23052113 0.57300001 38 36 16 255
0.15282124 -0.23012343 0.57200003 42 40 20 255
0.15438344 -0.23012827 0.57200003 42 40 20 255
0.1562185 -0.23053569 0.57300001 39 36 16 255
0.15778391 -0.23054105 0.57300001 37 34 14 255
0.15934961 -0.23054668 0.57300001 38 33 13 255
0.16091555 -0.23055258 0.57300001 40 35 15 255
0.16219819 -0.23015642 0.57200003 37 32 12 255
0.163762 -0.23016292 0.57200003 38 35 15 255
0.16561511 -0.23057207 0.57300001 38 34 17 255
0.167474 -0.23098156 0.574 36 34 16 255
0.16904421 -0.23098898 0.574 30 28 10 255
0.17091197 -0.23139915 0.57500005 34 32 14 255
0.17308551 -0.23221211 0.57700002 35 31 14 255
0.1755731 -0.23342793 0.58000004 36 33 17 255
0.17746659 -0.23383923 0.58100003 29 25 14 255
0.18059871 -0.23586088 0.58600003 25 21 10 255
0.18251488 -0.23627302 0.58700001 18 16 5 255
0.18412328 -0.23628302 0.58700001 18 16 5 255
0.1844665 -0.23468323 0.583 24 22 11 255
0.18574567 -0.23429137 0.58200002 29 26 12 255
0.18637604 -0.23309471 0.57900006 28 26 8 255
0.18731502 -0.23230089 0.57700002 35 33 15 255
0.18791614 -0.23110478 0.574 26 24 6 255
0.1885013 -0.22990896 0.57100004 35 33 15 255
0.18840474 -0.2279081 0.56600004 31 29 11 255
0.18828122 -0.22590742 0.56100005 33 31 13 255
0.18846913 -0.22430964 0.55700004 33 31 13 255
0.18897669 -0.22311482 0.55400002 30 28 10 255
0.1898122 -0.22232306 0.55200005 35 33 15 255
0.19133045 -0.22233717 0.55200005 35 33 15 255
0.19180119 -0.22114331 0.54900002 37 35 17 255
0.19296026 -0.22075541 0.54800004 41 39 21 255
0.1930498 -0.21915932 0.54400003 38 36 16 255
0.19454844 -0.21917504 0.54400003 43 40 19 255
0.19496651 -0.21798244 0.54100001 41 38 17 255
0.19645818 -0.21799901 0.54100001 41 39 15 255
0.19721867 -0.21721007 0.53900003 41 39 15 255
0.19833748 -0.21682453 0.53800005 42 40 16 255
0.19945143 -0.21643941 0.537 44 44 18 255
0.20056057 -0.21605472 0.53600001 42 42 16 255
0.20166495 -0.21567051 0.53500003 38 38 12 255
0.20276453 -0.21528672 0.53400004 42 42 16 255
0.20385933 -0.21490337 0.53300005 38 38 12 255
0.20494933 -0.21452044 0.53200001 38 37 15 255
0.20564665 -0.21373478 0.53000003 38 36 16 255
0.20711522 -0.21375608 0.53000003 37 35 15 255
0.20858465 -0.21377796 0.53000003 37 35 15 255
0.20965858 -0.213397 0.52900004 38 35 15 255
0.21032871 -0.21261306 0.52700001 38 33 13 255
0.21139051 -0.21223304 0.52600002 38 31 11 255
0.2124477 -0.21185353 0.52500004 40 33 13 255
0.21390764 -0.21187805 0.52500004 39 32 11 255
0.2145481 -0.21109596 0.523 40 33 12 255
0.21559142 -0.21071796 0.52200001 43 36 15 255
0.21704593 -0.21074419 0.52200001 44 37 16 255
0.21975718 -0.21198238 0.52500004 45 38 17 255
0.22080076 -0.21160623 0.52400005 42 35 15 255
0.22226395 -0.2116345 0.52400005 37 32 12 255
0.2228743 -0.21085554 0.52200001 37 32 12 255
0.2251936 -0.21169302 0.52400005 36 32 15 255
0.22622754 -0.21131924 0.523 35 31 14 255
0.22812781 -0.21175429 0.52400005 35 31 14 255
0.22915848 -0.21138176 0.523 38 32 15 255
0.2306257 -0.21141408 0.523 38 33 13 255
0.23165043 -0.21104285 0.52200001 40 35 15 255
0.23311733 -0.21107654 0.52200001 40 35 14 255
0.23458557 -0.21111102 0.52200001 41 36 15 255
0.23605508 -0.21114622 0.52200001 43 39 15 255
0.23752591 -0.21118219 0.52200001 44 40 16 255
0.23854029 -0.2108143 0.52100003 44 41 20 255
0.2409324 -0.21166115 0.523 46 43 22 255
0.24241026 -0.21169956 0.523 43 38 17 255
0.24482225 -0.21254851 0.52500004 44 37 16 255
0.24583957 -0.21218379 0.52400005 46 39 18 255
0.2477967 -0.21262974 0.52500004 43 36 15 255
0.24976107 -0.21307671 0.52600002 42 35 14 255
0.25125501 -0.21311954 0.52600002 43 36 15 255
0.25275058 -0.21316323 0.52600002 46 37 16 255
0.25376448 -0.2128025 0.52500004 45 36 15 255
0.25623295 -0.21365874 0.52700001 47 36 15 255
0.2582255 -0.21411075 0.528 49 38 17 255
0.26071748 -0.2149695 0.53000003 46 35 14 255
0.26223314 -0.21501817 0.53000003 51 40 19 255
0.26424822 -0.21547355 0.53100002 55 44 23 255
0.26627094 -0.21593013 0.53200001 53 39 19 255
0.26830134 -0.2163879 0.53300005 54 40 20 255
0.27084568 -0.21725294 0.53500003 49 35 15 255
0.27340356 -0.21811943 0.537 45 31 11 255
0.27597496 -0.21898738 0.53900003 47 33 13 255
0.27753031 -0.21904401 0.53900003 47 35 16 255
0.27908772 -0.21910176 0.53900003 44 34 15 255
0.28012663 -0.21875398 0.53800005 47 40 20 255
0.28220919 -0.21922052 0.53900003 44 36 19 255
0.28429976 -0.21968843 0.54000002 46 38 21 255
0.28692791 -0.22056466 0.54200006 43 37 20 255
0.28903776 -0.22103545 0.54300004 45 39 22 255
0.29008543 -0.22069333 0.54200006 44 36 19 255
0.29166788 -0.22075947 0.54200006 44 37 17 255
0.29271173 -0.22041938 0.54100001 44 35 14 255
0.29538438 -0.22130296 0.54300004 47 38 17 255
0.29752433 -0.22178063 0.54400003 45 38 15 255
0.29967287 -0.22225982 0.54500002 47 42 21 255
0.30293569 -0.2235565 0.54800004 56 54 34 255
0.3101092 -0.22771192 0.55800003 124 124 106 255
-0.16575825 -0.3571609 0.88200003 171 175 167 255
-0.16205861 -0.35432649 0.87500006 117 119 111 255
-0.15930957 -0.35351691 0.87300003 102 104 96 255
-0.15675126 -0.3531124 0.87200004 126 128 120 255
-0.15437549 -0.35311303 0.87200004 121 123 115 255
-0.15199976 -0.35311377 0.87200004 137 139 131 255
-0.14945249 -0.35270968 0.87100005 133 134 128 255
-0.14707957 -0.35271063 0.87100005 126 128 120 255
-0.14454056 -0.35230678 0.87000006 124 127 115 255
-0.14184357 -0.35149804 0.86800003 116 121 107 255
-0.13915753 -0.35068944 0.86600006 92 98 80 255
-0.13679834 -0.35069078 0.86600006 69 73 55 255
-0.13428394 -0.35028732 0.86500007 46 50 32 255
-0.13162245 -0.34947893 0.86300004 44 46 28 255
-0.12897187 -0.3486706 0.86100006 50 48 30 255
-0.12647925 -0.34826732 0.86000001 44 42 24 255
-0.12384776 -0.34745914 0.85800004 46 44 24 255
-0.12122717 -0.34665102 0.85600007 48 46 28 255
-0.11875632 -0.34624788 0.85500002 42 40 22 255
-0.1161548 -0.34543988 0.85300004 41 39 19 255
-0.11383103 -0.34544179 0.85300004 43 41 21 255
-0.11137652 -0.34503877 0.85200006 44 42 24 255
-0.10892745 -0.34463581 0.85100001 41 39 21 255
-0.10660908 -0.34463787 0.85100001 42 40 22 255
-0.10416813 -0.34423491 0.85000002 38 38 20 255
-0.10161281 -0.34342703 0.84800005 36 36 18 255
-0.099185444 -0.34302413 0.84700006 33 33 15 255
-0.09687788 -0.34302622 0.84700006 38 38 20 255
-0.094458632 -0.34262332 0.84600002 35 35 17 255
-0.09204483 -0.34222049 0.84500003 36 36 18 255
-0.08953023 -0.34141257 0.84300005 34 34 16 255
-0.087026499 -0.34060469 0.84100002 30 30 12 255
-0.084332108 -0.33898672 0.83700001 34 32 14 255
-0.081267387 -0.33574879 0.82900006 32 30 12 255
-0.077388473 -0.32886568 0.81200004 34 32 14 255
-0.071195044 -0.31145227 0.76900005 33 30 14 255
-0.06568519 -0.29606363 0.73100001 61 62 50 255
-0.062037885 -0.28837007 0.71200001 113 114 102 255
-0.059253775 -0.28432158 0.70200002 92 93 79 255
-0.057014212 -0.2827031 0.69800001 67 67 49 255
-0.0550333 -0.28229967 0.69700003 57 55 37 255
-0.052981578 -0.28149119 0.69500005 49 48 26 255
-0.051014237 -0.28108767 0.69400001 47 44 23 255
-0.049123101 -0.28108913 0.69400001 47 44 23 255
-0.047231942 -0.28109053 0.69400001 52 49 28 255
-0.04521009 -0.2802819 0.69200003 48 44 27 255
-0.043199115 -0.27947316 0.69000006 51 47 30 255
-0.041258898 -0.27906942 0.68900001 46 42 26 255
-0.039324101 -0.27866563 0.68800002 48 44 27 255
-0.03744917 -0.27866682 0.68800002 54 48 31 255
-0.035522509 -0.27826294 0.68700004 47 41 24 255
-0.033650257 -0.27826408 0.68700004 44 41 21 255
-0.031685475 -0.27745503 0.68500006 44 41 20 255
-0.029731574 -0.2766459 0.68300003 44 43 21 255
-0.027870163 -0.27664688 0.68300003 43 42 20 255
-0.026046816 -0.27705279 0.68400002 42 41 19 255
-0.024147291 -0.27664855 0.68300003 45 44 22 255
-0.022318462 -0.2770544 0.68400002 43 42 20 255
-0.020394452 -0.276245 0.68200004 47 45 21 255
-0.01853569 -0.27624565 0.68200004 44 43 19 255
-0.01662801 -0.27543613 0.68000001 45 44 20 255
-0.014752947 -0.27503163 0.67900002 45 43 23 255
-0.012864324 -0.27422196 0.67700005 45 43 23 255
-0.011019148 -0.27422237 0.67700005 44 42 22 255
-0.0091333101 -0.27300757 0.67400002 46 44 24 255
-0.0072962944 -0.27300784 0.67400002 45 43 23 255
-0.0054430752 -0.27219796 0.67200005 46 44 24 255
-0.0036115034 -0.27219811 0.67200005 44 42 24 255
-0.0017746312 -0.27138808 0.67000002 50 48 30 255
5.141666e-05 -0.27098304 0.66900003 49 47 29 255
0.0018692112 -0.27017292 0.66700006 54 52 34 255
0.0036816299 -0.26976776 0.66600001 57 55 37 255
0.005488595 -0.26936254 0.66500002 67 65 47 255
0.0072901053 -0.26895729 0.66400003 70 72 54 255
0.0090724556 -0.26814687 0.66200006 84 86 69 255
0.010827465 -0.26693135 0.65900004 93 97 80 255
0.012566117 -0.26571581 0.65600002 98 100 82 255
0.014310286 -0.26490524 0.65400004 95 97 80 255
0.016018938 -0.26368958 0.65100002 108 110 93 255
0.017738558 -0.26287889 0.64900005 120 121 107 255
0.019447263 -0.26206815 0.64700001 109 110 98 255
0.021112273 -0.26085234 0.64400005 100 101 89 255
0.022760915 -0.25963649 0.64100003 98 97 81 255
0.02439319 -0.25842053 0.63800001 102 102 84 255
0.026050055 -0.25760964 0.63600004 91 89 71 255
0.027696002 -0.25679862 0.634 85 83 63 255
0.029238217 -0.25517756 0.63000005 92 90 72 255
0.030709468 -0.25315139 0.625 88 86 68 255
0.032205313 -0.2515302 0.62100005 83 81 63 255
0.033679333 -0.24990901 0.61700004 84 84 66 255
0.035303466 -0.24950288 0.61600006 79 81 63 255
0.036802053 -0.24828665 0.61300004 84 86 68 255
0.038409792 -0.24788049 0.61200005 76 80 62 255
0.040077548 -0.24787928 0.61200005 80 82 62 255
0.041608851 -0.24706797 0.61000001 71 73 53 255
0.043129243 -0.24625666 0.60800004 72 70 52 255
0.04449138 -0.2446353 0.60400003 54 52 34 255
0.046060864 -0.24422899 0.60300004 55 53 35 255
0.04754575 -0.24341756 0.60100001 47 45 27 255
0.049183387 -0.24341622 0.60100001 42 40 20 255
0.05073645 -0.24300982 0.60000002 42 40 20 255
0.052371319 -0.24300842 0.60000002 43 42 20 255
0.05400617 -0.243007 0.60000002 44 43 21 255
0.055640992 -0.24300557 0.60000002 42 41 19 255
0.057180334 -0.2425991 0.59900004 42 41 19 255
0.058714204 -0.24219264 0.59800005 41 40 18 255
0.060242593 -0.24178614 0.597 44 42 22 255
0.061972797 -0.24218971 0.59800005 40 38 20 255
0.063495696 -0.24178319 0.597 39 37 19 255
0.065013133 -0.24137673 0.59600002 40 38 20 255
0.066636905 -0.24137521 0.59600002 42 40 22 255
0.068146132 -0.24096876 0.59500003 42 40 22 255
0.06964989 -0.24056232 0.59400004 48 46 28 255
0.071148179 -0.24015585 0.59300005 43 41 23 255
0.072640993 -0.2397494 0.59200001 39 37 19 255
0.074253798 -0.23974799 0.59200001 42 40 22 255
0.075738415 -0.2393416 0.59100002 38 36 18 255
0.077217579 -0.23893525 0.59000003 40 38 20 255
0.078691281 -0.23852889 0.58900005 43 41 23 255
0.080023199 -0.23771761 0.58700001 43 41 23 255
0.081622317 -0.23771632 0.58700001 44 42 22 255
0.083221428 -0.23771507 0.58700001 37 36 14 255
0.084965035 -0.23811878 0.588 38 37 15 255
0.086419649 -0.23771265 0.58700001 41 40 18 255
0.087718852 -0.23690158 0.58500004 41 40 18 255
0.089159839 -0.23649554 0.58400005 43 41 21 255
0.090284593 -0.23527963 0.58100003 46 43 23 255
0.091393009 -0.23406379 0.57800001 47 44 24 255
0.092806786 -0.23365793 0.57700002 44 41 21 255
0.094051547 -0.23284717 0.57500005 46 43 22 255
0.09561801 -0.23284638 0.57500005 42 39 18 255
0.096846476 -0.23203579 0.57300001 39 38 16 255
0.098064043 -0.23122524 0.57100004 38 37 15 255
0.099096283 -0.23000984 0.56800002 48 46 22 255
0.10046659 -0.22960444 0.56700003 42 40 16 255
0.10219131 -0.23000899 0.56800002 45 42 21 255
0.10373887 -0.23000871 0.56800002 40 37 17 255
0.10528646 -0.23000848 0.56800002 41 37 20 255
0.10645792 -0.22919849 0.56600004 38 36 18 255
0.10800016 -0.22919849 0.56600004 35 33 15 255
0.10934891 -0.22879365 0.565 41 39 21 255
0.1110848 -0.22919883 0.56600004 44 41 21 255
0.11302517 -0.23000903 0.56800002 38 36 18 255
0.11497652 -0.23081939 0.57000005 37 35 17 255
0.11673439 -0.23122491 0.57100004 41 36 16 255
0.11849779 -0.23163055 0.57200003 40 35 15 255
0.12026672 -0.23203635 0.57300001 36 31 11 255
0.12225382 -0.23284729 0.57500005 37 32 12 255
0.12382121 -0.23284841 0.57500005 44 37 17 255
0.12538871 -0.2328497 0.57500005 34 29 9 255
0.1271771 -0.23325612 0.57600003 37 33 16 255
0.12874752 -0.23325771 0.57600003 36 34 16 255
0.13077056 -0.23406942 0.57800001 35 33 15 255
0.13211772 -0.23366642 0.57700002 39 37 19 255
0.13345954 -0.23326358 0.57600003 36 34 16 255
0.13479604 -0.23286094 0.57500005 38 36 16 255
0.13612722 -0.23245844 0.574 40 38 18 255
0.13793288 -0.23286612 0.57500005 39 37 17 255
0.13925892 -0.23246402 0.574 34 34 16 255
0.14057964 -0.23206209 0.57300001 41 39 21 255
0.14214316 -0.23206538 0.57300001 36 34 16 255
0.14370687 -0.23206888 0.57300001 39 37 19 255
0.14501724 -0.23166764 0.57200003 39 37 19 255
0.14709111 -0.23248161 0.574 39 36 16 255
0.14891714 -0.23289086 0.57500005 36 33 13 255
0.15074879 -0.23330034 0.57600003 39 36 16 255
0.15179278 -0.23249492 0.574 41 38 18 255
0.15309329 -0.23209482 0.57300001 42 39 19 255
0.15465847 -0.23210001 0.57300001 39 36 16 255
0.15649655 -0.23251052 0.574 42 39 19 255
0.15806495 -0.23251624 0.574 37 33 16 255
0.15991177 -0.23292737 0.57500005 38 33 13 255
0.16176432 -0.23333877 0.57600003 40 35 15 255
0.16305545 -0.23294026 0.57500005 40 37 17 255
0.16491404 -0.23335229 0.57600003 41 38 18 255
0.16648936 -0.23335947 0.57600003 37 35 15 255
0.16835681 -0.23377216 0.57700002 34 32 12 255
0.16993552 -0.23378 0.57700002 36 34 14 255
0.17181182 -0.23419333 0.57800001 34 32 14 255
0.17369398 -0.23460707 0.57900006 34 30 13 255
0.17588468 -0.23542634 0.58100003 31 27 10 255
0.17839223 -0.23665129 0.58400005 27 24 10 255
0.18091655 -0.23787665 0.58700001 25 21 10 255
