ply
format ascii 1.0
comment PCL generated
element vertex 973
property float x
property float y
property float z
property uchar red
property uchar green
property uchar blue
property uchar alpha
element camera 0
property float view_px
property float view_py
property float view_pz
property float x_axisx
property float x_axisy
property float x_axisz
property float y_axisx
property float y_axisy
property float y_axisz
property float z_axisx
property float z_axisy
property float z_axisz
property float focal
property float scalex
property float scaley
property float centerx
property float centery
property int viewportx
property int viewporty
property float k1
property float k2
end_header
0.018665157 0.2364845 0.75700003 26 28 18 255
0.020732453 0.23648296 0.75700003 27 27 17 255
0.022829821 0.23679364 0.75800002 28 28 18 255
0.024998305 0.23772898 0.76100004 34 35 23 255
0.027254283 0.23928888 0.76600003 33 31 20 255
0.029307647 0.23897429 0.76500005 35 33 22 255
0.031437576 0.23928431 0.76600003 34 32 21 255
0.03374799 0.24084371 0.77100003 39 37 27 255
0.03603914 0.24209055 0.77500004 35 35 27 255
0.038302824 0.24302481 0.77800006 32 31 25 255
-0.14013895 0.24838708 0.80300003 162 169 166 255
-0.13709363 0.24684815 0.79800004 153 160 156 255
-0.1327228 0.24283431 0.78500003 139 145 138 255
-0.12858896 0.2391296 0.77300006 62 68 61 255
-0.12582935 0.23789951 0.76900005 59 63 56 255
-0.12325228 0.23697866 0.76600003 57 61 54 255
-0.12053323 0.23574838 0.76200002 67 68 62 255
-0.11736947 0.23358978 0.75500005 71 70 64 255
-0.11500733 0.232978 0.75300002 75 72 66 255
-0.11265595 0.23236613 0.75100005 65 62 58 255
-0.11060989 0.23237304 0.75100005 61 58 54 255
-0.10827456 0.23176099 0.74900001 69 68 64 255
-0.10609182 0.23145834 0.74800003 73 72 68 255
-0.10349704 0.23022722 0.74400002 86 85 79 255
-0.10106032 0.22930543 0.74100006 56 55 49 255
-0.098907106 0.22900245 0.74000001 46 45 39 255
-0.097152002 0.22962779 0.74200004 39 38 32 255
-0.095257647 0.22994359 0.74300003 39 38 32 255
-0.093357682 0.23025934 0.74400002 37 36 30 255
-0.091083869 0.22964655 0.74200004 45 42 36 255
-0.088820815 0.2290336 0.74000001 43 40 34 255
-0.086685829 0.22873005 0.73900002 41 38 32 255
-0.08467073 0.22873592 0.73900002 36 33 29 255
-0.082991041 0.22967032 0.74200004 38 35 31 255
-0.080967493 0.22967602 0.74200004 39 33 31 255
-0.079050191 0.22999115 0.74300003 35 31 29 255
-0.076816306 0.22937755 0.74100006 35 28 29 255
-0.074795075 0.22938295 0.74100006 36 29 30 255
-0.072773717 0.22938819 0.74100006 36 30 28 255
-0.070752226 0.22939335 0.74100006 40 34 31 255
-0.068637855 0.22908878 0.74000001 33 28 22 255
-0.066708878 0.2294033 0.74100006 36 30 24 255
-0.064599723 0.22909848 0.74000001 37 32 22 255
-0.06249591 0.22879356 0.73900002 35 30 20 255
-0.060479268 0.22879808 0.73900002 36 32 22 255
-0.058462527 0.2288025 0.73900002 33 29 19 255
-0.05636929 0.22849716 0.73800004 33 29 19 255
-0.054207757 0.22788207 0.73600006 39 34 27 255
-0.052269794 0.22819568 0.73700005 37 32 25 255
-0.050326284 0.2285092 0.73800004 37 32 25 255
-0.048311744 0.22851294 0.73800004 33 28 22 255
-0.046297122 0.22851652 0.73800004 36 31 25 255
-0.044222396 0.22821033 0.73700005 36 31 25 255
-0.042267594 0.2285233 0.73800004 40 34 28 255
-0.040307246 0.22883612 0.73900002 37 31 25 255
-0.038237732 0.2285295 0.73800004 36 30 23 255
-0.036173601 0.2282227 0.73700005 38 32 25 255
-0.03411486 0.22791576 0.73600006 38 32 25 255
-0.032192376 0.22853766 0.73800004 38 32 25 255
-0.030218009 0.22884977 0.73900002 39 34 24 255
-0.028314443 0.22978108 0.74200004 41 35 28 255
-0.026252719 0.22947355 0.74100006 36 30 23 255
-0.024261795 0.22978522 0.74200004 34 28 21 255
-0.022235392 0.22978702 0.74200004 37 32 21 255
-0.020236179 0.2300984 0.74300003 37 32 21 255
-0.01820696 0.2300999 0.74300003 41 33 24 255
-0.016177701 0.23010127 0.74300003 37 32 22 255
-0.014205538 0.23103155 0.74600005 40 35 25 255
-0.012200643 0.23165198 0.74800003 36 30 23 255
-0.010184799 0.23227225 0.75000006 34 28 21 255
-0.0081146145 0.23165359 0.74800003 34 30 19 255
-0.0060715731 0.23165415 0.74800003 34 30 19 255
-0.0040339045 0.23196425 0.74900001 33 29 18 255
-0.0019934189 0.23258388 0.75100005 35 31 20 255
5.807303e-05 0.23351304 0.75400001 32 28 18 255
0.0021231449 0.23413236 0.75600004 32 28 18 255
0.0041825185 0.23382242 0.75500005 30 28 18 255
0.0062446916 0.23382202 0.75500005 34 32 22 255
0.0083288569 0.23444082 0.75700003 30 28 18 255
0.010451397 0.23567888 0.76100004 31 31 21 255
0.012496976 0.23505858 0.75900006 28 28 18 255
0.01449321 0.23381871 0.75500005 30 30 20 255
0.01659913 0.23443687 0.75700003 31 31 21 255
0.018765258 0.23567426 0.76100004 32 32 22 255
0.020816246 0.23536301 0.76000005 28 29 17 255
0.022891849 0.23536129 0.76000005 27 28 16 255
0.025033109 0.23597877 0.76200002 27 28 16 255
0.027327573 0.2378348 0.76800001 30 28 17 255
0.029386556 0.23752292 0.76700002 31 29 18 255
0.031357929 0.23659152 0.76400006 33 31 20 255
0.033531729 0.23720832 0.76600003 36 34 24 255
0.035623375 0.23720565 0.76600003 36 33 26 255
0.037961122 0.23875113 0.77100003 41 40 34 255
0.040430039 0.24091575 0.77800006 42 43 37 255
-0.13875051 0.24375722 0.79500002 151 158 154 255
-0.13589871 0.24253848 0.79100001 125 130 126 255
-0.13289943 0.24101301 0.78600001 139 145 138 255
-0.12892911 0.23764756 0.77500004 104 110 103 255
-0.12616397 0.23642842 0.77100003 114 118 111 255
-0.12325956 0.23490253 0.76600003 68 72 65 255
-0.12085681 0.2342965 0.76400006 58 59 53 255
-0.11784295 0.23246367 0.75800002 69 70 64 255
-0.11547258 0.23185745 0.75600004 79 78 72 255
-0.11281292 0.23063773 0.75200003 77 73 71 255
-0.1106168 0.23033799 0.75100005 61 60 56 255
-0.10828137 0.22973144 0.74900001 61 58 52 255
-0.10624041 0.2297383 0.74900001 70 67 63 255
-0.10378194 0.22882487 0.74600005 61 60 54 255
-0.10133965 0.22791129 0.74300003 57 56 50 255
-0.099448241 0.22822462 0.74400002 47 44 40 255
-0.097682185 0.22884467 0.74600005 44 43 39 255
-0.095905058 0.22946461 0.74800003 40 39 35 255
-0.093991391 0.22977777 0.74900001 43 40 36 255
-0.091458328 0.22855695 0.74500006 48 45 41 255
-0.089307018 0.2282563 0.74400002 44 41 37 255
-0.087043718 0.22764878 0.74200004 40 37 33 255
-0.085020341 0.22765473 0.74200004 41 38 34 255
-0.083108671 0.22796738 0.74300003 38 35 31 255
-0.081191413 0.22827999 0.74400002 38 32 29 255
-0.079162166 0.22828567 0.74400002 39 33 30 255
-0.077029109 0.22798438 0.74300003 37 31 28 255
-0.075002313 0.22798984 0.74300003 37 31 28 255
-0.072975382 0.22799516 0.74300003 34 29 23 255
-0.070852838 0.22769354 0.74200004 37 32 26 255
-0.068735622 0.22739176 0.74100006 38 33 27 255
-0.066623725 0.22708981 0.74000001 36 31 24 255
-0.064517163 0.22678778 0.73900002 35 30 20 255
-0.06241595 0.22648558 0.73800004 39 34 23 255
-0.060483765 0.22679706 0.73900002 36 32 18 255
-0.058387779 0.22649463 0.73800004 38 33 22 255
-0.056297131 0.22619203 0.73700005 40 35 24 255
-0.054138176 0.22558235 0.73500001 40 33 22 255
-0.052202821 0.2258933 0.73600006 40 33 20 255
-0.050193712 0.22589721 0.73600006 43 36 25 255
-0.048249964 0.22620791 0.73700005 42 35 24 255
-0.046175189 0.22590458 0.73600006 44 36 27 255
-0.044225793 0.226215 0.73700005 44 36 27 255
-0.04227085 0.22652529 0.73800004 44 34 25 255
-0.040364906 0.22714236 0.74000001 45 35 26 255
-0.038292512 0.22683848 0.73900002 44 35 24 255
-0.036274586 0.22684139 0.73900002 50 37 24 255
-0.034210231 0.22653721 0.73800004 45 33 23 255
-0.032282144 0.22715372 0.74000001 42 32 23 255
-0.030261273 0.22715618 0.74000001 43 33 26 255
-0.028278505 0.22746547 0.74100006 40 30 23 255
-0.026183922 0.22685365 0.73900002 47 37 28 255
-0.024198305 0.22716263 0.74000001 46 37 24 255
-0.02220718 0.22747146 0.74100006 46 35 20 255
-0.020210542 0.22778009 0.74200004 49 38 23 255
-0.018159388 0.22747466 0.74100006 45 34 21 255
-0.01615721 0.22778301 0.74200004 43 34 23 255
-0.014168576 0.22839817 0.74400002 43 35 26 255
-0.012168989 0.2290132 0.74600005 42 34 25 255
-0.010144866 0.22932108 0.74700004 45 37 28 255
-0.0081152609 0.22962879 0.74800003 42 34 25 255
-0.0060801744 0.22993636 0.74900001 37 29 20 255
-0.0040449984 0.23055075 0.75100005 37 32 21 255
-0.0019988869 0.23116496 0.75300002 41 36 25 255
5.8077661e-05 0.23147203 0.75400001 37 32 21 255
0.0021261226 0.23239292 0.75700003 37 33 23 255
0.0041883918 0.23208569 0.75600004 30 26 16 255
0.0062617329 0.23239227 0.75700003 29 24 17 255
0.00832952 0.23239169 0.75700003 35 30 23 255
0.010452228 0.23361889 0.76100004 35 32 25 255
0.012530901 0.23361798 0.76100004 31 29 19 255
0.014571152 0.23300292 0.75900006 28 26 16 255
0.016644306 0.23300168 0.75900006 24 22 12 255
0.018791405 0.23392121 0.76200002 27 25 15 255
0.020845285 0.23361266 0.76100004 32 30 20 255
0.022953903 0.23391789 0.76200002 30 30 20 255
0.025035083 0.23391601 0.76200002 26 26 16 255
0.027258551 0.23514181 0.76600003 29 27 16 255
0.029235598 0.23421869 0.76300001 38 36 25 255
0.031319339 0.23421629 0.76300001 34 32 22 255
0.033403013 0.23421375 0.76300001 31 31 21 255
0.03553313 0.23451802 0.76400006 29 29 19 255
0.037914835 0.23635691 0.77000004 33 33 25 255
-0.13823473 0.24069022 0.79200006 141 146 143 255
-0.13453194 0.23796281 0.78300005 118 121 117 255
-0.13172348 0.23675485 0.77900004 104 108 101 255
-0.12827116 0.23433104 0.77100003 82 86 79 255
-0.1263351 0.23464251 0.77200001 64 68 61 255
-0.12358879 0.2334342 0.76800001 40 44 37 255
-0.12133873 0.23313768 0.76700002 60 61 55 255
-0.11893849 0.23253712 0.76500005 51 52 46 255
-0.11639624 0.23163249 0.76200002 87 86 82 255
-0.11327005 0.22951177 0.75500005 123 120 116 255
-0.11047646 0.22799887 0.75000006 78 75 71 255
-0.10814371 0.22739781 0.74800003 59 56 50 255
-0.1061054 0.22740476 0.74800003 48 45 39 255
-0.10420605 0.2277156 0.74900001 49 48 42 255
-0.1018919 0.22711429 0.74700004 53 52 46 255
-0.099855863 0.227121 0.74700004 42 39 35 255
-0.097950593 0.22743161 0.74800003 39 37 35 255
-0.096039742 0.22774222 0.74900001 45 41 39 255
-0.094248764 0.22835681 0.75100005 41 38 34 255
-0.091955647 0.22775501 0.74900001 44 41 37 255
-0.089673311 0.22715314 0.74700004 39 36 32 255
-0.087636344 0.22715929 0.74700004 40 37 31 255
-0.085484646 0.22686124 0.74600005 41 38 32 255
-0.083561979 0.22717132 0.74700004 42 37 31 255
-0.081415452 0.22687306 0.74600005 41 36 30 255
-0.079380631 0.22687881 0.74600005 40 35 29 255
-0.077138312 0.22627613 0.74400002 38 33 27 255
-0.075007729 0.22597751 0.74300003 38 33 27 255
-0.072980687 0.22598289 0.74300003 37 32 26 255
-0.070953511 0.22598816 0.74300003 40 35 29 255
-0.068555124 0.22477664 0.73900002 42 36 29 255
-0.06653861 0.22478165 0.73900002 40 35 25 255
-0.064434648 0.22448234 0.73800004 41 34 23 255
-0.062420614 0.2244871 0.73800004 41 34 23 255
-0.060406446 0.22449169 0.73800004 42 35 22 255
-0.058392175 0.22449617 0.73800004 41 34 23 255
-0.056377783 0.22450054 0.73800004 42 35 24 255
-0.05421596 0.22389632 0.73600006 47 38 27 255
-0.052206807 0.22390041 0.73600006 43 34 21 255
-0.050197557 0.22390433 0.73600006 49 38 25 255
-0.048253667 0.22421235 0.73700005 51 39 29 255
-0.046178754 0.22391179 0.73600006 52 40 31 255
-0.044169206 0.22391528 0.73600006 54 42 33 255
-0.042216852 0.22422288 0.73700005 54 40 31 255
-0.040258948 0.22453034 0.73800004 53 39 30 255
-0.038295507 0.22483765 0.73900002 52 38 28 255
-0.036277428 0.22484058 0.73900002 53 38 25 255
-0.034305636 0.22514763 0.74000001 50 36 26 255
-0.032328315 0.22545452 0.74100006 48 36 29 255
-0.030263662 0.22515272 0.74000001 52 40 33 255
-0.028280741 0.22545932 0.74100006 49 37 30 255
-0.026185997 0.22485296 0.73900002 53 41 32 255
-0.024167527 0.22485496 0.73900002 54 41 26 255
-0.022178972 0.22516106 0.74000001 56 43 28 255
-0.020212155 0.22577134 0.74200004 54 42 25 255
-0.018185345 0.22577286 0.74200004 53 40 25 255
-0.016158501 0.22577426 0.74200004 50 39 26 255
-0.014150664 0.22607973 0.74300003 54 42 32 255
-0.012137337 0.22638507 0.74400002 52 42 33 255
-0.010132098 0.22699453 0.74600005 49 39 32 255
-0.0081267618 0.22790812 0.74900001 50 40 31 255
-0.0060968995 0.22851728 0.75100005 48 38 29 255
-0.0040507098 0.22882196 0.75200003 49 39 30 255
-0.0019990476 0.2291265 0.75300002 46 39 28 255
5.8082329e-05 0.22943084 0.75400001 44 37 26 255
0.0021234849 0.23003936 0.75600004 40 35 25 255
0.0041942685 0.23034334 0.75700003 36 30 23 255
0.0062705078 0.23064722 0.75800002 37 32 25 255
0.0083301887 0.23034234 0.75700003 33 28 22 255
0.010411859 0.23064588 0.75800002 33 28 21 255
0.012531905 0.2315578 0.76100004 33 28 21 255
0.014668315 0.23246956 0.76400006 31 26 19 255
0.016821083 0.23338111 0.76700002 25 22 15 255
0.018891554 0.2330754 0.76600003 28 25 18 255
0.02092913 0.23246525 0.76400006 27 24 17 255
0.022985859 0.23215924 0.76300001 29 26 19 255
0.025037073 0.23185304 0.76200002 27 25 15 255
0.027153948 0.23215522 0.76300001 30 28 18 255
0.029276233 0.23245727 0.76400006 29 27 17 255
0.031362865 0.23245485 0.76400006 28 28 18 255
0.03344943 0.2324523 0.76400006 29 29 19 255
0.035721976 0.23366657 0.76800001 32 32 24 255
0.038114782 0.23548917 0.77400005 32 32 24 255
-0.14093074 0.23943853 0.79500002 155 159 161 255
-0.13702075 0.23643462 0.78500003 145 147 147 255
-0.13316512 0.2334305 0.77500004 108 109 105 255
-0.13020927 0.23193216 0.77000004 71 74 70 255
-0.12761325 0.23103616 0.76700002 73 77 70 255
-0.12585171 0.23164621 0.76900005 81 87 80 255
-0.12407909 0.23225625 0.77100003 75 81 74 255
-0.12150437 0.23136003 0.76800001 53 58 54 255
-0.11925683 0.23106624 0.76700002 51 54 50 255
-0.11655628 0.22986856 0.76300001 50 51 47 255
-0.1140274 0.22897206 0.76000005 46 45 39 255
-0.11077815 0.22656895 0.75200003 50 49 43 255
-0.10858443 0.22627474 0.75100005 50 47 41 255
-0.10639603 0.22598045 0.75000006 46 43 37 255
-0.10449117 0.22628868 0.75100005 49 46 42 255
-0.10217147 0.2256929 0.74900001 45 41 39 255
-0.10012989 0.22569966 0.74900001 42 38 36 255
-0.09808816 0.22570635 0.74900001 45 41 39 255
-0.096302733 0.22631565 0.75100005 43 39 37 255
-0.094631739 0.22722626 0.75400001 41 35 32 255
-0.092453115 0.22693135 0.75300002 46 40 38 255
-0.090279803 0.22663634 0.75200003 41 36 30 255
-0.087994464 0.22603986 0.75000006 43 38 32 255
-0.085949071 0.22604598 0.75000006 41 36 30 255
-0.083791651 0.22575061 0.74900001 41 36 30 255
-0.081530415 0.22515371 0.74700004 44 38 31 255
-0.079386346 0.22485812 0.74600005 46 38 29 255
-0.077040218 0.22395951 0.74300003 44 36 27 255
-0.075013183 0.22396503 0.74300003 43 35 26 255
-0.072887801 0.22366905 0.74200004 44 36 27 255
-0.070863239 0.22367437 0.74200004 41 33 24 255
-0.06865298 0.22307661 0.74000001 49 39 30 255
-0.066543564 0.2227802 0.73900002 51 39 30 255
-0.064439476 0.22248366 0.73800004 49 37 28 255
-0.062256135 0.22188547 0.73600006 50 38 29 255
-0.060165443 0.22158863 0.73500001 52 40 30 255
-0.058317486 0.22219613 0.73700005 54 42 33 255
-0.056382082 0.22250199 0.73800004 54 42 32 255
-0.054293782 0.22220476 0.73700005 49 37 28 255
-0.052139886 0.22160585 0.73500001 55 39 29 255
-0.050133228 0.22160982 0.73500001 58 43 30 255
-0.048191935 0.22191516 0.73600006 61 46 33 255
-0.046182346 0.22191882 0.73600006 56 41 28 255
-0.044232674 0.22222389 0.73700005 66 51 38 255
-0.04222016 0.22222729 0.73700005 66 50 34 255
-0.040207561 0.22223052 0.73700005 65 49 33 255
-0.038194876 0.22223362 0.73700005 58 42 26 255
-0.036182113 0.22223657 0.73700005 60 44 28 255
-0.034215633 0.2225409 0.73800004 59 43 28 255
-0.032199986 0.22254354 0.73800004 57 41 31 255
-0.030184275 0.22254604 0.73800004 58 42 32 255
-0.028206661 0.22284991 0.73900002 63 47 37 255
-0.026152652 0.22255056 0.73800004 62 47 34 255
-0.024136754 0.22255255 0.73800004 61 45 29 255
-0.022150781 0.22285599 0.73900002 61 45 29 255
-0.020186538 0.22346085 0.74100006 61 45 29 255
-0.018186811 0.22376393 0.74200004 61 45 29 255
-0.016181581 0.2240669 0.74300003 63 48 33 255
-0.014151808 0.22406814 0.74300003 62 47 34 255
-0.012138316 0.22437076 0.74400002 61 45 35 255
-0.010119335 0.22467327 0.74500006 54 38 29 255
-0.0081165675 0.2255787 0.74800003 58 42 32 255
-0.0060973926 0.226484 0.75100005 57 41 31 255
-0.0040510371 0.22678599 0.75200003 58 42 32 255
-0.0019992092 0.2270878 0.75300002 55 42 29 255
5.8087026e-05 0.22738947 0.75400001 56 43 30 255
0.0021236564 0.22799253 0.75600004 47 35 26 255
0.0041890675 0.2279923 0.75600004 46 36 27 255
0.0062710154 0.228595 0.75800002 43 35 28 255
0.008330862 0.22829285 0.75700003 37 31 25 255
0.010426437 0.22889525 0.75900006 33 28 22 255
0.012499981 0.22889434 0.75900006 37 32 25 255
0.014611896 0.22949634 0.76100004 35 30 23 255
0.016778573 0.23070139 0.76500005 32 27 21 255
0.018917739 0.23130308 0.76700002 28 23 16 255
0.020985603 0.23099989 0.76600003 27 22 15 255
0.023108212 0.23129967 0.76700002 26 23 16 255
0.025137655 0.23069461 0.76500005 24 21 14 255
0.027227303 0.23069251 0.76500005 29 29 19 255
0.029240241 0.23008712 0.76300001 30 30 20 255
0.031365361 0.23038627 0.76400006 26 26 16 255
0.033539657 0.23098679 0.76600003 27 27 17 255
0.035771322 0.23188867 0.76900005 30 31 19 255
0.038216285 0.23399651 0.77600002 31 32 20 255
-0.14058423 0.23668604 0.79300004 154 158 160 255
-0.13633046 0.23311234 0.78100002 74 76 76 255
-0.13265739 0.23043387 0.77200001 84 85 81 255
-0.12920231 0.22805367 0.76400006 75 76 72 255
-0.12678894 0.22746435 0.76200002 60 61 55 255
-0.12520467 0.22836752 0.76500005 61 64 60 255
-0.12392575 0.22986777 0.77000004 51 54 50 255
-0.12151191 0.22927831 0.76800001 47 50 46 255
-0.1192643 0.22898734 0.76700002 46 49 45 255
-0.1168692 0.2283977 0.76500005 63 64 58 255
-0.11493496 0.22870368 0.76600003 64 65 59 255
-0.11166922 0.2263224 0.75800002 58 57 51 255
-0.1093145 0.22573243 0.75600004 46 45 39 255
-0.10668676 0.22454518 0.75200003 46 45 39 255
-0.10491554 0.22514941 0.75400001 44 41 37 255
-0.10258757 0.22455913 0.75200003 40 37 33 255
-0.10067143 0.2248646 0.75300002 36 32 30 255
-0.098618709 0.22487138 0.75300002 46 40 37 255
-0.096694067 0.22517672 0.75400001 47 41 38 255
-0.094763801 0.225482 0.75500005 49 44 38 255
-0.092582345 0.22518988 0.75400001 49 43 40 255
-0.090406209 0.22489765 0.75300002 48 43 37 255
-0.088235348 0.22460529 0.75200003 47 41 35 255
-0.086184405 0.22461152 0.75200003 46 40 34 255
-0.084021427 0.22431892 0.75100005 49 43 37 255
-0.081645437 0.22342879 0.74800003 53 45 36 255
-0.079285681 0.22253856 0.74500006 56 47 36 255
-0.076942146 0.22164811 0.74200004 50 41 30 255
-0.074816763 0.22135498 0.74100006 51 42 31 255
-0.072794951 0.22136046 0.74100006 52 40 30 255
-0.0708685 0.22166452 0.74200004 54 42 33 255
-0.068658113 0.22107226 0.74000001 55 41 32 255
-0.066548564 0.22077858 0.73900002 55 41 32 255
-0.06435702 0.22018604 0.73700005 55 41 32 255
-0.062260859 0.21989207 0.73600006 56 40 31 255
-0.060251899 0.21989676 0.73600006 56 42 33 255
-0.058321945 0.22020006 0.73700005 58 44 35 255
-0.05631002 0.22020449 0.73700005 57 43 34 255
-0.054224301 0.21991 0.73600006 55 41 32 255
-0.052143928 0.21961533 0.73500001 62 46 36 255
-0.050137125 0.21961929 0.73500001 65 49 39 255
-0.048130218 0.21962315 0.73500001 61 46 33 255
-0.04612321 0.21962683 0.73500001 64 47 35 255
-0.044176131 0.21992923 0.73600006 68 52 37 255
-0.042223491 0.22023147 0.73700005 68 50 34 255
-0.040210739 0.22023472 0.73700005 70 52 36 255
-0.038146079 0.21993904 0.73600006 68 50 34 255
-0.036086794 0.21964315 0.73500001 69 51 35 255
-0.03412563 0.2199448 0.73600006 69 52 40 255
-0.032115296 0.21994746 0.73600006 68 51 39 255
-0.030145792 0.2202488 0.73700005 65 48 36 255
-0.02820893 0.22084883 0.73900002 66 49 37 255
-0.026190197 0.22085103 0.73900002 63 47 32 255
-0.024171412 0.22085309 0.73900002 63 45 29 255
-0.022152569 0.22085494 0.73900002 66 48 32 255
-0.020160925 0.22115551 0.74000001 65 47 31 255
-0.018163772 0.22145593 0.74100006 65 49 33 255
-0.016161114 0.2217562 0.74200004 67 51 36 255
-0.014172006 0.22235516 0.74400002 62 46 31 255
-0.012139303 0.22235623 0.74400002 61 46 33 255
-0.010133742 0.22295488 0.74600005 59 43 33 255
-0.0081063779 0.2232545 0.74700004 64 48 38 255
-0.0060897698 0.22415169 0.75000006 60 43 31 255
-0.0040459805 0.22445098 0.75100005 61 45 35 255
-0.0019967172 0.22475007 0.75200003 59 44 31 255
5.8014721e-05 0.22504902 0.75300002 59 44 31 255
0.0021210203 0.22564666 0.75500005 49 35 26 255
0.0041894088 0.22594528 0.75600004 54 42 33 255
0.0062632519 0.22624372 0.75700003 48 38 31 255
0.0083425464 0.226542 0.75800002 38 32 26 255
0.010427286 0.22684011 0.75900006 36 30 24 255
0.012517465 0.22713801 0.76000005 36 31 24 255
0.014632285 0.22773466 0.76200002 31 26 20 255
0.016779937 0.22862998 0.76500005 31 26 20 255
0.018943939 0.22952509 0.76800001 33 28 21 255
0.021069497 0.22982231 0.76900005 33 28 21 255
0.023260731 0.23071708 0.77200001 29 27 17 255
0.025303997 0.23011743 0.77000004 22 22 12 255
0.027300682 0.22921874 0.76700002 26 26 16 255
0.029357571 0.2289176 0.76600003 27 27 17 255
0.031491049 0.229214 0.76700002 25 25 15 255
0.033761282 0.23040675 0.77100003 27 27 17 255
0.035913739 0.23070279 0.77200001 23 24 12 255
0.038219333 0.23189519 0.77600002 27 28 16 255
-0.14419138 0.23689364 0.80100006 179 185 187 255
-0.13952862 0.23276129 0.78700006 138 140 140 255
-0.13564016 0.22981171 0.77700001 132 135 132 255
-0.13266526 0.2283408 0.77200001 103 104 100 255
-0.12971742 0.22686973 0.76700002 75 74 68 255
-0.12746224 0.22658174 0.76600003 59 60 54 255
-0.12521234 0.2262937 0.76500005 48 51 47 255
-0.12328961 0.22659719 0.76600003 54 57 53 255
-0.12120307 0.22660486 0.76600003 55 56 52 255
-0.11942735 0.22720416 0.76800001 65 66 62 255
-0.11702945 0.22662002 0.76600003 69 70 66 255
-0.11509243 0.22692339 0.76700002 67 66 60 255
-0.1125605 0.22604322 0.76400006 48 47 41 255
-0.11047854 0.22605056 0.76400006 41 40 34 255
-0.10782889 0.22487429 0.76000005 36 35 31 255
-0.10561834 0.22458555 0.75900006 36 34 32 255
-0.1030038 0.22340898 0.75500005 38 36 34 255
-0.1009457 0.22341594 0.75500005 39 35 33 255
-0.098756462 0.22312689 0.75400001 46 40 37 255
-0.096957266 0.22372553 0.75600004 52 47 41 255
-0.094895937 0.22373222 0.75600004 55 49 43 255
-0.092711657 0.22344287 0.75500005 46 40 34 255
-0.090532675 0.2231534 0.75400001 50 41 36 255
-0.088358983 0.22286382 0.75300002 52 43 38 255
-0.086190589 0.2225741 0.75200003 58 48 41 255
-0.083915606 0.22198831 0.75000006 54 42 33 255
-0.081433065 0.22081037 0.74600005 61 48 35 255
-0.079185046 0.22022425 0.74400002 63 48 35 255
-0.076844111 0.21934201 0.74100006 63 48 35 255
-0.074620359 0.21875559 0.73900002 62 47 34 255
-0.072603881 0.21876107 0.73900002 62 46 36 255
-0.070587263 0.21876644 0.73900002 60 44 35 255
-0.068477713 0.21847565 0.73800004 57 40 34 255
-0.066373482 0.21818472 0.73700005 61 44 38 255
-0.064361908 0.2181897 0.73700005 64 48 39 255
-0.062181018 0.21760243 0.73500001 64 48 39 255
-0.060256526 0.21790323 0.73600006 63 47 37 255
-0.058168165 0.2176117 0.73500001 61 45 35 255
-0.05623797 0.21791224 0.73600006 64 49 36 255
-0.054228522 0.21791653 0.73600006 67 50 38 255
-0.052289896 0.21821679 0.73700005 68 51 39 255
-0.050209276 0.21792471 0.73600006 66 48 32 255
-0.048133999 0.21763249 0.73500001 68 48 32 255
-0.046064094 0.21734011 0.73400003 79 57 39 255
-0.04417963 0.21793593 0.73600006 77 55 37 255
-0.042169552 0.21793935 0.73600006 78 56 38 255
-0.040159386 0.21794266 0.73600006 77 55 37 255
-0.038097296 0.21764964 0.73500001 74 54 38 255
-0.036089685 0.21765265 0.73500001 71 53 37 255
-0.034082003 0.21765547 0.73500001 69 48 34 255
-0.032074243 0.21765812 0.73500001 72 52 36 255
-0.030107321 0.21795681 0.73600006 70 50 34 255
-0.028134862 0.2182553 0.73700005 71 51 35 255
-0.026156878 0.21855363 0.73800004 74 54 38 255
-0.024173377 0.21885183 0.73900002 70 50 32 255
-0.022154372 0.21885371 0.73900002 67 47 29 255
-0.020162567 0.2191516 0.74000001 71 54 35 255
-0.018140739 0.21915314 0.74000001 68 50 34 255
-0.016118869 0.21915455 0.74000001 68 50 34 255
-0.014135065 0.21974811 0.74200004 67 49 34 255
-0.012140297 0.22034152 0.74400002 66 47 35 255
-0.010120988 0.2206386 0.74500006 65 46 36 255
-0.0080853365 0.22063933 0.74500006 70 51 39 255
-0.0060659084 0.22123225 0.74700004 69 50 38 255
-0.0040247603 0.22123265 0.74700004 63 44 32 255
-0.0019889148 0.22182521 0.74900001 57 40 28 255
5.7865382e-05 0.22241764 0.75100005 61 44 32 255
0.0021211943 0.22360218 0.75500005 59 43 34 255
0.0041952943 0.22419427 0.75700003 55 41 32 255
0.006263766 0.22419381 0.75700003 47 37 30 255
0.0083542382 0.22478555 0.75900006 43 35 28 255
0.010455619 0.2253771 0.76100004 37 31 24 255
0.012534962 0.22537613 0.76100004 35 30 24 255
0.014633482 0.22567119 0.76200002 31 26 20 255
0.016737433 0.22596605 0.76300001 32 27 21 255
0.018920816 0.2271492 0.76700002 31 28 21 255
0.021043813 0.22744371 0.76800001 33 31 21 255
0.023292759 0.22892265 0.77300006 34 32 22 255
0.025437512 0.22921681 0.77400005 27 27 17 255
0.027552078 0.22921467 0.77400005 27 27 17 255
0.029398276 0.22713935 0.76700002 27 27 17 255
0.031411465 0.22654462 0.76500005 27 27 17 255
0.03358883 0.22713423 0.76700002 30 30 20 255
0.035823572 0.22801983 0.77000004 29 30 18 255
0.038173143 0.22949752 0.77500004 28 29 17 255
0.04086186 0.2327517 0.78600001 30 31 19 255
-0.14729398 0.23617828 0.80600005 212 218 221 255
-0.14113928 0.22973992 0.78400004 157 161 163 255
-0.13794106 0.22798985 0.77800006 114 116 116 255
-0.13442615 0.22565348 0.77000004 45 45 43 255
-0.13164207 0.2244892 0.76600003 51 52 48 255
-0.12938701 0.22420405 0.76500005 80 79 73 255
-0.12780286 0.22509116 0.76800001 67 68 62 255
-0.12554748 0.22480592 0.76700002 59 60 54 255
-0.12313639 0.2242275 0.76500005 50 51 45 255
-0.12089427 0.22394213 0.76400006 65 66 62 255
-0.11927947 0.22482915 0.76700002 48 49 45 255
-0.11749538 0.22542307 0.76900005 49 50 46 255
-0.11540008 0.22543068 0.76900005 45 44 40 255
-0.11286258 0.22455871 0.76600003 41 40 36 255
-0.1106305 0.224273 0.76500005 35 34 30 255
-0.10783611 0.22281443 0.76000005 36 35 31 255
-0.10562547 0.22252847 0.75900006 42 40 38 255
-0.10328369 0.22194922 0.75700003 38 34 32 255
-0.10148749 0.22254267 0.75900006 44 41 37 255
-0.09915626 0.22196318 0.75700003 59 54 48 255
-0.096964039 0.22167683 0.75600004 53 47 41 255
-0.094651535 0.22109711 0.75400001 55 47 40 255
-0.092472613 0.2208105 0.75300002 59 50 45 255
-0.09029898 0.2205238 0.75200003 58 49 44 255
-0.088247977 0.22053021 0.75200003 59 48 43 255
-0.086082205 0.22024328 0.75100005 63 51 44 255
-0.083809823 0.2196629 0.74900001 58 46 37 255
-0.081439033 0.21878915 0.74600005 68 53 40 255
-0.079084456 0.21791518 0.74300003 64 49 34 255
-0.076746099 0.21704111 0.74000001 62 47 34 255
-0.074625932 0.21675344 0.73900002 66 51 38 255
-0.072511077 0.21646568 0.73800004 68 52 42 255
-0.070401542 0.21617776 0.73700005 66 50 41 255
-0.068297319 0.21588972 0.73600006 63 47 38 255
-0.066198416 0.2156015 0.73500001 65 49 40 255
-0.06436684 0.21619317 0.73700005 64 48 39 255
-0.062355019 0.21619807 0.73700005 65 48 38 255
-0.060424939 0.21649617 0.73800004 67 50 38 255
-0.058251832 0.21591407 0.73600006 67 50 38 255
-0.056242358 0.21591854 0.73600006 67 49 34 255
-0.054232772 0.21592289 0.73600006 68 50 34 255
-0.052364968 0.21651386 0.73800004 70 49 35 255
-0.050281469 0.21622452 0.73700005 71 51 35 255
-0.048137818 0.21564163 0.73500001 74 52 36 255
-0.046130527 0.2156454 0.73500001 81 60 40 255
-0.044183157 0.21594241 0.73600006 74 53 33 255
-0.042172927 0.21594585 0.73600006 78 56 38 255
-0.040108033 0.21565574 0.73500001 83 61 43 255
-0.038048524 0.21536548 0.73400003 75 55 39 255
-0.036092598 0.2156619 0.73500001 73 53 37 255
-0.034131136 0.21595818 0.73600006 73 52 38 255
-0.032076843 0.21566744 0.73500001 73 53 37 255
-0.030109767 0.21596341 0.73600006 76 56 40 255
-0.028098978 0.21596579 0.73600006 80 58 42 255
-0.026123568 0.21626142 0.73700005 73 51 35 255
-0.024142638 0.21655692 0.73800004 73 52 32 255
-0.022186169 0.2171457 0.74000001 74 54 36 255
-0.020164222 0.21714742 0.74000001 72 52 34 255
-0.018117713 0.21685557 0.73900002 73 53 35 255
-0.016098412 0.21685697 0.73900002 75 55 39 255
-0.014117178 0.21744512 0.74100006 71 51 35 255
-0.012108659 0.21773964 0.74200004 73 53 37 255
-0.010108235 0.21832746 0.74400002 75 54 40 255
-0.0080642961 0.21803477 0.74300003 76 56 40 255
-0.0060501667 0.21862227 0.74500006 74 54 38 255
-0.0040197042 0.21891612 0.74600005 70 49 35 255
-0.0019864233 0.21950328 0.74800003 70 49 35 255
5.7793106e-05 0.22009028 0.75000006 64 43 29 255
0.0021157502 0.22097054 0.75300002 66 50 35 255
0.0041900985 0.22185065 0.75600004 58 43 28 255
0.0062725577 0.22243711 0.75800002 55 40 27 255
0.008376942 0.22331686 0.76100004 48 39 28 255
0.010470221 0.22360954 0.76200002 41 34 23 255
0.012552468 0.22360858 0.76200002 36 32 22 255
0.014653893 0.22390091 0.76300001 37 32 25 255
0.01673881 0.22389962 0.76300001 34 29 22 255
0.01892237 0.22507192 0.76700002 32 29 22 255
0.021100346 0.22595061 0.77000004 30 28 18 255
0.023415208 0.22800288 0.77700001 33 31 21 255
0.025472457 0.22741398 0.77500004 28 25 18 255
0.027554326 0.22711839 0.77400005 30 30 22 255
0.029400671 0.22506203 0.76700002 26 26 18 255
0.031455085 0.22476611 0.76600003 29 29 19 255
0.033635352 0.22535031 0.76800001 25 25 15 255
0.035966061 0.22681461 0.77300006 26 26 16 255
0.038225479 0.22769186 0.77600002 30 28 18 255
0.040865146 0.2306228 0.78600001 37 35 25 255
-0.14401285 0.22876678 0.78800005 142 147 144 255
-0.13970725 0.22529122 0.77600002 175 176 172 255
-0.13688534 0.2241381 0.77200001 197 196 192 255
-0.13373582 0.22240415 0.76600003 162 159 153 255
-0.13130631 0.22183146 0.76400006 87 84 78 255
-0.12922581 0.22183946 0.76400006 74 71 65 255
-0.12747794 0.22242813 0.76600003 63 62 56 255
-0.12539165 0.22243604 0.76600003 55 56 52 255
-0.12314418 0.2221535 0.76500005 49 50 46 255
-0.12058549 0.22129008 0.76200002 39 39 37 255
-0.11897613 0.22216906 0.76500005 50 50 48 255
-0.11704464 0.22246714 0.76600003 54 52 50 255
-0.11510751 0.22276522 0.76700002 46 44 42 255
-0.11257537 0.22190146 0.76400006 51 49 47 255
-0.11049329 0.22190894 0.76400006 44 43 39 255
-0.10826911 0.22162586 0.76300001 45 44 40 255
-0.10618936 0.22163317 0.76300001 49 46 42 255
-0.10383658 0.22105943 0.76100004 47 41 38 255
-0.10176195 0.22106655 0.76100004 46 40 34 255
-0.099556163 0.22078308 0.76000005 53 44 39 255
-0.097099133 0.21991849 0.75700003 67 57 48 255
-0.094658263 0.21905373 0.75400001 76 64 54 255
-0.092356421 0.21847938 0.75200003 71 59 49 255
-0.090065308 0.21790487 0.75000006 67 55 48 255
-0.088019662 0.21791133 0.75000006 67 55 48 255
-0.085859217 0.21762711 0.74900001 62 47 41 255
-0.083592169 0.21705221 0.74700004 64 50 41 255
-0.081226692 0.21618657 0.74400002 68 53 40 255
-0.078877442 0.2153208 0.74100006 63 48 35 255
-0.076751843 0.21503605 0.74000001 71 54 42 255
-0.074631542 0.21475112 0.73900002 69 52 40 255
-0.072418295 0.21417549 0.73700005 69 54 41 255
-0.070215829 0.2135997 0.73500001 63 48 35 255
-0.068116933 0.21331438 0.73400003 68 51 41 255
-0.066113427 0.21331953 0.73400003 63 46 36 255
-0.064284466 0.21390584 0.73600006 66 49 39 255
-0.062275242 0.21391074 0.73600006 70 53 41 255
-0.060265876 0.21391551 0.73600006 65 49 34 255
-0.058177236 0.21362951 0.73500001 69 51 36 255
-0.056246772 0.21392466 0.73600006 73 53 37 255
-0.054310735 0.21421967 0.73700005 74 54 38 255
-0.052369114 0.21451458 0.73800004 77 55 39 255
-0.05021723 0.21393733 0.73600006 73 51 35 255
-0.048141658 0.21365057 0.73500001 75 53 37 255
-0.046134211 0.21365434 0.73500001 79 56 36 255
-0.0441867 0.21394865 0.73600006 79 56 36 255
-0.042119019 0.21366143 0.73500001 84 60 42 255
-0.040056702 0.21337406 0.73400003 80 56 38 255
-0.038051609 0.21337724 0.73400003 76 54 38 255
-0.036144644 0.21396168 0.73600006 77 55 39 255
-0.034133915 0.21396454 0.73600006 77 55 39 255
-0.032079462 0.21367653 0.73500001 79 57 41 255
-0.030071311 0.21367906 0.73500001 78 56 40 255
-0.02810128 0.21397218 0.73600006 82 60 44 255
-0.026125716 0.21426515 0.73700005 83 61 45 255
-0.024111906 0.21426721 0.73700005 76 54 36 255
-0.022128029 0.21455982 0.73800004 76 56 38 255
-0.020111384 0.21456158 0.73800004 75 55 37 255
-0.018119209 0.2148539 0.73900002 76 56 38 255
-0.016099742 0.21485531 0.73900002 75 55 37 255
-0.014099292 0.2151473 0.74000001 75 53 35 255
-0.012077021 0.2151484 0.74000001 80 58 42 255
-0.010081898 0.2157308 0.74200004 77 55 39 255
-0.0080541102 0.21573156 0.74200004 77 55 39 255
-0.0060344255 0.21602288 0.74300003 80 58 42 255
-0.0040092613 0.21631406 0.74400002 78 56 40 255
-0.0019812766 0.21689577 0.74600005 72 50 34 255
5.7797904e-05 0.21805885 0.75000006 68 48 32 255
0.0021159258 0.21893099 0.75300002 69 51 36 255
0.0041959891 0.22009371 0.75700003 66 50 35 255
0.0062730787 0.220384 0.75800002 58 43 28 255
0.0083776377 0.22125566 0.76100004 50 39 26 255
0.010471089 0.22154561 0.76200002 47 38 27 255
0.012553507 0.22154462 0.76200002 40 35 25 255
0.014655104 0.22183424 0.76300001 36 31 24 255
0.016762134 0.2221237 0.76400006 35 30 23 255
0.018923935 0.22299442 0.76700002 32 27 20 255
0.021074681 0.22357422 0.76900005 34 29 22 255
0.023326723 0.22502607 0.77400005 29 26 19 255
0.025441686 0.22502406 0.77400005 28 25 18 255
0.027663393 0.22589403 0.77700001 32 29 22 255
0.02963309 0.22472878 0.77300006 34 34 26 255
0.031662993 0.22414485 0.77100003 26 26 18 255
0.033594299 0.22297929 0.76700002 28 28 18 255
0.035968985 0.22472073 0.77300006 29 29 19 255
0.038179319 0.22529913 0.77500004 34 32 22 255
0.040660478 0.22733088 0.78200006 29 28 22 255
-0.14709374 0.22805916 0.79300004 200 207 206 255
-0.14255911 0.22432886 0.78000003 92 95 92 255
-0.13935541 0.22261152 0.77400005 83 84 78 255
-0.13689353 0.22204454 0.77200001 99 98 92 255
-0.13409312 0.22090219 0.76800001 108 105 99 255
-0.13131434 0.21975976 0.76400006 78 75 69 255
-0.12906463 0.21948016 0.76300001 71 68 62 255
-0.12715307 0.21977584 0.76400006 65 64 60 255
-0.12523587 0.22007145 0.76500005 47 45 43 255
-0.12299106 0.21979168 0.76400006 40 40 38 255
-0.12075152 0.21951182 0.76300001 36 36 36 255
-0.11836174 0.21894422 0.76100004 32 32 32 255
-0.11689954 0.22010282 0.76500005 40 38 38 255
-0.11481499 0.22011051 0.76500005 42 40 40 255
-0.11258291 0.21983036 0.76400006 50 48 46 255
-0.10992222 0.21868694 0.76000005 65 61 59 255
-0.10785077 0.21869437 0.76000005 48 44 42 255
-0.10605748 0.2192772 0.76200002 53 47 44 255
-0.10398024 0.21928449 0.76200002 48 42 39 255
-0.10190281 0.2192917 0.76200002 51 42 37 255
-0.099563189 0.21872321 0.76000005 62 51 46 255
-0.097234286 0.21815456 0.75800002 75 63 53 255
-0.09479057 0.21729803 0.75500005 80 67 54 255
-0.09236306 0.2164413 0.75200003 73 62 49 255
-0.089831643 0.2152966 0.74800003 72 60 50 255
-0.08767397 0.21501525 0.74700004 64 52 43 255
-0.085636243 0.21502163 0.74700004 67 52 46 255
-0.08348643 0.21474002 0.74600005 69 53 44 255
-0.081341922 0.21445827 0.74500006 70 54 44 255
-0.07909625 0.21388856 0.74300003 68 52 42 255
-0.076861344 0.21331868 0.74100006 74 59 46 255
-0.07473819 0.21303654 0.74000001 69 52 40 255
-0.072423808 0.21217847 0.73700005 68 53 40 255
-0.070221193 0.21160813 0.73500001 67 52 39 255
-0.068122163 0.21132553 0.73400003 69 53 38 255
-0.066208616 0.21161865 0.73500001 67 51 36 255
-0.064202115 0.21162373 0.73500001 72 54 38 255
-0.062280104 0.2119166 0.73600006 73 52 38 255
-0.060270596 0.21192138 0.73600006 72 51 37 255
-0.058340132 0.21221399 0.73700005 77 55 39 255
-0.056251224 0.21193059 0.73600006 72 50 34 255
-0.054241348 0.21193497 0.73600006 77 55 39 255
-0.052302316 0.21222717 0.73700005 81 59 43 255
-0.050221246 0.21194333 0.73600006 86 62 44 255
-0.048211023 0.21194726 0.73600006 78 54 36 255
-0.046200704 0.21195108 0.73600006 82 57 35 255
-0.044190269 0.21195471 0.73600006 83 58 36 255
-0.042122427 0.21167022 0.73500001 84 58 39 255
-0.040059958 0.21138559 0.73400003 87 62 40 255
-0.038054705 0.21138877 0.73400003 89 63 44 255
-0.036147591 0.21196781 0.73600006 85 61 43 255
-0.034136709 0.21197069 0.73600006 86 60 41 255
-0.032038443 0.21139738 0.73400003 86 60 41 255
-0.029991956 0.21111195 0.73300004 83 59 43 255
-0.02806541 0.21169035 0.73500001 85 58 43 255
-0.026092418 0.2119806 0.73600006 84 60 44 255
-0.024081182 0.21198268 0.73600006 84 62 46 255
-0.022099875 0.21227261 0.73700005 79 57 41 255
-0.020085799 0.21227439 0.73700005 77 55 39 255
-0.018120715 0.21285202 0.73900002 78 56 38 255
-0.016101081 0.21285345 0.73900002 79 55 37 255
-0.014119521 0.21343078 0.74100006 81 55 37 255
-0.012094351 0.21343188 0.74100006 82 56 38 255
-0.010096328 0.21400887 0.74300003 81 55 37 255
-0.0080547836 0.21372159 0.74200004 80 56 38 255
-0.0060349293 0.21401022 0.74300003 82 58 40 255
-0.0040095956 0.21429867 0.74400002 76 54 36 255
-0.0019814421 0.21487497 0.74600005 77 55 37 255
5.7802739e-05 0.21602723 0.75000006 78 56 40 255
0.0021132925 0.21660319 0.75200003 72 52 36 255
0.0041907965 0.21775508 0.75600004 63 45 29 255
0.0062736026 0.2183307 0.75800002 67 51 35 255
0.0083673261 0.21890616 0.76000005 55 42 29 255
0.01045822 0.21919343 0.76100004 54 42 32 255
0.012554554 0.21948048 0.76200002 45 36 25 255
0.014675534 0.22005542 0.76400006 43 35 26 255
0.016785471 0.22034214 0.76500005 38 33 23 255
0.018900832 0.22062866 0.76600003 36 32 22 255
0.021021612 0.22091502 0.76700002 35 31 21 255
0.023268374 0.22235329 0.77200001 31 26 19 255
0.025378041 0.2223513 0.77200001 30 27 21 255
0.027594468 0.22321317 0.77500004 30 27 21 255
0.029635534 0.22263476 0.77300006 29 28 22 255
0.031788811 0.22292024 0.77400005 30 30 22 255
0.033903681 0.22291754 0.77400005 27 27 19 255
0.036158074 0.22377865 0.77700001 28 28 18 255
0.038379509 0.22435163 0.77900004 27 27 17 255
0.041027781 0.22722833 0.78900003 28 28 18 255
-0.15151945 0.22931804 0.80500007 208 214 216 255
-0.14654578 0.22505359 0.79000002 84 88 88 255
-0.14275028 0.22249816 0.78100002 99 100 96 255
-0.14008395 0.2216519 0.77800006 81 82 76 255
-0.13761112 0.22109047 0.77600002 97 96 90 255
-0.13532358 0.22081387 0.77500004 135 132 126 255
-0.13235377 0.21939749 0.77000004 114 111 105 255
-0.12958018 0.21826591 0.76600003 71 67 65 255
-0.12732753 0.21798906 0.76500005 57 53 51 255
-0.12524386 0.2179971 0.76500005 42 40 38 255
-0.12299898 0.21772012 0.76400006 39 37 37 255
-0.12060112 0.21715806 0.76200002 38 36 36 255
-0.11852505 0.21716589 0.76200002 38 36 36 255
-0.11660163 0.21745868 0.76300001 43 41 39 255
-0.11452248 0.21746641 0.76300001 55 53 51 255
-0.11244315 0.21747407 0.76300001 52 51 45 255
-0.10978506 0.21634156 0.75900006 60 59 53 255
-0.10828393 0.21748915 0.76300001 65 62 56 255
-0.1066216 0.21835177 0.76600003 58 53 47 255
-0.1043969 0.21807407 0.76500005 47 42 36 255
-0.10190997 0.21722612 0.76200002 50 42 35 255
-0.099308208 0.21609291 0.75800002 68 56 46 255
-0.097112961 0.21581487 0.75700003 79 66 53 255
-0.094797403 0.21525158 0.75500005 81 68 53 255
-0.09249258 0.21468815 0.75300002 79 66 51 255
-0.090078406 0.21383947 0.75000006 78 64 54 255
-0.087563045 0.21270551 0.74600005 70 56 46 255
-0.085527927 0.2127119 0.74600005 74 58 49 255
-0.083380722 0.21243303 0.74500006 73 56 50 255
-0.081348017 0.21243922 0.74500006 73 57 48 255
-0.079208665 0.21216007 0.74400002 70 54 44 255
-0.076970898 0.21159568 0.74200004 75 58 46 255
-0.074743882 0.21103111 0.74000001 78 62 47 255
-0.072429359 0.21018121 0.73700005 71 56 41 255
-0.070417702 0.2101867 0.73700005 75 61 44 255
-0.068405889 0.21019208 0.73700005 71 55 39 255
-0.066303849 0.20991211 0.73600006 74 56 40 255
-0.064207122 0.20963196 0.73500001 72 52 36 255
-0.062284984 0.20992218 0.73600006 75 55 39 255
-0.06027535 0.20992702 0.73600006 79 56 42 255
-0.058265585 0.2099317 0.73600006 80 58 42 255
-0.056179255 0.20965102 0.73500001 76 56 40 255
-0.054245673 0.20994067 0.73600006 75 55 39 255
-0.052306507 0.21023019 0.73700005 80 58 42 255
-0.05022528 0.20994905 0.73600006 79 57 41 255
-0.048149399 0.20966776 0.73500001 80 58 40 255
-0.046078883 0.20938633 0.73400003 83 58 36 255
-0.044133812 0.20967525 0.73500001 87 62 40 255
-0.042183176 0.20996405 0.73600006 86 61 39 255
-0.040172394 0.2099674 0.73600006 83 58 36 255
-0.038057823 0.20940007 0.73400003 86 61 39 255
-0.036052324 0.20940308 0.73400003 88 62 43 255
-0.034046747 0.209406 0.73400003 82 57 35 255
-0.032041088 0.20940873 0.73400003 85 60 38 255
-0.030035352 0.20941126 0.73400003 81 54 39 255
-0.02810592 0.2099843 0.73600006 84 57 42 255
-0.026130039 0.21027188 0.73700005 89 62 47 255
-0.024083186 0.20998865 0.73600006 80 55 41 255
-0.022041738 0.20970525 0.73500001 82 58 42 255
-0.020087473 0.21027766 0.73700005 84 60 44 255
-0.018097704 0.21056455 0.73800004 79 55 39 255
-0.016080637 0.21056598 0.73800004 90 64 45 255
-0.014101645 0.21113789 0.74000001 82 56 37 255
-0.01207904 0.21113899 0.74000001 82 56 37 255
-0.010083584 0.21171059 0.74200004 83 57 38 255
-0.0080554588 0.21171135 0.74200004 86 60 41 255
-0.0060273129 0.21171193 0.74200004 79 56 36 255
-0.0040045427 0.21199767 0.74300003 84 61 41 255
-0.0019789522 0.2125686 0.74500006 79 58 38 255
5.7730504e-05 0.21370997 0.74900001 75 55 37 255
0.0021162804 0.2148512 0.75300002 72 52 36 255
0.0041911481 0.2157069 0.75600004 67 49 33 255
0.0062658521 0.2159918 0.75700003 63 48 33 255
0.0083460072 0.21627651 0.75800002 57 42 29 255
0.010445353 0.21684635 0.76000005 56 42 32 255
0.012572082 0.21770136 0.76300001 52 40 31 255
0.014715183 0.21855617 0.76600003 48 36 26 255
0.016830759 0.21884018 0.76700002 46 36 27 255
0.018927086 0.21883869 0.76700002 36 31 20 255
0.021023367 0.21883701 0.76700002 31 27 16 255
0.023210026 0.21969113 0.77000004 34 30 20 255
0.025445901 0.22083032 0.77400005 32 29 22 255
0.027703583 0.22196937 0.77800006 33 30 24 255
0.029791351 0.22168165 0.77700001 25 24 18 255
0.031914663 0.22167911 0.77700001 27 26 20 255
0.03399409 0.22139108 0.77600002 31 31 23 255
0.03602143 0.2208176 0.77400005 28 28 18 255
0.038431931 0.22252628 0.78000003 32 32 22 255
-0.15096352 0.22628792 0.80200005 119 125 127 255
-0.14618337 0.22234643 0.78800005 62 66 66 255
-0.14294156 0.22066197 0.78200006 111 111 109 255
-0.14081267 0.22067049 0.78200006 108 107 103 255
-0.1385062 0.22039677 0.78100002 100 99 93 255
-0.13603039 0.21984081 0.77900004 87 86 82 255
-0.13322151 0.21872033 0.77500004 82 79 73 255
-0.13077258 0.21816419 0.77300006 44 43 39 255
-0.12800144 0.21704344 0.76900005 48 46 44 255
-0.1252519 0.21592262 0.76500005 41 39 37 255
-0.12268496 0.21508388 0.76200002 35 35 35 255
-0.12013419 0.21424504 0.75900006 46 46 46 255
-0.11853291 0.21509975 0.76200002 51 51 49 255
-0.11660943 0.21538989 0.76300001 56 57 53 255
-0.1145302 0.21539766 0.76300001 62 61 57 255
-0.11230342 0.21512307 0.76200002 66 65 59 255
-0.10979259 0.21428372 0.75900006 87 86 80 255
-0.10843336 0.21570292 0.76400006 74 71 65 255
-0.10676826 0.21655743 0.76700002 49 44 38 255
-0.10426777 0.21571781 0.76400006 42 37 30 255
-0.10164971 0.21459566 0.76000005 56 46 37 255
-0.099053264 0.21347333 0.75600004 76 63 48 255
-0.096863344 0.21319801 0.75500005 87 72 57 255
-0.09455312 0.21264017 0.75300002 86 72 55 255
-0.092376493 0.2123646 0.75200003 86 72 55 255
-0.089964904 0.21152407 0.74900001 79 65 48 255
-0.08756952 0.21068339 0.74600005 76 61 46 255
-0.08541964 0.21040741 0.74500006 72 56 41 255
-0.083386973 0.21041374 0.74500006 79 61 46 255
-0.081354149 0.21041994 0.74500006 75 57 42 255
-0.079108201 0.2098611 0.74300003 75 59 44 255
-0.076873019 0.20930216 0.74100006 77 61 45 255
-0.074648596 0.20874302 0.73900002 75 59 43 255
-0.072434932 0.20818374 0.73700005 76 60 44 255
-0.070423141 0.20818926 0.73700005 77 61 45 255
-0.068411209 0.20819467 0.73700005 79 59 43 255
-0.066309035 0.20791745 0.73600006 81 59 41 255
-0.064386904 0.2082051 0.73700005 83 61 43 255
-0.062374532 0.20821007 0.73700005 78 56 40 255
-0.06036203 0.20821497 0.73700005 84 59 47 255
-0.058349393 0.20821966 0.73700005 82 59 47 255
-0.05618374 0.20765918 0.73500001 75 54 44 255
-0.054176316 0.20766361 0.73500001 83 62 50 255
-0.052097782 0.20738538 0.73400003 79 57 41 255
-0.050229341 0.20795459 0.73600006 82 60 42 255
-0.048218824 0.20795858 0.73600006 84 61 41 255
-0.046145409 0.20767984 0.73500001 89 64 41 255
-0.044137407 0.20768355 0.73500001 88 64 38 255
-0.042186629 0.20796968 0.73600006 84 60 34 255
-0.040230278 0.20825562 0.73700005 89 64 41 255
-0.038112804 0.2076937 0.73500001 85 59 41 255
-0.036006182 0.20713159 0.73300004 88 62 44 255
-0.033956785 0.20685193 0.73200005 85 59 41 255
-0.031956431 0.20685463 0.73200005 83 57 38 255
-0.030037846 0.20742238 0.73400003 88 62 44 255
-0.028146451 0.20827262 0.73700005 85 59 41 255
-0.02613222 0.20827489 0.73700005 85 58 43 255
-0.024117922 0.20827697 0.73700005 83 56 41 255
-0.022073573 0.20799631 0.73600006 88 61 46 255
-0.020089157 0.20828068 0.73700005 85 58 44 255
-0.018099224 0.20856489 0.73800004 88 61 46 255
-0.01610378 0.20884892 0.73900002 86 59 44 255
-0.014121891 0.20941547 0.74100006 84 57 42 255
-0.012112705 0.20969915 0.74200004 86 60 42 255
-0.010111615 0.21026532 0.74400002 79 53 34 255
-0.0080561377 0.20970088 0.74200004 81 55 36 255
-0.0060278215 0.20970145 0.74200004 76 53 33 255
-0.0040048808 0.20998451 0.74300003 81 58 38 255
-0.0019817757 0.21083261 0.74600005 78 57 37 255
5.7735375e-05 0.21168052 0.74900001 78 59 39 255
0.002113648 0.21252829 0.75200003 72 55 36 255
0.0041804127 0.21309325 0.75400001 67 51 35 255
0.0062663793 0.21394065 0.75700003 62 46 31 255
0.0083467104 0.21422265 0.75800002 64 47 42 255
0.010459977 0.21506971 0.76100004 60 44 35 255
0.01258962 0.2159166 0.76400006 54 38 29 255
0.014735632 0.21676327 0.76700002 50 36 26 255
0.016832173 0.21676195 0.76700002 48 37 24 255
0.018953353 0.21704306 0.76800001 39 35 21 255
0.021025127 0.21675874 0.76700002 37 34 20 255
0.023242112 0.21788733 0.77100003 34 30 19 255
0.025480906 0.21901569 0.77500004 29 27 17 255
0.027812727 0.22070906 0.78100002 29 29 21 255
0.029985558 0.22098927 0.78200006 27 26 20 255
0.032204855 0.22155185 0.78400004 27 26 20 255
0.034478821 0.22239685 0.78700006 26 26 18 255
0.036629468 0.22239389 0.78700006 31 31 23 255
0.039124962 0.22436883 0.79400003 28 30 20 255
0.0415546 0.2257784 0.79900002 28 30 20 255
-0.15040763 0.22327393 0.79900002 136 143 142 255
-0.14600652 0.21992937 0.78700006 63 67 67 255
-0.14295013 0.21854071 0.78200006 70 70 68 255
-0.14118136 0.21910825 0.78400004 76 74 72 255
-0.13869207 0.21855788 0.78200006 102 101 97 255
-0.13638811 0.2182869 0.78100002 109 108 104 255
-0.13391751 0.21773639 0.77900004 100 99 95 255
-0.13179597 0.2177448 0.77900004 88 89 85 255
-0.12850901 0.21579647 0.77200001 77 77 75 255
-0.12558748 0.214407 0.76700002 57 57 57 255
-0.12301502 0.2135765 0.76400006 43 43 43 255
-0.12077527 0.21330498 0.76300001 54 54 52 255
-0.11885195 0.21359253 0.76400006 65 65 63 255
-0.11646444 0.21304128 0.76200002 67 68 62 255
-0.11408764 0.21248993 0.76000005 77 76 70 255
-0.11172154 0.21193846 0.75800002 74 73 67 255
-0.10980018 0.21222574 0.75900006 58 57 51 255
-0.10858284 0.21391101 0.76500005 59 58 52 255
-0.10663653 0.21419819 0.76600003 45 40 33 255
-0.10427514 0.21364638 0.76400006 46 41 34 255
