ply
format ascii 1.0
comment PCL generated
element vertex 920
property float x
property float y
property float z
property uchar red
property uchar green
property uchar blue
property uchar alpha
element camera 0
property float view_px
property float view_py
property float view_pz
property float x_axisx
property float x_axisy
property float x_axisz
property float y_axisx
property float y_axisy
property float y_axisz
property float z_axisx
property float z_axisy
property float z_axisz
property float focal
property float scalex
property float scaley
property float centerx
property float centery
property int viewportx
property int viewporty
property float k1
property float k2
end_header
0.063625343 -0.033004791 0.72300005 53 50 30 255
0.065608941 -0.033003312 0.72300005 50 47 27 255
0.067685775 -0.033047438 0.72400004 50 46 29 255
0.069767833 -0.033091523 0.72500002 53 51 33 255
0.071855098 -0.033135563 0.72600001 54 52 34 255
0.074150994 -0.033270836 0.72900003 49 47 29 255
0.076254137 -0.033314787 0.73000002 46 42 26 255
0.078040883 -0.033221789 0.72800004 43 39 22 255
0.080256119 -0.033311293 0.73000002 48 44 27 255
0.082256652 -0.033309482 0.73000002 59 55 38 255
0.084487721 -0.033398896 0.73200005 59 56 36 255
0.086374931 -0.033351388 0.73100001 75 73 49 255
0.08837726 -0.033349469 0.73100001 88 86 62 255
0.090379238 -0.033347514 0.73100001 67 64 43 255
0.092380904 -0.033345524 0.73100001 57 54 33 255
0.094511345 -0.033389121 0.73200005 56 53 33 255
0.096646912 -0.03343267 0.73300004 48 44 28 255
0.098653026 -0.033430573 0.73300004 47 43 27 255
0.10052146 -0.033382837 0.73200005 49 46 30 255
0.102244 -0.033289477 0.73000002 47 45 27 255
0.10438365 -0.033332892 0.73100001 51 49 31 255
0.10667392 -0.033421867 0.73300004 48 46 26 255
0.10867823 -0.033419613 0.73300004 56 54 34 255
0.11083318 -0.033462919 0.73400003 52 50 30 255
0.11253202 -0.033369433 0.73200005 53 51 31 255
0.11453249 -0.033367094 0.73200005 61 59 39 255
0.11621419 -0.033273567 0.73000002 57 53 36 255
0.11804649 -0.033225603 0.72900003 65 60 40 255
0.12020229 -0.033268772 0.73000002 61 55 38 255
0.12236315 -0.033311903 0.73100001 84 78 61 255
0.12469922 -0.033400573 0.73300004 79 75 59 255
0.12670013 -0.033398081 0.73300004 84 80 66 255
0.12887621 -0.033441119 0.73400003 82 79 65 255
0.13105735 -0.033484131 0.73500001 85 82 66 255
0.13270047 -0.033390455 0.73300004 65 63 45 255
0.13451602 -0.03334232 0.73200005 59 57 39 255
0.13632573 -0.033294171 0.73100001 54 53 31 255
0.13869725 -0.033382639 0.73300004 45 43 23 255
0.14069539 -0.033379998 0.73300004 48 46 26 255
0.14269316 -0.033377334 0.73300004 48 46 28 255
0.1444931 -0.033329125 0.73200005 50 48 30 255
0.14628722 -0.033280905 0.73100001 53 49 32 255
0.14827834 -0.033278205 0.73100001 47 45 25 255
0.1506802 -0.033366527 0.73300004 49 47 27 255
0.15267599 -0.033363789 0.73300004 47 45 25 255
0.15467139 -0.03336104 0.73300004 57 54 33 255
0.15645266 -0.033312768 0.73200005 80 77 56 255
0.15801163 -0.03321898 0.73000002 83 78 58 255
0.1599977 -0.033216208 0.73000002 69 66 46 255
0.1624272 -0.033304423 0.73200005 71 69 51 255
0.16441795 -0.033301625 0.73200005 63 61 43 255
0.16618098 -0.03325332 0.73100001 61 59 41 255
0.16793822 -0.033205025 0.73000002 52 49 33 255
0.17015518 -0.033247694 0.73100001 55 51 34 255
0.17261273 -0.033335831 0.73300004 60 58 40 255
0.17460433 -0.033332996 0.73300004 62 58 41 255
0.17635469 -0.03328469 0.73200005 60 56 40 255
0.17834289 -0.033281859 0.73200005 57 53 36 255
0.18106978 -0.033415407 0.73500001 60 56 39 255
0.18381263 -0.033548936 0.73800004 67 64 44 255
0.18631965 -0.033636983 0.74000001 76 73 53 255
0.1888372 -0.033725027 0.74200004 78 76 58 255
0.19162248 -0.033858497 0.74500006 82 80 62 255
0.19494355 -0.034082834 0.75000006 91 90 74 255
0.19907933 -0.034443457 0.75800002 100 101 87 255
0.20431961 -0.03498577 0.77000004 100 103 91 255
-0.26084054 -0.03706082 0.77100003 206 211 207 255
-0.25573385 -0.036630724 0.76200002 182 188 181 255
-0.25200745 -0.036392909 0.75700003 186 190 183 255
-0.24929866 -0.036299333 0.75500005 190 194 187 255
-0.24692814 -0.036253858 0.75400001 194 198 191 255
-0.24488771 -0.036256492 0.75400001 188 191 187 255
-0.24284719 -0.036259159 0.75400001 188 191 188 255
-0.24048726 -0.036213767 0.75300002 187 190 187 255
-0.23876588 -0.036264583 0.75400001 185 188 185 255
-0.23641109 -0.036219239 0.75300002 181 184 181 255
-0.23468405 -0.036270119 0.75400001 192 195 191 255
-0.23233439 -0.036224823 0.75300002 188 191 187 255
-0.23029584 -0.036227655 0.75300002 188 191 188 255
-0.22825706 -0.036230505 0.75300002 187 190 187 255
-0.22621812 -0.03623338 0.75300002 184 187 184 255
-0.22388127 -0.036188155 0.75200003 184 187 183 255
-0.22184464 -0.036191072 0.75200003 191 192 188 255
-0.21980779 -0.036193997 0.75200003 181 185 178 255
-0.21719152 -0.036100682 0.75000006 185 189 182 255
-0.2154465 -0.036151778 0.75100005 183 186 182 255
-0.21341166 -0.036154754 0.75100005 177 182 178 255
-0.21137655 -0.036157746 0.75100005 183 188 184 255
-0.20878367 -0.036064446 0.74900001 175 180 176 255
-0.20675345 -0.036067452 0.74900001 177 182 178 255
-0.20417629 -0.03597416 0.74700004 184 189 185 255
-0.20215096 -0.035977185 0.74700004 195 200 196 255
-0.20012529 -0.035980213 0.74700004 190 193 189 255
-0.19836454 -0.036031421 0.74800003 183 186 182 255
-0.19607307 -0.035986293 0.74700004 184 190 183 255
-0.19378671 -0.035941169 0.74600005 158 164 157 255
-0.19176254 -0.03594422 0.74600005 160 166 159 255
-0.18973802 -0.035947274 0.74600005 163 169 162 255
-0.18796478 -0.03599852 0.74700004 164 170 163 255
-0.18618582 -0.03604978 0.74800003 161 167 160 255
-0.18415484 -0.036052845 0.74800003 155 161 154 255
-0.18212353 -0.036055911 0.74800003 149 153 146 255
-0.18009186 -0.036058981 0.74800003 148 152 145 255
-0.17829788 -0.036110252 0.74900001 142 145 141 255
-0.17626277 -0.036113314 0.74900001 154 157 153 255
-0.17399468 -0.036068156 0.74800003 169 172 168 255
-0.17242132 -0.036167651 0.75000006 161 164 160 255
-0.1701552 -0.036122475 0.74900001 168 171 167 255
-0.16789412 -0.036077283 0.74800003 180 183 179 255
-0.16541636 -0.035983838 0.74600005 187 190 186 255
-0.16338713 -0.035986848 0.74600005 184 189 185 255
-0.16114123 -0.035941605 0.74500006 178 183 179 255
-0.15825965 -0.035751596 0.74100006 182 188 181 255
-0.15582113 -0.035658047 0.73900002 179 185 178 255
-0.15339313 -0.035564471 0.73700005 184 190 183 255
-0.15097564 -0.035470866 0.73500001 183 189 182 255
-0.14877133 -0.035425492 0.73400003 184 190 183 255
-0.14677203 -0.03542836 0.73400003 175 181 174 255
-0.14496958 -0.03547949 0.73500001 164 170 163 255
-0.14277227 -0.035434056 0.73400003 172 176 169 255
-0.14038821 -0.035340313 0.73200005 181 185 178 255
-0.13801466 -0.03524654 0.73000002 170 176 169 255
-0.13583796 -0.035201017 0.72900003 178 184 177 255
-0.13384993 -0.035203759 0.72900003 158 164 157 255
-0.13186152 -0.035206478 0.72900003 168 172 165 255
-0.12987272 -0.035209175 0.72900003 173 177 170 255
-0.12788352 -0.03521185 0.72900003 169 173 166 255
-0.12589394 -0.035214499 0.72900003 165 169 162 255
-0.12424388 -0.03531374 0.73100001 171 175 168 255
-0.12208084 -0.035268035 0.73000002 173 179 172 255
-0.11975836 -0.035173982 0.72800004 159 163 156 255
-0.11744641 -0.035079889 0.72600001 164 168 161 255
-0.1154631 -0.035082396 0.72600001 163 167 160 255
-0.1131668 -0.034988225 0.72400004 147 151 144 255
-0.11118821 -0.034990672 0.72400004 153 157 150 255
-0.1090584 -0.034944754 0.72300005 122 128 121 255
-0.10722991 -0.03499547 0.72400004 165 169 162 255
-0.10495947 -0.034901146 0.72200006 115 119 112 255
-0.1026996 -0.034806777 0.72000003 66 70 63 255
-0.10045031 -0.034712363 0.71800005 158 164 157 255
-0.098485962 -0.034714602 0.71800005 105 109 102 255
-0.096521266 -0.034716807 0.71800005 94 98 91 255
-0.094556227 -0.034718979 0.71800005 177 183 175 255
-0.092461884 -0.034672752 0.71700001 91 96 85 255
-0.090372682 -0.034626491 0.71600002 114 117 105 255
-0.088535592 -0.034676917 0.71700001 218 223 211 255
-0.086571962 -0.034678943 0.71700001 112 114 104 255
-0.084726006 -0.034729298 0.71800005 97 99 91 255
-0.082874261 -0.034779627 0.71900004 195 196 190 255
-0.081129245 -0.034878291 0.72100002 206 210 203 255
-0.079263188 -0.034928553 0.72200006 161 167 160 255
-0.077177249 -0.034882024 0.72100002 171 179 172 255
-0.075096518 -0.034835447 0.72000003 160 168 161 255
-0.073020965 -0.034788825 0.71900004 139 145 137 255
-0.071148247 -0.034838933 0.72000003 122 129 118 255
-0.069173694 -0.034840614 0.72000003 122 127 115 255
-0.067198873 -0.034842253 0.72000003 112 117 105 255
-0.065314367 -0.034892239 0.72100002 109 114 102 255
-0.063248426 -0.034845401 0.72000003 110 112 102 255
-0.061017524 -0.034701716 0.71700001 112 114 106 255
-0.058720484 -0.034509573 0.71300006 135 137 129 255
-0.056604385 -0.03441418 0.71100003 146 147 141 255
-0.054652773 -0.034415539 0.71100003 152 153 147 255
-0.052552696 -0.034320045 0.70900005 151 155 148 255
-0.050534748 -0.034272902 0.708 144 148 141 255
-0.048453469 -0.034177303 0.70600003 141 145 137 255
-0.046514735 -0.034178477 0.70600003 140 144 136 255
-0.04451267 -0.034131192 0.70500004 130 134 127 255
-0.042636704 -0.034180686 0.70600003 130 134 127 255
-0.040870354 -0.034326971 0.70900005 120 122 114 255
-0.039142247 -0.034521636 0.71300006 87 88 82 255
-0.037444152 -0.034764685 0.71800005 104 105 99 255
-0.035570212 -0.034862433 0.72000003 108 110 102 255
-0.033545166 -0.034814876 0.71900004 113 115 105 255
-0.031569388 -0.034815695 0.71900004 119 121 113 255
-0.029552311 -0.034768037 0.71800005 126 127 121 255
-0.027502194 -0.03467191 0.71600002 127 128 122 255
-0.025391631 -0.034478877 0.71200001 136 136 128 255
-0.023467513 -0.034527916 0.71300006 137 134 127 255
-0.021507634 -0.034528486 0.71300006 135 132 125 255
-0.019575082 -0.034577433 0.71400005 132 129 122 255
-0.017612277 -0.034577906 0.71400005 134 132 122 255
-0.015649397 -0.034578323 0.71400005 129 126 119 255
-0.01370562 -0.034627125 0.71500003 128 125 119 255
-0.011756282 -0.034675874 0.71600002 126 125 119 255
-0.0097877262 -0.034676146 0.71600002 124 123 117 255
-0.0077972882 -0.034579512 0.71400005 126 127 121 255
-0.0058178133 -0.034482822 0.71200001 131 128 121 255
-0.0038547339 -0.034434516 0.71100003 115 113 103 255
-0.00190248 -0.034483019 0.71200001 106 104 93 255
5.5358334e-05 -0.034579907 0.71400005 94 92 74 255
0.0020213677 -0.034628309 0.71500003 80 76 59 255
0.0039705606 -0.034482941 0.71200001 84 79 58 255
0.0059115659 -0.034385953 0.71000004 86 82 58 255
0.0078526242 -0.034337349 0.70900005 85 80 59 255
0.0098296227 -0.034433987 0.71100003 66 61 41 255
0.011817577 -0.034530573 0.71300006 43 39 22 255
0.013777831 -0.034530248 0.71300006 49 46 30 255
0.015715951 -0.03448144 0.71200001 44 40 29 255
0.01767333 -0.034481023 0.71200001 44 40 30 255
0.019658202 -0.034528978 0.71300006 46 42 31 255
0.021648487 -0.034576882 0.71400005 53 49 38 255
0.023611108 -0.034576308 0.71400005 48 44 33 255
0.025609447 -0.034624115 0.71500003 42 39 23 255
0.027574606 -0.034623444 0.71500003 44 41 25 255
0.029622275 -0.034719571 0.71700001 47 43 26 255
0.03163676 -0.034767229 0.71800005 66 60 43 255
0.033750214 -0.034911674 0.72100002 74 68 51 255
0.035731342 -0.034910802 0.72100002 77 72 52 255
0.037712317 -0.034909885 0.72100002 71 65 48 255
0.039638087 -0.034860503 0.72000003 80 76 59 255
0.041558195 -0.034811072 0.71900004 75 73 55 255
0.04353318 -0.034810014 0.71900004 74 71 55 255
0.045571275 -0.034857325 0.72000003 79 76 60 255
0.047614675 -0.034904581 0.72100002 77 74 58 255
0.04973216 -0.035000205 0.72300005 73 71 53 255
0.05164583 -0.034950547 0.72200006 62 60 42 255
0.053479511 -0.034852438 0.72000003 59 55 38 255
0.055301998 -0.034754295 0.71800005 49 45 28 255
0.057193045 -0.034704514 0.71700001 51 46 26 255
0.0593259 -0.034799892 0.71900004 54 48 31 255
0.061213739 -0.034750029 0.71800005 50 45 25 255
0.063271835 -0.03479692 0.71900004 59 54 33 255
0.065425918 -0.034892153 0.72100002 56 53 33 255
0.067497224 -0.034938946 0.72200006 47 43 26 255
0.069573745 -0.034985688 0.72300005 52 50 32 255
0.071556509 -0.034983996 0.72300005 55 53 35 255
0.073742427 -0.035079036 0.72500002 59 57 39 255
0.075834557 -0.035125639 0.72600001 45 41 24 255
0.077824697 -0.035123821 0.72600001 47 43 26 255
0.079924472 -0.035170339 0.72700006 42 39 19 255
0.082029425 -0.035216812 0.72800004 45 42 22 255
0.08425495 -0.03531161 0.73000002 46 43 22 255
0.086372972 -0.035357986 0.73100001 48 46 22 255
0.088133469 -0.035259224 0.72900003 48 46 22 255
0.090129949 -0.035257168 0.72900003 53 50 30 255
0.092378847 -0.035351787 0.73100001 50 48 28 255
0.094509251 -0.035398006 0.73200005 50 46 29 255
0.096644767 -0.035444181 0.73300004 52 49 33 255
0.098516278 -0.035393611 0.73200005 45 42 26 255
0.10051926 -0.035391361 0.73200005 43 40 24 255
0.10238183 -0.035340726 0.73100001 49 47 29 255
0.10423858 -0.035290074 0.73000002 45 43 23 255
0.10652609 -0.035384409 0.73200005 43 42 20 255
0.10837938 -0.035333689 0.73100001 47 45 25 255
0.11052882 -0.035379611 0.73200005 48 46 26 255
0.11222218 -0.035280511 0.73000002 62 60 40 255
0.1143736 -0.035326369 0.73100001 67 65 45 255
0.11605255 -0.035227224 0.72900003 71 67 50 255
0.11788212 -0.035176385 0.72800004 77 73 56 255
0.11970582 -0.035125524 0.72700006 83 79 62 255
0.12202585 -0.035219576 0.72900003 80 76 59 255
0.12418632 -0.035265286 0.73000002 77 73 57 255
0.12635183 -0.035310958 0.73100001 68 65 51 255
0.12869802 -0.035404906 0.73300004 70 67 53 255
0.13087642 -0.035450514 0.73400003 69 66 50 255
0.13269782 -0.0353995 0.73300004 77 75 57 255
0.1343296 -0.035300188 0.73100001 76 74 56 255
0.13632305 -0.035297435 0.73100001 67 65 45 255
0.13831611 -0.035294667 0.73100001 60 58 38 255
0.14050074 -0.03534016 0.73200005 47 45 25 255
0.14230107 -0.035289072 0.73100001 53 51 31 255
0.14409558 -0.035237972 0.73000002 49 47 29 255
0.14608434 -0.035235129 0.73000002 49 45 28 255
0.14807272 -0.035232279 0.73000002 51 49 31 255
0.15026626 -0.035277661 0.73100001 48 46 28 255
0.15225658 -0.03527477 0.73100001 47 45 27 255
0.15424652 -0.035271868 0.73100001 47 43 26 255
0.15602234 -0.035220705 0.73000002 48 44 27 255
0.15779233 -0.035169538 0.72900003 61 57 40 255
0.15977567 -0.035166606 0.72900003 78 74 57 255
0.16198054 -0.035211902 0.73000002 79 77 59 255
0.16396584 -0.035208948 0.73000002 78 76 58 255
0.16572343 -0.035157755 0.72900003 61 59 41 255
0.16747524 -0.03510657 0.72800004 60 57 41 255
0.16945398 -0.0351036 0.72800004 52 50 32 255
0.17190334 -0.035197053 0.73000002 54 52 34 255
0.174125 -0.035242278 0.73100001 57 53 36 255
0.17611083 -0.035239283 0.73100001 55 51 34 255
0.17809632 -0.035236292 0.73100001 57 53 36 255
0.18082051 -0.035377894 0.73400003 56 53 33 255
0.18331155 -0.035471272 0.73600006 64 59 39 255
0.18606493 -0.035612825 0.73900002 66 63 43 255
0.18807074 -0.035609797 0.73900002 67 65 47 255
0.19084787 -0.035751317 0.74200004 79 77 59 255
0.19390088 -0.035940994 0.74600005 86 83 67 255
0.19697526 -0.036130648 0.75000006 90 89 75 255
0.2011324 -0.036512949 0.75800002 90 91 77 255
0.20640488 -0.037087858 0.77000004 89 92 80 255
-0.2681039 -0.039616317 0.78000003 213 220 219 255
-0.26258317 -0.039111018 0.77000004 205 212 208 255
-0.25948471 -0.038961276 0.76700002 191 196 192 255
-0.25472447 -0.038557544 0.75900006 176 180 173 255
-0.25067323 -0.038255408 0.75300002 190 194 187 255
-0.24797523 -0.038156494 0.75100005 190 194 187 255
-0.24594299 -0.038159225 0.75100005 191 195 188 255
-0.24423541 -0.038212806 0.75200003 192 195 191 255
-0.24187824 -0.038164791 0.75100005 191 194 190 255
-0.23952636 -0.038116802 0.75000006 182 185 182 255
-0.23749647 -0.038119663 0.75000006 191 194 191 255
-0.23546641 -0.038122546 0.75000006 189 192 189 255
-0.23374747 -0.038176298 0.75100005 183 186 182 255
-0.23171441 -0.038179245 0.75100005 185 188 184 255
-0.22998708 -0.038233057 0.75200003 185 188 184 255
-0.22764787 -0.038185216 0.75100005 183 186 183 255
-0.22531393 -0.038137391 0.75000006 179 182 179 255
-0.22328287 -0.038140431 0.75000006 178 181 177 255
-0.22125162 -0.03814349 0.75000006 188 189 185 255
-0.21951246 -0.038197432 0.75100005 183 187 180 255
-0.21747808 -0.038200535 0.75100005 181 185 178 255
-0.21544343 -0.038203657 0.75100005 176 182 175 255
-0.21312444 -0.038155925 0.75000006 169 175 168 255
-0.21081054 -0.038108189 0.74900001 168 175 171 255
-0.20822312 -0.038009584 0.74700004 184 191 187 255
-0.20564623 -0.037910972 0.74500006 186 191 187 255
-0.20362656 -0.037914142 0.74500006 189 194 190 255
-0.20160663 -0.03791732 0.74500006 188 193 189 255
-0.19985427 -0.037971403 0.74600005 188 194 187 255
-0.19783105 -0.037974603 0.74600005 177 182 178 255
-0.19554502 -0.037926901 0.74500006 165 171 164 255
-0.19326405 -0.037879191 0.74400002 163 169 162 255
-0.1912453 -0.037882399 0.74400002 144 149 145 255
-0.18922621 -0.037885617 0.74400002 146 152 145 255
-0.18771002 -0.037990682 0.74600005 147 153 146 255
-0.18568484 -0.037993908 0.74600005 151 157 150 255
-0.18390551 -0.03804807 0.74700004 140 144 137 255
-0.1818769 -0.038051292 0.74700004 125 129 122 255
-0.17984794 -0.038054522 0.74700004 139 143 136 255
-0.17805669 -0.038108695 0.74800003 148 152 145 255
-0.17602429 -0.038111921 0.74800003 163 167 160 255
-0.17375892 -0.038064189 0.74700004 166 172 165 255
-0.17172851 -0.0380674 0.74700004 165 171 164 255
-0.16924338 -0.037968677 0.74500006 168 174 167 255
-0.16721764 -0.037971862 0.74500006 178 182 175 255
-0.16496979 -0.03792407 0.74400002 190 194 187 255
-0.16272701 -0.03787626 0.74300003 177 180 176 255
-0.16048928 -0.037828423 0.74200004 179 182 178 255
-0.15804303 -0.037729584 0.74000001 190 194 187 255
-0.15560727 -0.037630722 0.73800004 181 187 180 255
-0.15297389 -0.037480827 0.73500001 179 185 178 255
-0.15056185 -0.037381895 0.73300004 184 190 183 255
-0.14856569 -0.037384938 0.73300004 185 191 184 255
-0.14656915 -0.03738796 0.73300004 160 166 159 255
-0.1445722 -0.037390966 0.73300004 154 160 153 255
-0.14218582 -0.037291918 0.73100001 180 184 177 255
-0.14000176 -0.037243865 0.73000002 160 164 157 255
-0.13782276 -0.037195779 0.72900003 155 161 154 255
-0.13583514 -0.037198689 0.72900003 161 167 160 255
-0.13384713 -0.037201583 0.72900003 158 164 157 255
-0.13185875 -0.037204452 0.72900003 159 165 158 255
-0.12969182 -0.037156254 0.72800004 162 166 159 255
-0.12770537 -0.037159074 0.72800004 159 163 156 255
-0.12589122 -0.037212908 0.72900003 180 184 177 255
-0.12407123 -0.037266728 0.73000002 164 168 161 255
-0.12174372 -0.03716737 0.72800004 166 170 163 255
-0.11959124 -0.03711902 0.72700006 162 166 159 255
-0.11728205 -0.037019577 0.72500002 154 158 151 255
-0.11546054 -0.037073288 0.72600001 167 171 164 255
-0.11316428 -0.036973763 0.72400004 142 146 139 255
-0.11118572 -0.036976345 0.72400004 132 138 131 255
-0.1089051 -0.036876742 0.72200006 122 128 121 255
-0.10693127 -0.036879249 0.72200006 103 109 102 255
-0.10452097 -0.036728479 0.71900004 75 81 74 255
-0.1025546 -0.036730908 0.71900004 155 159 152 255
-0.10030808 -0.03663113 0.71700001 129 135 128 255
-0.098346509 -0.036633484 0.71700001 86 90 83 255
-0.096250162 -0.036584713 0.71600002 177 181 174 255
-0.094290629 -0.036587 0.71600002 106 112 104 255
-0.092330761 -0.036589246 0.71600002 90 97 86 255
-0.090370551 -0.036591459 0.71600002 135 140 129 255
-0.088410005 -0.036593627 0.71600002 108 110 100 255
-0.086449154 -0.036595762 0.71600002 111 113 105 255
-0.084487975 -0.036597855 0.71600002 204 203 197 255
-0.082641743 -0.036651026 0.71700001 200 199 193 255
-0.080902256 -0.03675529 0.71900004 120 124 117 255
-0.079041712 -0.036808394 0.72000003 167 171 164 255
-0.076961301 -0.036759216 0.71900004 180 186 179 255
-0.074886091 -0.036709987 0.71800005 157 165 158 255
-0.072816059 -0.036660708 0.71700001 141 150 139 255
-0.070850044 -0.036662515 0.71700001 125 132 120 255
-0.068883769 -0.036664281 0.71700001 120 125 111 255
-0.067010544 -0.036717143 0.71800005 114 119 105 255
-0.065131575 -0.03676996 0.71900004 112 117 105 255
-0.063246854 -0.036822744 0.72000003 110 115 104 255
-0.061186202 -0.03677319 0.71900004 108 112 104 255
-0.058883723 -0.036570147 0.71500003 123 125 115 255
-0.056762189 -0.03646934 0.71300006 128 129 123 255
-0.054728255 -0.036419623 0.71200001 133 134 128 255
-0.052625485 -0.036318712 0.71000004 133 137 130 255
-0.050533473 -0.036217742 0.708 128 132 125 255
-0.048520867 -0.036167871 0.70700002 127 131 124 255
-0.04651355 -0.036117956 0.70600003 132 136 128 255
-0.044511538 -0.036067981 0.70500004 138 142 134 255
-0.042514838 -0.036017966 0.70400006 136 140 132 255
-0.040581092 -0.036019053 0.70400006 136 137 131 255
-0.038866758 -0.036224749 0.708 107 111 104 255
-0.037182443 -0.036481582 0.71300006 98 99 93 255
-0.035421092 -0.036687203 0.71700001 102 103 97 255
-0.033450995 -0.036688115 0.71700001 110 112 104 255
-0.031436853 -0.036637805 0.71600002 120 120 112 255
-0.029428074 -0.036587443 0.71500003 126 125 119 255
-0.027386256 -0.036485855 0.71300006 130 127 120 255
-0.025319647 -0.036333036 0.71000004 137 134 127 255
-0.02340108 -0.036384854 0.71100003 137 137 129 255
-0.021476913 -0.036436629 0.71200001 135 135 127 255
-0.019574573 -0.036539529 0.71400005 131 131 123 255
-0.017611817 -0.03654002 0.71400005 133 133 125 255
-0.015670905 -0.036591642 0.71500003 131 130 124 255
-0.013724429 -0.036643211 0.71600002 126 125 119 255
-0.011755977 -0.036643557 0.71600002 128 127 121 255
-0.009746464 -0.03649031 0.71300006 125 124 118 255
-0.0077534043 -0.036337007 0.71000004 126 125 119 255
-0.0058013201 -0.036337186 0.71000004 123 121 111 255
-0.0038546331 -0.036388494 0.71100003 110 108 98 255
-0.0019024304 -0.03643975 0.71200001 94 91 77 255
5.5201828e-05 -0.036439776 0.71200001 91 88 72 255
0.0020100067 -0.036388569 0.71100003 87 83 66 255
0.0039537279 -0.036286131 0.70900005 87 82 62 255
0.0058947597 -0.036234815 0.708 75 70 50 255
0.0078524183 -0.036285818 0.70900005 72 69 49 255
0.0098155411 -0.036336757 0.71000004 62 58 41 255
0.01178412 -0.036387645 0.71100003 44 41 25 255
0.013738825 -0.036387306 0.71100003 43 40 24 255
0.015693469 -0.036386911 0.71100003 47 44 30 255
0.017623225 -0.036335286 0.71000004 44 41 27 255
0.019630119 -0.036437146 0.71200001 40 37 23 255
0.021617606 -0.036487773 0.71300006 43 40 26 255
0.023610499 -0.036538344 0.71400005 43 39 25 255
0.02553715 -0.036486514 0.71300006 48 44 28 255
0.027535329 -0.036536984 0.71400005 51 47 30 255
0.029580202 -0.036638573 0.71600002 50 44 27 255
0.031547818 -0.036637757 0.71600002 56 50 33 255
0.033608921 -0.036739238 0.71800005 68 62 45 255
0.03563131 -0.036789492 0.71900004 73 67 50 255
0.037606746 -0.036788527 0.71900004 71 65 48 255
0.039526969 -0.036736343 0.71800005 69 65 48 255
0.041441534 -0.036684114 0.71700001 67 65 47 255
0.043532066 -0.036785327 0.71900004 62 60 42 255
0.045570109 -0.03683532 0.72000003 59 57 39 255
0.047613468 -0.036885262 0.72100002 54 52 34 255
0.049524546 -0.036832839 0.72000003 52 49 33 255
0.051429927 -0.036780369 0.71900004 50 47 31 255
0.053255331 -0.036676705 0.71700001 46 44 26 255
0.055223584 -0.0366753 0.71700001 49 47 29 255
0.057111844 -0.036622703 0.71600002 48 44 27 255
0.05924191 -0.036723502 0.71800005 48 45 25 255
0.061212216 -0.03672196 0.71800005 51 48 27 255
0.063270263 -0.036771506 0.71900004 53 50 29 255
0.065333553 -0.036821011 0.72000003 53 48 27 255
0.067402065 -0.036870461 0.72100002 54 51 31 255
0.069379576 -0.036868725 0.72100002 50 46 29 255
0.071455784 -0.036918081 0.72200006 52 48 31 255
0.073537193 -0.036967389 0.72300005 57 55 37 255
0.075519353 -0.036965515 0.72300005 49 47 29 255
0.077608414 -0.03701473 0.72400004 45 43 23 255
0.07970266 -0.0370639 0.72500002 50 48 24 255
0.081914768 -0.037164137 0.72700006 48 45 24 255
0.084022105 -0.037213206 0.72800004 49 46 25 255
0.086134605 -0.037262227 0.72900003 47 44 23 255
0.088010482 -0.037208978 0.72800004 47 44 24 255
0.090127811 -0.037257917 0.72900003 47 45 27 255
0.092376657 -0.037357908 0.73100001 50 48 30 255
0.094507016 -0.037406754 0.73200005 53 51 33 255
0.096378811 -0.037353352 0.73100001 47 44 28 255
0.098110229 -0.037248828 0.72900003 46 44 26 255
0.099967659 -0.037195373 0.72800004 45 43 25 255
0.10195932 -0.037192982 0.72800004 51 49 31 255
0.1040934 -0.03724163 0.72900003 50 49 27 255
0.10623261 -0.037290249 0.73000002 52 51 29 255
0.10822866 -0.037287738 0.73000002 69 68 46 255
0.11007335 -0.037234128 0.72900003 71 70 48 255
0.11191221 -0.037180491 0.72800004 75 74 52 255
0.11390167 -0.037177894 0.72800004 77 75 55 255
0.11589078 -0.037175268 0.72800004 76 74 56 255
0.11755565 -0.037070487 0.72600001 74 72 54 255
0.11953854 -0.037067812 0.72600001 59 55 38 255
0.12168843 -0.037116162 0.72700006 58 54 37 255
0.12384341 -0.037164476 0.72800004 54 50 33 255
0.12583059 -0.037161708 0.72800004 51 47 30 255
0.12816855 -0.037260998 0.73000002 51 49 31 255
0.13033873 -0.037309211 0.73100001 52 49 33 255
0.13215192 -0.037255321 0.73000002 73 71 53 255
0.13377552 -0.037150387 0.72800004 85 83 63 255
0.13576077 -0.0371475 0.72800004 77 75 55 255
0.13774562 -0.03714459 0.72800004 59 58 36 255
0.13992204 -0.03719268 0.72900003 58 57 33 255
0.14171422 -0.037138715 0.72800004 49 46 25 255
0.14350051 -0.037084736 0.72700006 51 48 27 255
0.14568119 -0.037132755 0.72800004 48 46 26 255
0.1476641 -0.037129752 0.72800004 47 45 25 255
0.14985219 -0.037177727 0.72900003 47 45 27 255
0.15183707 -0.037174691 0.72900003 51 49 31 255
0.15382153 -0.037171636 0.72900003 48 46 28 255
0.15580562 -0.03716857 0.72900003 42 40 22 255
0.15778933 -0.037165489 0.72900003 48 44 27 255
0.15977266 -0.037162397 0.72900003 57 55 37 255
0.16153373 -0.037108324 0.72800004 70 68 50 255
0.163289 -0.037054248 0.72700006 86 84 66 255
0.16549307 -0.0371021 0.72800004 72 69 53 255
0.1674722 -0.037098978 0.72800004 59 56 40 255
0.16921818 -0.037044894 0.72700006 63 60 44 255
0.17119384 -0.037041761 0.72700006 53 50 34 255
0.17316917 -0.037038624 0.72700006 66 64 46 255
0.17586686 -0.03718831 0.73000002 66 64 46 255
0.17784962 -0.037185155 0.73000002 47 43 26 255
0.1808174 -0.037385736 0.73400003 44 40 23 255
0.18305941 -0.037433498 0.73500001 49 45 28 255
0.18555827 -0.037532169 0.73700005 60 57 37 255
0.18755865 -0.037528984 0.73700005 70 66 49 255
0.19007315 -0.037627637 0.73900002 77 73 56 255
0.19285809 -0.037777189 0.74200004 72 70 52 255
0.19565898 -0.037926722 0.74500006 81 79 61 255
0.19900651 -0.038178034 0.75000006 83 82 66 255
0.20291696 -0.038531121 0.75700003 90 91 77 255
-0.27159759 -0.041955527 0.78400004 214 221 220 255
-0.26466402 -0.041209005 0.77000004 202 209 206 255
-0.26053441 -0.040890604 0.76400006 192 197 193 255
-0.25745213 -0.040732786 0.76100004 187 193 186 255
-0.25337932 -0.0404144 0.75500005 178 184 177 255
-0.24967182 -0.04014954 0.75000006 185 191 184 255
-0.24665169 -0.039991759 0.74700004 189 193 186 255
-0.2452852 -0.040101688 0.74900001 196 202 195 255
-0.24358304 -0.040158134 0.75000006 193 196 192 255
-0.24123119 -0.040107518 0.74900001 187 190 187 255
-0.23888472 -0.040056933 0.74800003 192 195 192 255
-0.23654354 -0.040006373 0.74700004 188 191 188 255
-0.23452158 -0.040009394 0.74700004 190 193 190 255
-0.23312195 -0.04011957 0.74900001 179 182 179 255
-0.23109432 -0.040122662 0.74900001 176 179 176 255
-0.22937234 -0.040179349 0.75000006 178 183 180 255
-0.22673541 -0.040075343 0.74800003 182 185 182 255
-0.22501038 -0.040132087 0.74900001 174 177 174 255
-0.22268431 -0.040081687 0.74800003 172 175 171 255
-0.22095345 -0.040138487 0.74900001 185 188 184 255
-0.2189247 -0.04014172 0.74900001 184 188 181 255
-0.21689573 -0.040144976 0.74900001 183 189 182 255
-0.2148665 -0.040148247 0.74900001 178 184 177 255
-0.21283704 -0.040151533 0.74900001 186 192 185 255
-0.21052589 -0.04010123 0.74800003 180 188 181 255
-0.20794116 -0.039997317 0.74600005 184 190 183 255
-0.20536695 -0.039893392 0.74400002 185 190 186 255
-0.20362329 -0.039950341 0.74500006 188 193 189 255
-0.20133273 -0.03990005 0.74400002 186 191 187 255
-0.19931521 -0.039903399 0.74400002 185 191 184 255
-0.19703217 -0.039853107 0.74300003 155 161 154 255
-0.19501676 -0.039856467 0.74300003 170 176 169 255
-0.19274126 -0.039806187 0.74200004 156 162 155 255
-0.1907279 -0.039809547 0.74200004 155 160 156 255
-0.18896858 -0.039866574 0.74300003 143 148 144 255
-0.18695188 -0.039869949 0.74300003 153 159 152 255
-0.18518373 -0.039926987 0.74400002 150 154 147 255
-0.18340982 -0.039984044 0.74500006 132 136 129 255
-0.18187359 -0.040094774 0.74700004 140 144 137 255
-0.17984463 -0.040098168 0.74700004 135 139 132 255
-0.17781533 -0.040101558 0.74700004 147 151 144 255
-0.17555034 -0.040051259 0.74600005 150 156 149 255
-0.17329043 -0.040000949 0.74500006 169 175 168 255
-0.17126545 -0.040004309 0.74500006 171 177 170 255
-0.1692401 -0.040007673 0.74500006 171 177 170 255
-0.16698994 -0.039957315 0.74400002 184 188 181 255
-0.16474481 -0.039906945 0.74300003 181 185 178 255
-0.16250476 -0.039856553 0.74200004 168 172 165 255
-0.16026977 -0.039806139 0.74100006 181 185 178 255
-0.1576127 -0.039648265 0.73800004 179 185 178 255
-0.15518241 -0.039544068 0.73600006 183 189 182 255
-0.15276261 -0.039439842 0.73400003 178 184 177 255
-0.15055872 -0.039389323 0.73300004 178 184 177 255
-0.14835992 -0.039338782 0.73200005 176 182 175 255
-0.14616613 -0.039288208 0.73100001 171 177 169 255
-0.1437802 -0.039183863 0.72900003 177 181 174 255
-0.14159927 -0.039133232 0.72800004 174 178 171 255
-0.13961519 -0.039136332 0.72800004 163 169 162 255
-0.13744166 -0.039085649 0.72700006 174 180 173 255
-0.13583218 -0.039196238 0.72900003 144 150 143 255
-0.13366057 -0.039145503 0.72800004 162 168 161 255
-0.13149408 -0.039094742 0.72700006 173 179 172 255
-0.12933263 -0.039043944 0.72600001 150 154 147 255
-0.12735164 -0.039046895 0.72600001 168 172 165 255
-0.125543 -0.039103616 0.72700006 173 177 170 255
-0.12355854 -0.039106518 0.72700006 165 169 162 255
-0.12140646 -0.039055593 0.72600001 160 164 157 255
-0.11942397 -0.039058443 0.72600001 151 155 148 255
-0.11727932 -0.039007451 0.72500002 156 160 153 255
-0.11513977 -0.038956426 0.72400004 148 152 145 255
-0.11284901 -0.038851548 0.72200006 142 146 139 255
-0.11072238 -0.038800437 0.72100002 143 149 142 255
-0.10860083 -0.038749289 0.72000003 136 142 135 255
-0.1066325 -0.038751919 0.72000003 134 140 133 255
-0.10451844 -0.038700689 0.71900004 151 157 150 255
-0.1024095 -0.038649421 0.71800005 93 97 90 255
-0.10016575 -0.038544271 0.71600002 96 100 93 255
-0.097932629 -0.03843908 0.71400005 152 158 151 255
-0.096113376 -0.038495351 0.71500003 83 87 80 255
-0.094024941 -0.038443908 0.71400005 113 119 111 255
-0.092070572 -0.038446262 0.71400005 176 182 174 255
-0.090115882 -0.038448583 0.71400005 60 64 56 255
-0.08816085 -0.038450856 0.71400005 125 127 119 255
-0.086205527 -0.038453098 0.71400005 195 196 190 255
-0.084131867 -0.038401436 0.71300006 103 104 98 255
-0.082409151 -0.038511313 0.71500003 152 153 147 255
-0.080562636 -0.03856729 0.71600002 214 218 211 255
-0.078710355 -0.03862324 0.71700001 203 209 202 255
-0.076531187 -0.038517535 0.71500003 144 150 143 255
-0.074571274 -0.03851952 0.71500003 154 162 154 255
-0.072611071 -0.038521461 0.71500003 139 148 137 255
-0.070749402 -0.038577236 0.71600002 128 135 123 255
-0.068689846 -0.038525213 0.71500003 122 127 113 255
-0.066728823 -0.038527016 0.71500003 121 126 112 255
-0.065039292 -0.038690437 0.71800005 111 116 104 255
-0.063157357 -0.038746044 0.71900004 115 120 108 255
-0.061269686 -0.038801607 0.72000003 108 113 101 255
-0.059046868 -0.03864155 0.71700001 109 114 102 255
-0.057079114 -0.038643125 0.71700001 118 123 112 255
-0.055034261 -0.038590752 0.71600002 120 124 117 255
-0.053068794 -0.038592223 0.71600002 123 127 120 255
-0.050960362 -0.03848584 0.71400005 125 129 122 255
-0.04879408 -0.038325496 0.71100003 111 115 108 255
-0.046644066 -0.038165089 0.708 111 113 105 255
-0.044573478 -0.038058531 0.70600003 118 122 114 255
-0.042513695 -0.037951916 0.70400006 131 133 123 255
-0.040580001 -0.037953064 0.70400006 139 141 133 255
-0.038646135 -0.037954159 0.70400006 139 141 133 255
-0.0369207 -0.038170852 0.708 140 142 134 255
-0.035173129 -0.038387511 0.71200001 111 112 106 255
-0.03331013 -0.038496297 0.71400005 106 105 99 255
-0.031304289 -0.038443279 0.71300006 116 116 108 255
-0.0293038 -0.038390201 0.71200001 127 124 117 255
-0.02727028 -0.038283151 0.71000004 132 130 120 255
-0.025318958 -0.038283888 0.71000004 134 132 122 255
-0.023400441 -0.038338494 0.71100003 135 135 125 255
-0.021476325 -0.038393043 0.71200001 130 130 120 255
-0.019546622 -0.038447544 0.71300006 130 132 124 255
-0.017611336 -0.038501989 0.71400005 120 122 114 255
-0.015670476 -0.038556378 0.71500003 125 126 120 255
-0.013704886 -0.038556788 0.71500003 125 124 118 255
-0.011722816 -0.038503222 0.71400005 125 124 118 255
-0.0097325258 -0.038395673 0.71200001 125 124 118 255
-0.0077531906 -0.038288068 0.71000004 121 121 113 255
-0.0058011608 -0.038288258 0.71000004 109 107 96 255
-0.0038545276 -0.038342319 0.71100003 100 99 85 255
-0.0018997062 -0.038342401 0.71100003 90 87 71 255
5.5045253e-05 -0.0382885 0.71000004 87 85 67 255
0.0020042979 -0.038234547 0.70900005 80 76 59 255
0.0039424663 -0.038126603 0.70700002 83 77 60 255
0.0058862725 -0.038126465 0.70700002 79 73 56 255
0.0078300526 -0.038126271 0.70700002 54 51 31 255
0.0098152719 -0.038287807 0.71000004 45 42 22 255
0.011767223 -0.038287502 0.71000004 50 48 30 255
0.013719127 -0.038287148 0.71000004 50 48 30 255
0.015648896 -0.038232807 0.70900005 41 38 22 255
0.017622743 -0.038286261 0.71000004 38 35 19 255
0.019602014 -0.038339663 0.71100003 45 41 24 255
0.021586698 -0.038393009 0.71200001 47 43 27 255
0.023543717 -0.03839238 0.71200001 47 41 25 255
0.025536455 -0.038445614 0.71300006 59 53 36 255
0.027496018 -0.038444873 0.71300006 57 51 34 255
0.02949677 -0.038497996 0.71400005 50 44 27 255
0.031414781 -0.03844323 0.71300006 48 42 25 255
0.03346758 -0.038550157 0.71500003 44 38 21 255
0.035531234 -0.038657028 0.71700001 48 42 25 255
0.037605729 -0.038763847 0.71900004 52 46 29 255
0.0395259 -0.038708862 0.71800005 49 45 28 255
0.041498218 -0.038707748 0.71800005 51 49 31 255
0.043470353 -0.038706571 0.71800005 46 44 26 255
0.045505598 -0.038759254 0.71900004 49 47 29 255
0.047414083 -0.038704075 0.71800005 53 53 35 255
0.049316868 -0.038648836 0.71700001 49 47 29 255
0.051357035 -0.03870137 0.71800005 50 48 30 255
0.053253915 -0.038646039 0.71700001 41 39 21 255
0.05522212 -0.03864456 0.71700001 48 46 28 255
0.05703057 -0.038535248 0.71500003 46 42 25 255
0.059157841 -0.038641464 0.71700001 46 43 23 255
0.061125349 -0.03863984 0.71700001 48 45 24 255
0.063356601 -0.038799837 0.72000003 46 43 22 255
0.065513328 -0.038905885 0.72200006 45 42 22 255
0.067587271 -0.038957987 0.72300005 52 48 31 255
0.069570228 -0.038956158 0.72300005 47 43 26 255
0.071453936 -0.038900409 0.72200006 48 44 27 255
0.0734336 -0.03889849 0.72200006 52 50 32 255
0.075308509 -0.038842652 0.72100002 48 46 26 255
0.077392049 -0.038894515 0.72200006 49 47 27 255
0.079370841 -0.038892467 0.72200006 48 45 24 255
0.081574671 -0.038998093 0.72400004 51 48 28 255
0.08378914 -0.039103668 0.72600001 47 45 25 255
0.085777976 -0.039101478 0.72600001 47 44 24 255
0.08764559 -0.039045382 0.72500002 47 45 27 255
0.090001933 -0.039204672 0.72800004 47 45 27 255
0.092247993 -0.039310038 0.73000002 47 45 27 255
0.094117366 -0.03925382 0.72900003 45 44 28 255
0.095717229 -0.039089881 0.72600001 51 48 32 255
0.09756951 -0.039033607 0.72500002 48 46 28 255
0.099690586 -0.039084971 0.72600001 47 45 27 255
0.10181679 -0.039136291 0.72700006 53 51 33 255
0.1039481 -0.039187569 0.72800004 53 51 31 255
0.10593902 -0.039184976 0.72800004 71 70 48 255
0.10792957 -0.039182346 0.72800004 80 79 57 255
0.10976876 -0.039125871 0.72700006 78 76 56 255
0.11175584 -0.039123174 0.72700006 69 67 47 255
0.11358608 -0.039066635 0.72600001 68 66 48 255
0.11572888 -0.03911769 0.72700006 60 58 40 255
0.11739102 -0.039007295 0.72500002 60 58 40 255
0.11953577 -0.039058279 0.72600001 49 47 29 255
0.12135088 -0.039001644 0.72500002 41 39 21 255
0.12333024 -0.038998771 0.72500002 48 46 28 255
0.12530923 -0.038995877 0.72500002 50 48 30 255
0.12728782 -0.038992953 0.72500002 49 47 29 255
0.12962264 -0.039097559 0.72700006 46 44 26 255
0.13178693 -0.039148346 0.72800004 54 52 34 255
0.13340506 -0.039037794 0.72600001 66 62 45 255
0.13538483 -0.039034765 0.72600001 73 70 50 255
0.13736421 -0.039031714 0.72600001 73 72 50 255
0.13953516 -0.039082401 0.72700006 68 67 45 255
0.14132184 -0.039025545 0.72600001 59 58 36 255
0.14330006 -0.039022435 0.72600001 53 52 30 255
0.14547801 -0.03907305 0.72700006 48 47 25 255
0.14725535 -0.03901615 0.72600001 50 48 28 255
0.14943799 -0.039066724 0.72700006 45 43 25 255
0.15120909 -0.039009798 0.72600001 49 47 29 255
0.1533964 -0.039060332 0.72700006 44 42 24 255
0.15537502 -0.039057113 0.72700006 45 43 25 255
0.1573533 -0.039053887 0.72700006 47 45 27 255
0.15933117 -0.039050646 0.72700006 44 42 24 255
0.16108678 -0.038993683 0.72600001 50 48 30 255
0.16283658 -0.038936716 0.72500002 69 69 51 255
0.16458058 -0.038879756 0.72400004 91 88 72 255
0.16631877 -0.038822792 0.72300005 84 82 64 255
0.16828394 -0.038819525 0.72300005 59 56 40 255
0.1704842 -0.038869936 0.72400004 57 54 38 255
0.17268954 -0.038920335 0.72500002 66 64 46 255
0.17538181 -0.039078083 0.72800004 66 62 45 255
0.17760277 -0.039128453 0.72900003 46 43 27 255
0.18007514 -0.039232474 0.73100001 54 50 33 255
0.18255803 -0.03933648 0.73300004 54 50 33 255
0.18505146 -0.039440468 0.73500001 55 51 34 255
0.18730089 -0.039490789 0.73600006 54 50 33 255
0.18955547 -0.039541099 0.73700005 72 68 51 255
0.19233496 -0.039698698 0.74000001 69 65 48 255
0.19513044 -0.039856281 0.74300003 69 67 49 255
0.19847251 -0.040121108 0.74800003 71 68 54 255
0.2015734 -0.040332276 0.75200003 84 82 71 255
0.20659098 -0.040918808 0.76300001 95 95 85 255
-0.27336729 -0.044035062 0.78300005 218 225 224 255
-0.2670913 -0.04336296 0.77100003 202 209 208 255
-0.26294267 -0.043028299 0.76500005 195 200 197 255
-0.25916758 -0.042749893 0.76000005 193 198 194 255
-0.25609609 -0.042583998 0.75700003 192 196 189 255
-0.25203407 -0.042249359 0.75100005 173 177 170 255
-0.24867027 -0.042027235 0.74700004 183 189 182 255
-0.24565825 -0.041861385 0.74400002 185 189 182 255
-0.24462731 -0.042033173 0.74700004 188 194 187 255
-0.24260572 -0.042036198 0.74700004 180 183 179 255
-0.24090612 -0.042095538 0.74800003 192 195 191 255
-0.23824294 -0.041986074 0.74600005 187 190 186 255
-0.23622379 -0.041989207 0.74600005 185 188 184 255
-0.23420452 -0.041992366 0.74600005 189 192 188 255
-0.23249632 -0.042051848 0.74700004 189 192 188 255
-0.23047405 -0.042055078 0.74700004 179 182 178 255
-0.22875749 -0.042114634 0.74800003 171 177 170 255
-0.22612597 -0.042005312 0.74600005 177 183 176 255
-0.22440633 -0.042064928 0.74700004 175 181 174 255
-0.22208565 -0.042011943 0.74600005 178 184 177 255
-0.22006521 -0.042015295 0.74600005 185 189 182 255
-0.21833682 -0.042074993 0.74700004 171 176 172 255
-0.21631321 -0.042078394 0.74700004 172 178 171 255
-0.21457627 -0.042138152 0.74800003 189 195 188 255
-0.21226534 -0.042085253 0.74700004 184 190 183 255
-0.20995958 -0.042032365 0.74600005 181 187 180 255
-0.20765902 -0.041979484 0.74500006 181 187 180 255
-0.20508751 -0.041870251 0.74300003 184 190 183 255
-0.20334658 -0.041930087 0.74400002 186 192 185 255
-0.20132932 -0.041933581 0.74400002 185 191 184 255
-0.19904387 -0.041880719 0.74300003 180 186 179 255
-0.19649839 -0.041771486 0.74100006 175 181 174 255
-0.19422591 -0.041718621 0.74000001 163 169 162 255
-0.19195855 -0.041665748 0.73900002 158 163 159 255
-0.18995336 -0.041669261 0.73900002 143 149 142 255
-0.18820214 -0.041729163 0.74000001 150 154 147 255
-0.18644519 -0.041789092 0.74100006 139 143 136 255
-0.18468247 -0.041849017 0.74200004 148 152 145 255
-0.18316014 -0.041965362 0.74400002 141 142 136 255
-0.18138319 -0.042025324 0.74500006 145 149 142 255
-0.17935966 -0.04202887 0.74500006 149 153 146 255
-0.17733581 -0.042032421 0.74500006 162 166 159 255
-0.17507625 -0.041979533 0.74400002 152 158 151 255
-0.17305437 -0.041983064 0.74400002 161 167 159 255
-0.17080224 -0.041930158 0.74300003 169 175 168 255
-0.16878234 -0.041933674 0.74300003 174 180 173 255
-0.16631319 -0.041824289 0.74100006 179 183 176 255
-0.16429795 -0.041827776 0.74100006 170 174 167 255
-0.16206335 -0.041774798 0.74000001 185 189 182 255
-0.15961754 -0.041665345 0.73800004 179 183 176 255
-0.15696867 -0.041499395 0.73500001 185 189 182 255
-0.15454654 -0.041389871 0.73300004 186 192 185 255
-0.15234306 -0.041336786 0.73200005 182 188 181 255
-0.15035006 -0.041340154 0.73200005 177 183 176 255
-0.14815396 -0.041287016 0.73100001 174 180 173 255
-0.14576299 -0.041177373 0.72900003 170 176 168 255
-0.14357977 -0.041124184 0.72800004 170 174 166 255
-0.14120707 -0.041014463 0.72600001 170 174 167 255
-0.13903669 -0.04096121 0.72500002 162 168 161 255
-0.13706042 -0.040964425 0.72500002 159 165 158 255
-0.1354564 -0.041080639 0.72700006 147 153 146 255
-0.13365749 -0.041140325 0.72800004 139 145 137 255
-0.13149101 -0.041086968 0.72700006 145 151 143 255
-0.12915143 -0.040977057 0.72500002 158 162 155 255
-0.12717323 -0.040980149 0.72500002 154 158 151 255
-0.12519464 -0.040983219 0.72500002 154 158 151 255
-0.12304571 -0.04092972 0.72400004 154 158 151 255
-0.1210691 -0.040932726 0.72400004 161 167 160 255
-0.11909209 -0.040935703 0.72400004 155 161 154 255
-0.11695293 -0.040882096 0.72300005 142 146 139 255
-0.11465985 -0.040771905 0.72100002 151 155 148 255
-0.11253364 -0.040718224 0.72000003 142 146 139 255
-0.11056606 -0.040721048 0.72000003 139 143 136 255
-0.10814562 -0.040554162 0.71700001 129 135 128 255
-0.10618553 -0.040556908 0.71700001 120 126 118 255
-0.10422507 -0.04055962 0.71700001 59 63 55 255
-0.10226426 -0.040562298 0.71700001 108 112 104 255
-0.10002331 -0.040451787 0.71500003 98 102 94 255
-0.097792976 -0.040341225 0.71300006 71 75 67 255
-0.095976487 -0.040400352 0.71400005 146 150 143 255
-0.093890809 -0.04034628 0.71300006 144 148 141 255
-0.091810279 -0.040292155 0.71200001 58 62 55 255
-0.089861102 -0.040294576 0.71200001 147 151 144 255
-0.087911598 -0.040296964 0.71200001 153 154 148 255
-0.085961774 -0.040299304 0.71200001 50 51 45 255
-0.083893642 -0.040245 0.71100003 173 174 168 255
-0.082176447 -0.040360466 0.71300006 210 211 205 255
-0.080110431 -0.040306065 0.71200001 128 132 125 255
-0.078378931 -0.040421464 0.71400005 170 176 169 255
-0.07631506 -0.040366974 0.71300006 193 199 192 255
-0.074569263 -0.040482286 0.71500003 182 188 181 255
-0.072507553 -0.040427707 0.71400005 144 149 138 255
-0.070549868 -0.040429693 0.71400005 129 134 123 255
-0.06849584 -0.040375009 0.71300006 126 131 119 255
-0.066633672 -0.040433519 0.71400005 123 126 112 255
-0.064856336 -0.040548626 0.71600002 120 124 107 255
-0.063067779 -0.040663693 0.71800005 115 119 102 255
-0.061012708 -0.040608808 0.71700001 113 117 100 255
-0.058962889 -0.040553872 0.71600002 116 121 107 255
-0.056918323 -0.040498879 0.71500003 118 123 112 255
-0.05495587 -0.04050047 0.71500003 118 124 116 255
-0.052993197 -0.040502008 0.71500003 124 130 122 255
-0.050958939 -0.040446851 0.71400005 126 132 124 255
-0.048861332 -0.040334981 0.71200001 121 125 117 255
-0.046774518 -0.040223055 0.71000004 119 124 113 255
-0.044761628 -0.040167727 0.70900005 116 121 109 255
-0.042754039 -0.040112328 0.708 118 123 111 255
-0.040694129 -0.040000226 0.70600003 124 129 117 255
-0.03864504 -0.039888062 0.70400006 139 142 130 255
-0.036711063 -0.039889153 0.70400006 140 141 129 255
-0.034925137 -0.040060181 0.70700002 136 137 125 255
-0.033075921 -0.040174495 0.70900005 111 111 101 255
-0.031171679 -0.0402321 0.71000004 118 116 106 255
-0.029179497 -0.040176317 0.70900005 127 125 114 255
-0.027231093 -0.040177144 0.70900005 131 129 118 255
-0.025353892 -0.04029125 0.71100003 136 134 123 255
-0.023399768 -0.040291965 0.71100003 133 133 123 255
-0.021475706 -0.040349294 0.71200001 124 124 114 255
-0.019518645 -0.040349901 0.71200001 129 129 121 255
-0.017586164 -0.040407117 0.71300006 125 126 120 255
-0.015670026 -0.040520951 0.71500003 126 127 121 255
-0.013685323 -0.04046471 0.71400005 123 125 117 255
-0.011706061 -0.04040841 0.71300006 123 125 117 255
-0.0097049074 -0.040238705 0.71000004 120 120 110 255
-0.0077529671 -0.040238965 0.71000004 114 115 103 255
-0.0058091637 -0.040295839 0.71100003 106 104 86 255
-0.0038544156 -0.040295981 0.71100003 84 82 64 255
-0.0018943079 -0.040182717 0.70900005 88 86 66 255
5.4888609e-05 -0.040126067 0.708 77 75 55 255
0.0019985861 -0.04006936 0.70700002 88 84 67 255
0.0039423527 -0.040069275 0.70700002 86 82 65 255
0.0058944281 -0.040125806 0.708 55 51 34 255
0.0078409007 -0.040125601 0.708 47 43 26 255
0.0098011652 -0.040182021 0.70900005 46 42 25 255
0.011750312 -0.040181696 0.70900005 49 47 29 255
0.013699409 -0.040181324 0.70900005 45 43 25 255
0.015648445 -0.040180888 0.70900005 45 43 25 255
0.017597416 -0.0401804 0.70900005 39 35 18 255
0.019573882 -0.040236525 0.71000004 39 33 16 255
0.021525443 -0.040235922 0.71000004 49 43 26 255
0.023476912 -0.040235259 0.71000004 50 44 27 255
0.025428278 -0.04023454 0.71000004 51 45 28 255
0.027418105 -0.040290434 0.71100003 53 47 30 255
0.029413305 -0.040346265 0.71200001 48 43 23 255
0.031369828 -0.040345378 0.71200001 49 44 24 255
0.033373017 -0.040401097 0.71300006 45 42 22 255
0.035431117 -0.040513419 0.71500003 47 44 24 255
0.037500054 -0.040625677 0.71700001 45 42 22 255
0.039414681 -0.040567901 0.71600002 47 45 25 255
0.041439243 -0.040623389 0.71700001 47 45 25 255
0.04334804 -0.040565506 0.71600002 42 42 24 255
0.045377739 -0.040620878 0.71700001 49 49 29 255
0.04728068 -0.04056289 0.71600002 42 42 24 255
0.04917793 -0.040504854 0.71500003 47 47 29 255
0.051141016 -0.040503416 0.71500003 44 42 24 255
0.05310389 -0.040501926 0.71500003 50 48 30 255
0.055143572 -0.040557027 0.71600002 49 47 29 255
0.057188507 -0.040612068 0.71700001 50 48 30 255
0.059156198 -0.040610414 0.71700001 48 45 25 255
0.061208915 -0.040665351 0.71800005 49 46 25 255
0.063266866 -0.040720232 0.71900004 50 47 27 255
0.065330051 -0.040775053 0.72000003 52 49 29 255
0.067398466 -0.040829819 0.72100002 50 47 27 255
0.06937588 -0.040827908 0.72100002 49 45 28 255
0.071353026 -0.040825948 0.72100002 50 47 27 255
0.073228188 -0.040767316 0.72000003 55 52 32 255
0.075410932 -0.040878501 0.72200006 56 55 33 255
0.07738997 -0.040876392 0.72200006 53 52 30 255
0.079478644 -0.040930856 0.72300005 53 52 30 255
0.081572488 -0.040985256 0.72400004 58 56 36 255
0.08378692 -0.041096222 0.72600001 53 51 33 255
0.085657552 -0.041037314 0.72500002 52 50 32 255
0.087764174 -0.041091572 0.72600001 53 51 33 255
0.089875944 -0.041145779 0.72700006 48 46 28 255
0.091992863 -0.041199941 0.72800004 48 46 28 255
0.093727611 -0.041084278 0.72600001 50 48 30 255
0.095451079 -0.040968589 0.72400004 51 49 31 255
0.097163282 -0.040852875 0.72200006 47 45 27 255
0.099413402 -0.040963449 0.72400004 44 42 24 255
