ply
format ascii 1.0
comment PCL generated
element vertex 901
property float x
property float y
property float z
property uchar red
property uchar green
property uchar blue
property uchar alpha
element camera 0
property float view_px
property float view_py
property float view_pz
property float x_axisx
property float x_axisy
property float x_axisz
property float y_axisx
property float y_axisy
property float y_axisz
property float z_axisx
property float z_axisy
property float z_axisz
property float focal
property float scalex
property float scaley
property float centerx
property float centery
property int viewportx
property int viewporty
property float k1
property float k2
end_header
0.060553141 0.017744984 0.68800002 141 145 138 255
0.062713221 0.017821556 0.69100004 139 143 135 255
0.064889498 0.017898099 0.69400001 136 138 130 255
0.06708198 0.017974613 0.69700003 134 136 128 255
0.06948863 0.018102672 0.70200002 133 135 125 255
0.071718976 0.018179124 0.70500004 115 117 109 255
0.073861018 0.018229762 0.70700002 117 117 109 255
0.076120965 0.018306157 0.71000004 113 113 105 255
0.078507014 0.018408306 0.71400005 74 74 66 255
0.080914676 0.018510422 0.71800005 77 75 65 255
0.083459407 0.018638285 0.72300005 73 71 60 255
0.086149372 0.018791886 0.72900003 73 70 56 255
0.088750996 0.018919678 0.73400003 70 67 51 255
0.091132365 0.018995883 0.73700005 70 68 50 255
0.09390901 0.01914938 0.74300003 80 78 60 255
0.096847303 0.019328609 0.75000006 83 80 64 255
0.10021915 0.019585101 0.76000005 80 79 63 255
0.1036454 0.019841546 0.77000004 75 76 62 255
-0.046873432 0.018742852 0.81300002 222 231 236 255
-0.044200413 0.018558964 0.80500007 214 225 230 255
-0.041623324 0.018398095 0.79800004 92 102 111 255
-0.039331589 0.018352469 0.79600006 104 114 123 255
-0.037004013 0.018283762 0.79300004 99 111 120 255
-0.034780607 0.018261138 0.79200006 96 108 115 255
-0.032562535 0.018238487 0.79100001 99 112 117 255
-0.030349834 0.018215813 0.79000002 103 118 124 255
-0.028106824 0.018170049 0.78800005 96 111 117 255
-0.025874689 0.018124262 0.78600001 97 108 113 255
-0.023623271 0.018055385 0.78300005 94 103 108 255
-0.021388242 0.017986478 0.78000003 94 100 103 255
-0.019169621 0.017917546 0.77700001 85 86 90 255
-0.016989335 0.017871646 0.77500004 70 72 54 255
-0.014858319 0.017871842 0.77500004 62 62 42 255
-0.012727236 0.017872009 0.77500004 71 71 53 255
-0.010541408 0.017779907 0.77100003 58 56 45 255
-0.0083447676 0.017618598 0.76400006 116 116 106 255
-0.0061375536 0.017318891 0.75100005 100 102 94 255
-0.0040072342 0.017042218 0.73900002 111 114 110 255
-0.0019322083 0.016673276 0.72300005 200 205 202 255
5.536796e-05 0.016465737 0.71400005 200 204 204 255
0.0019906161 0.016235113 0.70400006 227 231 231 255
0.0038875875 0.016073648 0.69700003 207 214 213 255
0.0057377145 0.015889099 0.68900001 199 203 203 255
0.0075548943 0.015727591 0.68200004 206 211 208 255
0.0093611972 0.015612184 0.67700005 212 217 214 255
0.011106803 0.015450632 0.67000002 205 210 206 255
0.012794539 0.015266002 0.66200006 213 216 213 255
0.014460301 0.015104415 0.65500003 201 204 201 255
0.016137157 0.014988928 0.65000004 188 191 187 255
0.017869173 0.014942601 0.648 100 103 99 255
0.019711414 0.01498849 0.65000004 49 53 46 255
0.021597644 0.015057418 0.65300006 105 109 102 255
0.023464452 0.015103261 0.65500003 166 170 163 255
0.025265008 0.015102966 0.65500003 173 177 170 255
0.027106779 0.015125706 0.65600002 165 166 160 255
0.028998001 0.015171482 0.65800005 165 169 162 255
0.030759631 0.015148063 0.65700001 156 160 153 255
0.032565206 0.015147682 0.65700001 156 157 151 255
0.034370642 0.01514728 0.65700001 146 147 143 255
0.036396179 0.015239074 0.66100001 153 154 148 255
0.038327929 0.015284735 0.66300005 166 167 161 255
0.040331054 0.015353424 0.66600001 155 156 150 255
0.042160582 0.015352932 0.66600001 144 145 139 255
0.044055995 0.015375472 0.66700006 156 157 151 255
0.045956701 0.015397986 0.66800004 148 152 145 255
0.048005804 0.015466579 0.671 151 152 146 255
0.050071187 0.015535149 0.67400002 157 158 152 255
0.052075796 0.015580644 0.67600006 147 151 144 255
0.054011393 0.015603067 0.67700005 142 146 139 255
0.056034785 0.015648514 0.67900002 153 157 150 255
0.057983659 0.015670892 0.68000001 142 146 139 255
0.060113814 0.015739337 0.68300003 146 150 143 255
0.062078673 0.01576167 0.68400002 148 150 142 255
0.064142287 0.015807025 0.68600005 138 140 132 255
0.06631285 0.015875395 0.68900001 133 135 127 255
0.068697579 0.01598982 0.69400001 132 134 126 255
0.070804276 0.016035095 0.69600004 133 135 127 255
0.072921671 0.01608035 0.69800001 117 117 109 255
0.075264178 0.016171655 0.70200002 117 117 109 255
0.077848218 0.016308999 0.708 106 106 98 255
0.080352172 0.016423278 0.71300006 92 90 79 255
0.082883216 0.016537523 0.71800005 82 78 67 255
0.085441336 0.016651737 0.72300005 79 76 62 255
0.088147461 0.01678895 0.72900003 78 75 59 255
0.090515159 0.016857045 0.73200005 73 71 53 255
0.093151748 0.016971165 0.73700005 78 76 58 255
0.096073635 0.017131308 0.74400002 81 79 61 255
0.099560969 0.01738351 0.75500005 77 76 60 255
0.10283896 0.017589618 0.76400006 88 89 75 255
0.10644052 0.017841721 0.77500004 89 91 81 255
-0.048986744 0.016466852 0.81100005 221 230 233 255
-0.046355061 0.016325224 0.80400002 218 227 232 255
-0.044091091 0.016305394 0.80300003 89 100 105 255
-0.041675955 0.016224626 0.79900002 104 114 123 255
-0.039332032 0.016164137 0.79600006 108 118 127 255
-0.037051097 0.016123928 0.79400003 102 112 119 255
-0.034824912 0.016104002 0.79300004 101 111 118 255
-0.032521743 0.01604344 0.79000002 96 109 114 255
-0.030311758 0.016023465 0.78900003 102 114 121 255
-0.028071478 0.015983161 0.78700006 98 111 116 255
-0.025874982 0.015963139 0.78600001 98 104 110 255
-0.023653712 0.015922785 0.78400004 87 93 96 255
-0.021415912 0.015862098 0.78100002 83 83 83 255
-0.019169841 0.015781075 0.77700001 66 63 57 255
-0.016989531 0.015740648 0.77500004 73 71 51 255
-0.01483932 0.015720511 0.77400005 67 64 48 255
-0.01262885 0.015619103 0.76900005 59 58 44 255
-0.010377461 0.015416118 0.75900006 119 119 109 255
-0.0081264107 0.015111548 0.74400002 108 112 105 255
-0.0059578265 0.014806956 0.72900003 178 181 177 255
-0.003887984 0.014563272 0.71700001 193 198 195 255
-0.0018841254 0.014319566 0.70500004 215 219 219 255
5.4050302e-05 0.014157084 0.69700003 233 237 237 255
0.001945397 0.01397427 0.68800002 220 224 224 255
0.0037983898 0.01383206 0.68100005 213 218 215 255
0.0056045377 0.013669518 0.67300004 203 208 205 255
0.0073888162 0.01354758 0.66700006 206 211 207 255
0.0091262348 0.013405312 0.66000003 193 198 194 255
0.010858269 0.013303651 0.65500003 188 193 189 255
0.012543431 0.013181659 0.64900005 187 190 186 255
0.014239696 0.013100274 0.64500004 178 179 175 255
0.015988382 0.013079802 0.64400005 99 100 94 255
0.017759075 0.01307962 0.64400005 63 67 60 255
0.019620664 0.013140347 0.64700001 143 147 140 255
0.021498667 0.013201056 0.65000004 175 179 172 255
0.023321426 0.013221126 0.65100002 168 172 165 255
0.025111007 0.013220867 0.65100002 160 164 157 255
0.0269418 0.013240898 0.65200001 158 159 153 255
0.028822051 0.013281217 0.65400004 161 162 156 255
0.03061953 0.013280901 0.65400004 157 158 152 255
0.032466445 0.013300871 0.65500003 143 144 138 255
0.034318715 0.013320823 0.65600002 148 149 143 255
0.03628647 0.013381368 0.65900004 153 154 148 255
0.038154926 0.013401278 0.66000003 155 159 152 255
0.040028717 0.01342117 0.66100001 153 154 148 255
0.041971143 0.01346135 0.66300005 143 147 140 255
0.04392438 0.013501504 0.66500002 138 142 135 255
0.045957215 0.013561941 0.66800004 133 137 130 255
0.047791708 0.01356145 0.66800004 138 142 135 255
0.049700286 0.013581243 0.66900003 156 160 153 255
0.051691193 0.013621315 0.671 162 166 159 255
0.053772651 0.013681668 0.67400002 147 151 144 255
0.05578782 0.013721699 0.67600006 151 155 148 255
0.057643216 0.013721113 0.67600006 153 157 150 255
0.059674397 0.013761104 0.67800003 152 156 149 255
0.061625563 0.013780777 0.67900002 152 153 147 255
0.063675463 0.013820727 0.68100005 125 127 119 255
0.065832332 0.013880949 0.68400002 133 135 127 255
0.068104386 0.013961443 0.68800002 138 140 132 255
0.070296392 0.014021619 0.69100004 132 134 126 255
0.072295606 0.014041189 0.69200003 126 128 120 255
0.074621692 0.014121613 0.69600004 131 133 125 255
0.077079356 0.014222297 0.70100003 116 118 108 255
0.079789534 0.014363529 0.708 110 111 99 255
0.082306907 0.01446416 0.71300006 87 88 74 255
0.084615007 0.014524191 0.71600002 77 76 62 255
0.087181062 0.014624766 0.72100002 81 78 62 255
0.089774169 0.014725314 0.72600001 79 77 59 255
0.092520744 0.014846117 0.73200005 76 74 56 255
0.095428959 0.014987168 0.73900002 78 76 58 255
0.0986389 0.015168745 0.74800003 81 79 61 255
0.10203237 0.015370562 0.75800002 78 81 50 255
0.10534285 0.01555206 0.76700002 80 82 62 255
-0.048624806 0.014132135 0.80500007 219 228 231 255
-0.046182547 0.014062344 0.80100006 111 120 125 255
-0.043981712 0.014062756 0.80100006 109 117 124 255
-0.041572046 0.013992921 0.79700005 112 120 129 255
-0.039283007 0.013958176 0.79500002 107 115 124 255
-0.037004802 0.013923413 0.79300004 102 112 119 255
-0.034825262 0.013923744 0.79300004 98 109 114 255
-0.032522064 0.013871377 0.79000002 103 114 119 255
-0.030196808 0.013801432 0.78600001 97 108 113 255
-0.028000414 0.013784141 0.78500003 94 103 108 255
-0.025842324 0.013784391 0.78500003 90 95 101 255
-0.023623778 0.013749501 0.78300005 81 83 85 255
-0.02136128 0.013679468 0.77900004 69 64 57 255
-0.019096019 0.013591854 0.77400005 68 64 48 255
-0.016858166 0.013504218 0.76900005 64 61 45 255
-0.014571054 0.013346317 0.76000005 67 64 48 255
-0.012251256 0.013100588 0.74600005 125 125 115 255
-0.010022075 0.012872395 0.73300004 109 113 106 255
-0.0078534251 0.012626619 0.71900004 197 202 198 255
-0.0057699149 0.012398385 0.70600003 193 198 195 255
-0.0037687256 0.012205253 0.69500005 200 205 202 255
-0.0018360384 0.012064787 0.68700004 207 211 211 255
5.2654981e-05 0.011924302 0.67900002 200 204 204 255
0.0018945191 0.01176624 0.67000002 189 194 191 255
0.0036868732 0.01160816 0.66100001 195 200 196 255
0.0054380386 0.011467625 0.65300006 188 193 189 255
0.0071894904 0.011397322 0.64900005 183 188 184 255
0.0089327367 0.011344561 0.64600003 192 197 193 255
0.010692602 0.011326911 0.64500004 186 189 185 255
0.012408264 0.011274119 0.64200002 153 156 152 255
0.014173606 0.011273995 0.64200002 142 143 139 255
0.01591406 0.011256294 0.64100003 138 139 133 255
0.017704098 0.0112737 0.64200002 192 196 189 255
0.019499557 0.011291086 0.64300001 174 178 171 255
0.021333506 0.011326018 0.64500004 154 158 151 255
0.023142537 0.011343371 0.64600003 177 181 174 255
0.024918389 0.011343149 0.64600003 163 167 160 255
0.026735459 0.011360469 0.64700001 159 160 154 255
0.028601982 0.011395332 0.64900005 154 155 149 255
0.030385736 0.01139506 0.64900005 139 140 134 255
0.032318059 0.011447444 0.65200001 143 144 138 255
0.034162112 0.011464697 0.65300006 164 165 159 255
0.036066573 0.011499489 0.65500003 167 168 162 255
0.03786625 0.011499151 0.65500003 160 164 157 255
0.039726321 0.011516352 0.65600002 159 160 156 255
0.041591715 0.011533536 0.65700001 164 168 161 255
0.043660596 0.011603367 0.66100001 172 173 167 255
0.045682471 0.011655624 0.66400003 157 158 152 255
0.047649078 0.011690308 0.66600001 149 153 146 255
0.049477894 0.011689869 0.66600001 148 152 145 255
0.05146059 0.01172452 0.66800004 148 152 145 255
0.053454038 0.011759151 0.67000002 147 151 144 255
0.055540778 0.011811314 0.67300004 149 153 146 255
0.057387952 0.011810811 0.67300004 155 159 152 255
0.059410919 0.011845389 0.67500001 152 156 149 255
0.061263107 0.011844853 0.67500001 146 147 141 255
0.06320855 0.01186185 0.67600006 143 144 138 255
0.065351725 0.011913924 0.67900002 143 144 138 255
0.067511097 0.011965978 0.68200004 136 137 131 255
0.069788389 0.012035555 0.68600005 131 132 126 255
0.071982868 0.012087568 0.68900001 141 143 135 255
0.074086301 0.012122019 0.69100004 135 137 129 255
0.076420337 0.012191538 0.69500005 126 128 118 255
0.078775994 0.012261031 0.69900006 129 130 118 255
0.081384152 0.012365584 0.70500004 116 117 105 255
0.083670348 0.012417495 0.708 103 101 90 255
0.086456351 0.012539539 0.71500003 93 91 80 255
0.08915671 0.012644016 0.72100002 90 87 73 255
0.092016004 0.012766003 0.72800004 81 77 67 255
0.094913296 0.012887962 0.73500001 78 75 59 255
0.097980425 0.013027426 0.74300003 81 79 61 255
0.10149485 0.013219457 0.75400001 81 81 51 255
0.10479441 0.013376386 0.76300001 81 81 61 255
0.10828296 0.013550815 0.77300006 75 77 60 255
-0.051089257 0.01197802 0.80900002 218 227 230 255
-0.048443999 0.011874759 0.80200005 217 226 231 255
-0.046182938 0.011860318 0.80100006 102 111 116 255
-0.043927174 0.011845857 0.80000001 109 118 123 255
-0.041624557 0.011816573 0.79800004 112 120 129 255
-0.039283343 0.011772463 0.79500002 103 113 120 255
-0.037051778 0.011757951 0.79400003 99 109 116 255
-0.034781642 0.011728613 0.79200006 100 109 114 255
-0.032481179 0.011684448 0.78900003 102 109 112 255
-0.030120226 0.011610644 0.78400004 96 103 102 255
-0.027929317 0.011596061 0.78300005 90 95 92 255
-0.025776705 0.011596272 0.78300005 78 77 71 255
-0.023563636 0.011566844 0.78100002 70 69 55 255
-0.021251777 0.011478156 0.77500004 71 69 45 255
-0.018824788 0.011300585 0.76300001 66 62 46 255
-0.016376019 0.01106375 0.74700004 59 55 44 255
-0.013995999 0.010812082 0.73000002 127 131 124 255
-0.011758679 0.010604828 0.71600002 159 165 158 255
-0.0096393228 0.010441988 0.70500004 193 196 192 255
-0.0075695002 0.010264319 0.69300002 188 193 190 255
-0.0055819908 0.010116256 0.68300003 188 193 190 255
-0.0036440364 0.0099533647 0.67200005 187 192 189 255
-0.0017772577 0.0098497048 0.66500002 196 201 198 255
5.102692e-05 0.0097460318 0.65800005 187 192 189 255
0.0018436376 0.0096571539 0.65200001 191 196 192 255
0.0036088161 0.0095830746 0.64700001 190 195 191 255
0.005338151 0.0094941705 0.64100003 189 194 190 255
0.0070676948 0.0094496869 0.63800001 191 196 192 255
0.0088221906 0.0094496245 0.63800001 185 188 184 255
0.010593227 0.0094643608 0.63900006 164 165 161 255
0.012311732 0.0094346479 0.63700002 115 116 110 255
0.014041265 0.0094197337 0.63600004 171 172 166 255
0.015790062 0.0094196163 0.63600004 166 170 163 255
0.017566364 0.0094342958 0.63700002 167 171 164 255
0.019348092 0.0094489614 0.63800001 169 175 168 255
0.021135237 0.0094636148 0.63900006 167 173 166 255
0.022963608 0.0094930613 0.64100003 155 161 154 255
0.024764307 0.009507685 0.64200002 168 172 165 255
0.026570395 0.0095222937 0.64300001 151 155 148 255
0.028425939 0.0095516983 0.64500004 143 147 140 255
0.030292353 0.0095810872 0.64700001 163 167 160 255
0.032120064 0.009595653 0.648 163 167 160 255
0.034005452 0.0096250139 0.65000004 167 171 164 255
0.035791554 0.0096247438 0.65000004 171 175 168 255
0.037693132 0.0096540749 0.65200001 162 165 161 255
0.039605539 0.0096833901 0.65400004 152 153 149 255
0.041528765 0.0097126905 0.65600002 155 156 152 255
0.043594912 0.0097715864 0.66000003 147 150 146 255
0.045545254 0.0098008569 0.66200006 156 159 155 255
0.047506392 0.0098301098 0.66400003 156 160 153 255
0.049329724 0.0098297419 0.66400003 157 161 154 255
0.051383976 0.0098737692 0.66700006 156 160 153 255
0.053215131 0.0098733734 0.66700006 159 162 158 255
0.055293653 0.009917371 0.67000002 163 164 160 255
0.057217877 0.0099317478 0.671 143 144 140 255
0.059147358 0.0099461125 0.67200005 135 136 132 255
0.060991332 0.0099456618 0.67200005 156 157 153 255
0.062928557 0.0099599995 0.67300004 154 155 149 255
0.065063521 0.01000392 0.67600006 144 148 141 255
0.067016691 0.010018228 0.67700005 143 144 138 255
0.069280289 0.010076915 0.68100005 137 138 132 255
0.071356595 0.01010599 0.68300003 140 142 134 255
0.073443606 0.010135052 0.68500006 132 134 126 255
0.07554128 0.010164097 0.68700004 131 133 125 255
0.077875033 0.010222715 0.69100004 135 137 129 255
0.080461286 0.010310902 0.69700003 130 132 124 255
0.082961932 0.010384276 0.70200002 116 118 110 255
0.085731521 0.010487214 0.70900005 108 108 100 255
0.088539124 0.010590126 0.71600002 97 97 89 255
0.091258347 0.010678226 0.72200006 85 82 76 255
0.094139218 0.010781092 0.72900003 81 76 70 255
0.097058088 0.010883935 0.73600006 79 76 62 255
0.10055336 0.011045901 0.74700004 82 79 65 255
0.10397115 0.011193051 0.75700003 87 84 70 255
0.10758336 0.011354954 0.76800001 88 86 75 255
0.11111258 0.011502041 0.77800006 85 85 75 255
-0.050584406 0.0096576344 0.80100006 219 228 231 255
-0.048383936 0.0096579436 0.80100006 107 116 121 255
-0.046125602 0.0096461829 0.80000001 107 113 119 255
-0.043817662 0.0096223494 0.79800004 110 119 124 255
-0.041468367 0.0095864432 0.79500002 106 114 123 255
-0.039184794 0.0095625808 0.79300004 106 114 121 255
-0.037005376 0.0095628211 0.79300004 103 111 118 255
-0.034694053 0.0095268702 0.79000002 103 109 115 255
-0.032357901 0.0094788447 0.78600001 101 106 112 255
-0.030005185 0.0094187446 0.78100002 89 95 88 255
-0.027786834 0.0093948077 0.77900004 63 63 53 255
-0.02544768 0.0093226163 0.77300006 72 69 55 255
-0.022930207 0.0091659855 0.76000005 69 67 49 255
-0.020319587 0.0089369714 0.74100006 67 64 48 255
-0.017862707 0.0087320609 0.72400004 123 121 111 255
-0.015565003 0.0085633136 0.71000004 159 160 154 255
-0.013325053 0.0083824899 0.69500005 191 197 190 255
-0.011216809 0.0082378341 0.68300003 197 200 196 255
-0.0091881864 0.0081052259 0.67200005 201 206 202 255
-0.00725279 0.0080087865 0.66400003 208 213 209 255
-0.0053613647 0.007912335 0.65600002 211 216 212 255
-0.00351934 0.0078279339 0.64900005 211 216 212 255
-0.0017238186 0.0077797039 0.64500004 213 218 214 255
4.9631399e-05 0.0077194017 0.64000005 204 209 205 255
0.0018012354 0.0076832115 0.63700002 193 198 194 255
0.0035307526 0.0076349475 0.63300002 176 180 173 255
0.0052549103 0.0076107965 0.63100004 181 185 178 255
0.0069680433 0.0075866343 0.62900001 167 170 166 255
0.0086978013 0.007586584 0.62900001 155 156 152 255
0.010477255 0.0076227067 0.63200003 133 134 128 255
0.012195854 0.0076105739 0.63100004 191 192 186 255
0.013930976 0.0076104901 0.63100004 176 177 171 255
0.015666036 0.0076103946 0.63100004 173 177 170 255
0.017428605 0.00762235 0.63200003 178 182 175 255
0.0191966 0.0076342942 0.63300002 173 179 172 255
0.020903854 0.0076221055 0.63200003 162 168 161 255
0.022712998 0.0076460876 0.634 149 153 146 255
0.024533039 0.007670057 0.63600004 135 139 132 255
0.026363969 0.0076940148 0.63800001 141 145 138 255
0.028249852 0.0077300202 0.64100003 151 155 148 255
0.030105283 0.0077539533 0.64300001 164 168 161 255
0.031922016 0.007765817 0.64400005 162 165 161 255
0.033691794 0.0077656107 0.64400005 150 153 149 255
0.035571549 0.007789508 0.64600003 158 159 155 255
0.037462145 0.0078133931 0.648 155 156 152 255
0.039424136 0.0078493254 0.65100002 159 160 156 255
0.041275825 0.0078611299 0.65200001 153 154 150 255
0.043264952 0.0078970362 0.65500003 146 147 143 255
0.045132764 0.0079088164 0.65600002 145 148 144 255
0.047220532 0.0079567535 0.66000003 150 154 147 255
0.049032897 0.0079564545 0.66000003 162 166 159 255
0.051076178 0.0079923104 0.66300005 159 162 158 255
0.052816581 0.007979935 0.66200006 149 152 148 255
0.054963917 0.008027819 0.66600001 144 145 141 255
0.056962449 0.0080515826 0.66800004 151 152 148 255
0.058883704 0.008063281 0.66900003 152 153 149 255
0.06071946 0.0080629168 0.66900003 140 141 137 255
0.06264846 0.0080745919 0.67000002 138 139 133 255
0.06467896 0.0080983099 0.67200005 149 150 144 255
0.066522181 0.0080979122 0.67200005 145 146 140 255
0.068772085 0.0081457067 0.67600006 143 144 138 255
0.070834696 0.0081693865 0.67800003 135 134 128 255
0.072907992 0.0081930533 0.68000001 120 122 114 255
0.074991979 0.0082167098 0.68200004 128 130 122 255
0.07742475 0.0082764952 0.68700004 146 148 140 255
0.079769172 0.008324218 0.69100004 138 140 132 255
0.082135215 0.0083719268 0.69500005 124 125 119 255
0.084764712 0.0084437104 0.70100003 119 119 111 255
0.087550417 0.008527521 0.708 112 109 102 255
0.090500541 0.0086233569 0.71600002 96 94 84 255
0.093494155 0.0087191714 0.72400004 91 87 76 255
0.096531212 0.0088149654 0.73200005 81 77 66 255
0.099880956 0.0089348219 0.74200004 84 80 69 255
0.10314772 0.0090426123 0.75100005 84 82 71 255
0.10674354 0.0091744596 0.76200002 84 84 76 255
0.11025634 0.0092942417 0.77200001 75 76 70 255
-0.050458379 0.0074370364 0.79900002 203 210 213 255
-0.048384201 0.0074558919 0.80100006 102 108 114 255
-0.046068199 0.0074375039 0.79900002 113 119 125 255
-0.043763001 0.0074191052 0.79700005 105 114 119 255
-0.041416433 0.0073913848 0.79400003 105 113 120 255
-0.039086182 0.0073636537 0.79100001 107 113 119 255
-0.036865588 0.00735453 0.79000002 105 109 120 255
-0.034518577 0.0073174653 0.78600001 105 107 109 255
-0.03206991 0.0072524599 0.77900004 83 80 73 255
-0.029505901 0.0071501997 0.76800001 69 69 39 255
-0.026966581 0.0070386156 0.75600004 79 76 55 255
-0.024295593 0.0068711545 0.73800004 74 72 54 255
-0.021542449 0.0066478131 0.71400005 108 108 98 255
-0.019058289 0.006471009 0.69500005 175 179 172 255
-0.016801894 0.0063407449 0.68100005 203 208 204 255
-0.014666262 0.006229091 0.66900003 200 205 201 255
-0.01259656 0.0061174245 0.65700001 212 217 213 255
-0.010625646 0.00602437 0.64700001 211 216 212 255
-0.0087370295 0.0059499275 0.63900006 202 205 201 255
-0.0069360672 0.0059127212 0.63500005 210 215 211 255
-0.0051652468 0.0058848169 0.63200003 224 229 225 255
-0.0034163282 0.0058662156 0.63000005 235 240 236 255
-0.0016783943 0.0058476045 0.62800002 212 218 211 255
4.8468435e-05 0.0058196746 0.625 196 202 195 255
0.0017644854 0.0058103581 0.62400001 176 180 173 255
0.0034805718 0.0058103455 0.62400001 173 177 170 255
0.0051966435 0.0058103236 0.62400001 161 162 156 255
0.0069126924 0.0058102934 0.62400001 151 152 146 255
0.0086425394 0.005819567 0.625 155 156 152 255
0.010377848 0.0058288313 0.62600005 181 182 178 255
0.012099284 0.0058287755 0.62600005 167 171 164 255
0.013820666 0.0058287121 0.62600005 162 166 159 255
0.015591643 0.0058472613 0.62800002 169 173 166 255
0.017318396 0.0058471793 0.62800002 161 165 158 255
0.019075401 0.0058564013 0.62900001 158 162 155 255
0.020771667 0.0058469921 0.62800002 143 147 140 255
0.022641476 0.0058841277 0.63200003 149 153 146 255
0.024417453 0.0058933217 0.63300002 137 143 136 255
0.026322793 0.0059304382 0.63700002 153 159 152 255
0.028117793 0.005939614 0.63800001 158 164 157 255
0.030011814 0.0059674014 0.64100003 155 160 156 255
0.03172392 0.0059579411 0.64000005 143 146 143 255
0.033535026 0.0059670918 0.64100003 142 142 140 255
0.035296425 0.0059669246 0.64100003 149 149 149 255
0.037231106 0.0059946738 0.64400005 149 147 145 255
0.039182119 0.0060224142 0.64700001 147 147 145 255
0.041086141 0.0060408367 0.64900005 142 143 139 255
0.043000974 0.0060592489 0.65100002 161 165 158 255
0.044857811 0.0060683442 0.65200001 156 160 153 255
0.04686306 0.0060960455 0.65500003 149 153 146 255
0.048735991 0.0061051231 0.65600002 151 157 150 255
0.050614223 0.0061141923 0.65700001 157 161 154 255
0.052497737 0.0061232527 0.65800005 151 155 148 255
0.054634105 0.0061602211 0.66200006 150 153 149 255
0.056706935 0.0061878725 0.66500002 156 157 153 255
0.05870799 0.0062062098 0.66700006 149 150 144 255
0.060629021 0.0062152324 0.66800004 150 151 147 255
0.062555298 0.0062242472 0.66900003 142 143 137 255
0.064583056 0.0062425565 0.671 149 150 144 255
0.066522539 0.0062515535 0.67200005 151 150 144 255
0.068568975 0.0062698447 0.67400002 142 141 135 255
0.070417158 0.006269522 0.67400002 139 139 131 255
0.072479516 0.0062877964 0.67600006 132 132 122 255
0.074442588 0.0062967595 0.67700005 134 134 126 255
0.076861657 0.0063429163 0.68200004 132 132 124 255
0.079076946 0.0063704606 0.68500006 127 129 121 255
0.081426553 0.006407294 0.68900001 137 137 127 255
0.083676875 0.0064348173 0.69200003 123 123 113 255
0.086561605 0.0065088226 0.70000005 125 122 115 255
0.089363426 0.0065735132 0.70700002 116 113 106 255
0.092590667 0.0066660815 0.71700001 105 101 91 255
0.095608585 0.0067400378 0.72500002 92 88 78 255
0.098804563 0.0068232729 0.73400003 82 78 68 255
0.10204946 0.0069064922 0.74300003 81 78 71 255
0.10576349 0.0070175775 0.75500005 86 85 79 255
0.10954279 0.0071286415 0.76700002 86 87 81 255
0.11353295 0.0072489777 0.78000003 92 96 89 255
-0.051071789 0.0050829407 0.77500004 206 213 216 255
-0.050142825 0.0052077291 0.79400003 126 133 136 255
-0.048142783 0.0052275732 0.79700005 107 116 121 255
-0.04589542 0.005221175 0.79600006 108 117 122 255
-0.043653354 0.005214768 0.79500002 108 117 122 255
-0.041207958 0.0051821163 0.79000002 112 118 125 255
-0.038789861 0.0051494548 0.78500003 108 113 119 255
-0.036259089 0.0050971052 0.77700001 96 94 104 255
-0.033640385 0.0050250646 0.76600003 70 65 59 255
-0.030505652 0.0048611704 0.74100006 72 70 45 255
-0.027546642 0.0047038216 0.71700001 82 81 51 255
-0.02486215 0.004572703 0.69700003 84 82 71 255
-0.02245212 0.0044743759 0.68200004 192 193 187 255
-0.020033957 0.0043563563 0.66400003 202 207 203 255
-0.017851798 0.0042711315 0.65100002 193 198 194 255
-0.015765719 0.0041924585 0.63900006 188 193 189 255
-0.013877104 0.0041531441 0.63300002 200 203 199 255
-0.012040597 0.0041203834 0.62800002 190 193 189 255
-0.010264385 0.004100739 0.625 191 194 190 255
-0.0084909527 0.0040745274 0.62100005 205 208 204 255
-0.0067613274 0.0040614307 0.61900002 217 223 216 255
-0.0050508482 0.0040548905 0.61800003 229 232 228 255
-0.0033512688 0.0040549049 0.61800003 203 206 202 255
-0.0016516751 0.0040549133 0.61800003 166 169 165 255
4.7770696e-05 0.0040417938 0.61600006 166 170 163 255
0.0017418714 0.004041791 0.61600006 151 155 148 255
0.0034471196 0.004054904 0.61800003 151 152 146 255
0.005155026 0.0040614503 0.61900002 148 149 143 255
0.0068573318 0.0040614298 0.61900002 147 148 142 255
0.008559607 0.0040614028 0.61900002 190 191 185 255
0.010261843 0.0040613697 0.61900002 162 166 159 255
0.012022021 0.0040810145 0.62200004 164 168 161 255
0.013754489 0.0040875305 0.62300003 160 164 157 255
0.015517224 0.0041006017 0.625 164 168 161 255
0.017235737 0.0041005448 0.625 160 164 157 255
0.018984502 0.0041070431 0.62600005 158 162 155 255
0.02073868 0.0041135354 0.62700003 168 172 164 255
0.022569921 0.0041331421 0.63000005 155 161 154 255
0.024340406 0.0041396208 0.63100004 156 162 155 255
0.026198935 0.0041592144 0.634 160 166 159 255
0.027941624 0.0041591208 0.634 148 154 147 255
0.029824657 0.0041787019 0.63700002 152 156 149 255
0.031575345 0.0041785962 0.63700002 159 162 158 255
0.033430532 0.004191604 0.63900006 154 154 152 255
0.035241507 0.0041980459 0.64000005 151 151 149 255
0.037000012 0.0041979225 0.64000005 152 152 150 255
0.038879476 0.0042109108 0.64200002 149 150 146 255
0.040706459 0.0042173341 0.64300001 158 159 155 255
0.042670883 0.004236869 0.64600003 156 157 151 255
0.044582799 0.0042498377 0.648 160 164 157 255
0.046577066 0.0042693582 0.65100002 158 162 155 255
0.048439022 0.004275756 0.65200001 155 159 152 255
0.050229236 0.0042755893 0.65200001 151 155 148 255
0.052178811 0.0042885328 0.65400004 164 167 163 255
0.054221675 0.0043080258 0.65700001 159 162 158 255
0.056366075 0.0043340693 0.66100001 142 145 141 255
0.058356155 0.0043469914 0.66300005 145 146 142 255
0.060266215 0.004353351 0.66400003 146 147 143 255
0.062368535 0.0043728161 0.66700006 140 141 135 255
0.064487062 0.0043922742 0.67000002 141 142 136 255
0.066522807 0.0044051697 0.67200005 136 135 129 255
0.068467513 0.0044115032 0.67300004 139 138 132 255
0.070312962 0.0044112764 0.67300004 135 135 127 255
0.072372578 0.0044241534 0.67500001 144 144 134 255
0.074332908 0.0044304691 0.67600006 131 131 121 255
0.07652384 0.0044498863 0.67900002 129 131 123 255
0.078500047 0.0044561909 0.68000001 140 140 130 255
0.080481432 0.0044624894 0.68100005 133 133 123 255
0.082588904 0.0044753337 0.68300003 117 115 105 255
0.085201666 0.0045143808 0.68900001 117 115 105 255
0.087973386 0.0045599695 0.69600004 122 117 110 255
0.091428794 0.0046383049 0.708 115 111 101 255
0.094685838 0.0047035241 0.71800005 106 102 92 255
0.097997278 0.0047687297 0.72800004 101 97 87 255
0.1013631 0.0048339218 0.73800004 94 91 84 255
0.10506345 0.0049122004 0.75000006 86 85 79 255
0.10868628 0.004983915 0.76100004 84 85 79 255
0.11266004 0.0050687119 0.77400005 75 79 72 255
-0.050478831 0.0029181673 0.76600003 105 112 115 255
-0.049764045 0.0030020797 0.78800005 113 119 125 255
-0.04784089 0.0030174155 0.79200006 111 120 125 255
-0.045549598 0.0030098883 0.79000002 109 118 123 255
-0.043049466 0.0029871161 0.78400004 112 122 129 255
-0.040164828 0.0029338568 0.77000004 105 108 114 255
-0.037060481 0.0028577286 0.75000006 73 68 61 255
-0.03392591 0.0027701617 0.72700006 76 72 58 255
-0.030785866 0.0026711547 0.70100003 71 69 51 255
-0.027870961 0.0025797607 0.67700005 154 155 143 255
-0.025356812 0.0025150336 0.66000003 198 202 195 255
-0.023150044 0.0024731648 0.64900005 198 201 197 255
-0.021069497 0.0024389122 0.64000005 192 195 191 255
-0.019098688 0.002412277 0.63300002 187 190 186 255
-0.017193714 0.0023894482 0.62700003 188 192 185 255
-0.01534633 0.0023704262 0.62200004 183 187 180 255
-0.013570222 0.0023590224 0.61900002 164 170 163 255
-0.011848902 0.002355237 0.61800003 108 112 105 255
-0.010149451 0.0023552594 0.61800003 106 110 103 255
-0.0084089367 0.0023438449 0.61500001 198 201 197 255
-0.0067067314 0.0023400488 0.61400002 145 148 144 255
-0.00501817 0.0023400607 0.61400002 100 103 99 255
-0.0033241643 0.0023362581 0.61300004 119 122 118 255
-0.0016383165 0.002336263 0.61300004 113 119 112 255
4.7538175e-05 0.0023362646 0.61300004 100 106 99 255
0.0017362206 0.0023400742 0.61400002 129 133 126 255
0.0034359735 0.0023476912 0.61600006 131 135 128 255
0.0051383846 0.0023514938 0.61700004 106 110 103 255
0.0068351948 0.0023514817 0.61700004 151 154 150 255
0.0085319737 0.0023514659 0.61700004 170 173 169 255
0.010228717 0.0023514468 0.61700004 156 160 153 255
0.011983399 0.0023628578 0.62 157 161 154 255
0.013710372 0.0023666429 0.62100005 163 167 160 255
0.015467613 0.0023742353 0.62300003 158 162 155 255
0.017180631 0.0023742025 0.62300003 160 164 157 255
0.018954225 0.0023817876 0.625 163 167 160 255
0.020705663 0.0023855588 0.62600005 142 148 141 255
0.022534154 0.0023969472 0.62900001 154 160 153 255
0.024263322 0.0023969002 0.62900001 152 158 151 255
0.02611636 0.0024082817 0.63200003 156 162 155 255
0.027853556 0.0024082274 0.63200003 154 158 151 255
0.0297311 0.0024196014 0.63500005 147 151 144 255
0.031525865 0.0024233505 0.63600004 159 163 156 255
0.033325989 0.002427096 0.63700002 160 163 159 255
0.035131473 0.0024308381 0.63800001 149 152 148 255
0.036884483 0.0024307661 0.63800001 160 163 159 255
0.038758464 0.0024383112 0.64000005 166 167 163 255
0.040579956 0.0024420426 0.64100003 154 155 151 255
0.042538892 0.0024533893 0.64400005 150 151 145 255
0.044376515 0.002457113 0.64500004 154 155 149 255
0.046290997 0.0024646427 0.64700001 164 165 161 255
0.048216272 0.0024721688 0.64900005 162 165 161 255
0.050075296 0.0024758817 0.65000004 160 163 159 255
0.052019376 0.0024833996 0.65200001 149 152 149 255
0.05405676 0.0024947231 0.65500003 149 152 148 255
0.056195676 0.0025098508 0.65900004 152 153 149 255
0.058180265 0.0025173568 0.66100001 151 152 148 255
0.060084853 0.0025210513 0.66200006 148 149 145 255
0.062088177 0.0025285499 0.66400003 142 143 137 255
0.06439098 0.0025474683 0.66900003 142 143 137 255
0.066423975 0.0025549587 0.671 132 133 127 255
0.068467699 0.0025624458 0.67300004 142 141 135 255
0.070208669 0.0025585068 0.67200005 133 133 123 255
0.072051108 0.002558372 0.67200005 138 138 130 255
0.07400322 0.0025620414 0.67300004 130 129 123 255
0.076073237 0.0025695141 0.67500001 123 125 117 255
0.078153923 0.0025769831 0.67700005 132 132 124 255
0.080127083 0.002580642 0.67800003 115 115 105 255
0.082105435 0.0025842979 0.67900002 114 114 106 255
0.084459923 0.0025993676 0.68300003 112 110 100 255
0.086962409 0.0026182383 0.68800002 121 119 109 255
0.09000852 0.0026523254 0.69700003 119 117 107 255
0.093235441 0.0026902109 0.70700002 110 108 98 255
0.096786007 0.0027356984 0.71900004 110 107 100 255
0.1004019 0.0027811767 0.73100001 95 92 86 255
0.10408312 0.0028266474 0.74300003 87 86 80 255
0.10797244 0.0028759129 0.75600004 88 87 81 255
0.11193253 0.0029251692 0.76900005 90 91 85 255
-0.048172418 0.00077528902 0.73100001 107 116 121 255
-0.047932696 0.00080501253 0.75900006 107 116 121 255
-0.046149597 0.00081034162 0.76400006 106 115 120 255
-0.039974555 0.00077220442 0.72800004 71 70 64 255
-0.036357041 0.00073934277 0.69700003 88 85 71 255
-0.033354472 0.00071602524 0.67500001 72 71 57 255
-0.030706016 0.00069800962 0.65800005 175 175 165 255
-0.028414382 0.00068635715 0.64700001 203 207 200 255
-0.026100753 0.00067258143 0.634 193 196 192 255
-0.024127422 0.00066623028 0.62800002 198 201 197 255
-0.022186972 0.0006598779 0.62200004 180 183 179 255
-0.020345258 0.0006556462 0.61800003 179 182 178 255
-0.018585796 0.0006535353 0.61600006 168 172 165 255
-0.016864667 0.00065248419 0.61500001 156 160 153 255
-0.015173641 0.00065249321 0.61500001 154 158 151 255
-0.013460627 0.00065144035 0.61400002 167 173 166 255
-0.011772225 0.00065144739 0.61400002 167 171 164 255
-0.010083771 0.00065145356 0.61400002 185 189 182 255
-0.0083816024 0.00065039785 0.61300004 93 97 90 255
-0.0066958172 0.00065040204 0.61300004 136 140 133 255
-0.0050018309 0.00064934435 0.61200005 176 179 175 255
-0.0033078999 0.0006472246 0.61000001 158 162 155 255
-0.0016303008 0.00064722594 0.61000001 172 178 171 255
4.7383135e-05 0.00064828747 0.611 140 146 139 255
0.0017305675 0.00064934802 0.61200005 150 153 149 255
0.0034248221 0.00065146864 0.61400002 171 174 170 255
0.0051134066 0.00065146619 0.61400002 167 170 166 255
0.0067908908 0.00065040187 0.61300004 145 148 144 255
0.0084628444 0.00064933655 0.61200005 139 142 138 255
0.010145838 0.00064933131 0.61200005 150 154 147 255
0.011886773 0.000652508 0.61500001 166 170 163 255
0.0136 0.0006535619 0.61600006 163 167 160 255
0.015343496 0.00065567571 0.61800003 164 168 161 255
0.017070344 0.00065672759 0.61900002 157 161 154 255
0.018832944 0.00065883936 0.62100005 163 167 160 255
0.020573381 0.00065988913 0.62200004 163 169 162 255
0.022355057 0.00066199893 0.62400001 159 165 158 255
0.024070483 0.00066198595 0.62400001 151 157 150 255
0.025909776 0.00066515466 0.62700003 160 164 157 255
0.027721377 0.00066726131 0.62900001 153 157 150 255
0.029590674 0.00067042781 0.63200003 143 147 140 255
0.031327628 0.00067041087 0.63200003 161 165 158 255
0.033116765 0.00067145372 0.63300002 164 167 163 255
0.034911253 0.00067249557 0.634 161 164 160 255
0.036711093 0.0006735365 0.63500005 157 160 156 255
0.03857683 0.00067563698 0.63700002 145 146 142 255
0.040390082 0.00067667582 0.63800001 150 151 147 255
0.042274725 0.00067877438 0.64000005 147 148 142 255
0.044101369 0.00067981123 0.64100003 163 164 158 255
0.046004865 0.00068190758 0.64300001 147 148 144 255
0.047993451 0.00068506337 0.64600003 146 147 143 255
0.049921274 0.00068715756 0.648 152 153 149 255
0.051780093 0.00068819046 0.64900005 155 156 152 255
0.053809237 0.00069134281 0.65200001 158 159 155 255
0.055769369 0.00069343386 0.65400004 147 148 144 255
0.057652231 0.00069446361 0.65500003 139 140 134 255
0.059358824 0.00069337193 0.65400004 137 138 132 255
0.061527215 0.00069758028 0.65800005 144 145 139 255
0.063717313 0.00070178736 0.66200006 145 146 140 255
0.066028096 0.00070705323 0.66700006 149 150 144 255
0.0679591 0.00070807768 0.66800004 146 146 138 255
0.06979084 0.00070804125 0.66800004 141 141 133 255
0.071622327 0.00070800411 0.66800004 128 128 120 255
0.073673427 0.00071008562 0.67000002 134 133 127 255
0.075735226 0.00071216619 0.67200005 118 119 113 255
0.077807687 0.0007142456 0.67400002 120 119 113 255
0.079772629 0.00071526447 0.67500001 126 123 116 255
0.081863686 0.00071734196 0.67700005 137 134 127 255
0.083965383 0.00071941852 0.67900002 133 131 121 255
0.086330518 0.00072361279 0.68300003 122 120 110 255
0.088975526 0.00072992471 0.68900001 120 118 108 255
0.091916792 0.00073835376 0.69700003 119 116 110 255
0.095439993 0.00075101794 0.70900005 114 111 105 255
0.099440582 0.00076685741 0.72400004 107 106 100 255
0.10324273 0.00078057585 0.73700005 104 103 97 255
0.10711566 0.00079429173 0.75000006 87 88 82 255
0.11076821 0.00080588693 0.76100004 87 90 86 255
0.11507371 0.00082171545 0.77600002 82 85 81 255
-0.043954078 -0.0011751996 0.69600004 83 84 78 255
-0.041437987 -0.0011583519 0.68600005 70 70 44 255
-0.0385154 -0.0011279924 0.66800004 80 78 60 255
-0.035801381 -0.001101007 0.65200001 161 159 148 255
-0.033435952 -0.001082462 0.64100003 203 207 200 255
-0.031229669 -0.0010672921 0.63200003 202 207 203 255
-0.029259378 -0.001058875 0.62700003 195 200 196 255
-0.027316449 -0.0010504561 0.62200004 186 191 187 255
-0.025400888 -0.0010420351 0.61700004 160 163 159 255
-0.023551125 -0.0010353012 0.61300004 167 171 164 255
-0.021830263 -0.0010336327 0.61200005 176 180 173 255
-0.020114806 -0.0010319623 0.611 144 145 139 255
-0.018495275 -0.0010353576 0.61300004 94 95 89 255
-0.016837243 -0.0010370624 0.61400002 56 60 53 255
-0.015173638 -0.0010387658 0.61500001 63 67 60 255
-0.013460623 -0.0010370895 0.61400002 64 70 62 255
-0.011753051 -0.0010354117 0.61300004 65 69 62 255
-0.010067347 -0.0010354215 0.61300004 145 149 142 255
-0.0083815996 -0.0010354298 0.61300004 183 187 180 255
-0.0066958168 -0.0010354366 0.61300004 191 195 188 255
-0.0050100032 -0.0010354419 0.61300004 170 176 169 255
-0.0033133226 -0.0010320672 0.611 171 176 172 255
-0.001627628 -0.0010286912 0.60900003 155 161 154 255
4.722803e-05 -0.001028692 0.60900003 150 155 151 255
0.0017220839 -0.0010286911 0.60900003 157 162 158 255
0.0034025097 -0.0010303779 0.61000001 181 184 181 255
0.0050884211 -0.0010320632 0.611 151 156 152 255
0.0067798113 -0.0010337471 0.61200005 159 164 160 255
0.0084628435 -0.0010337402 0.61200005 158 164 157 255
0.010129258 -0.0010320428 0.611 155 159 152 255
0.011848116 -0.0010354111 0.61300004 157 161 154 255
0.013577919 -0.0010387779 0.61500001 156 160 153 255
0.015318666 -0.0010421431 0.61700004 159 163 156 255
0.017015185 -0.0010421287 0.61700004 154 158 151 255
0.018772287 -0.0010454907 0.61900002 158 162 155 255
0.020507226 -0.0010471621 0.62 146 152 145 255
0.022283403 -0.0010505209 0.62200004 134 138 131 255
0.023993332 -0.0010505004 0.62200004 142 148 141 255
0.025744477 -0.001052167 0.62300003 150 154 147 255
0.027545083 -0.0010555212 0.625 159 163 156 255
0.029356563 -0.0010588735 0.62700003 149 153 146 255
0.031129345 -0.0010605354 0.62800002 153 157 150 255
0.032907486 -0.0010621957 0.62900001 149 153 146 255
0.034746055 -0.0010655434 0.63100004 158 164 157 255
0.036595464 -0.0010688893 0.63300002 158 162 155 255
0.038395144 -0.0010705447 0.634 160 161 155 255
0.040263463 -0.0010738875 0.63600004 157 158 152 255
0.042010497 -0.0010738513 0.63600004 151 150 144 255
0.043826155 -0.0010755023 0.63700002 153 152 146 255
0.045575574 -0.0010754633 0.63700002 158 157 151 255
0.04762198 -0.0010821759 0.64100003 157 156 152 255
0.049613118 -0.0010871985 0.64400005 149 150 146 255
0.051540729 -0.001090531 0.64600003 158 159 153 255
0.053396583 -0.0010921737 0.64700001 150 151 145 255
0.055342991 -0.0010955031 0.64900005 141 142 136 255
0.057212126 -0.0010971427 0.65000004 132 133 127 255
0.059086524 -0.0010987808 0.65100002 132 133 127 255
0.061153177 -0.001103793 0.65400004 138 139 133 255
0.06323605 -0.0011088032 0.65700001 135 136 130 255
0.065533116 -0.0011171869 0.66200006 139 141 133 255
0.067552149 -0.0011205059 0.66400003 138 140 132 255
0.069477394 -0.0011221357 0.66500002 140 142 134 255
0.071193427 -0.0011203892 0.66400003 130 129 123 255
0.073123619 -0.0011220163 0.66500002 124 123 117 255
0.075284414 -0.0011270161 0.66800004 123 122 116 255
0.07769224 -0.0011353883 0.67300004 124 123 117 255
0.079536259 -0.0011353233 0.67300004 129 128 122 255
0.081742756 -0.0011403178 0.67600006 111 110 104 255
0.083841719 -0.0011436236 0.67800003 112 112 104 255
0.086204112 -0.0011503012 0.68200004 106 106 96 255
0.088329822 -0.0011536034 0.68400002 111 112 100 255
0.090861782 -0.0011619636 0.68900001 114 112 101 255
0.094093867 -0.0011787532 0.69900006 116 114 104 255
0.097929738 -0.0012022845 0.71300006 112 112 102 255
0.10184187 -0.0012258113 0.72700006 109 109 99 255
0.10597306 -0.00125102 0.74200004 95 95 87 255
0.10989487 -0.0012728524 0.75500005 92 93 87 255
0.11418394 -0.001298052 0.77000004 83 87 80 255
-0.046198674 -0.0029863184 0.67300004 76 75 69 255
-0.042966295 -0.0028932353 0.65200001 75 73 55 255
-0.04054378 -0.0028489558 0.64200002 80 77 61 255
-0.038357258 -0.002817983 0.63500005 207 208 196 255
-0.036382005 -0.0028003182 0.63100004 221 223 215 255
-0.034373663 -0.0027782102 0.62600005 216 220 213 255
-0.03244482 -0.0027605353 0.62200004 183 186 182 255
-0.030488407 -0.0027384174 0.61700004 167 170 166 255
-0.028746009 -0.0027340478 0.61600006 148 153 149 255
-0.026965069 -0.0027252359 0.61400002 135 138 134 255
-0.025195008 -0.0027164198 0.61200005 130 133 129 255
-0.02339741 -0.0027031605 0.60900003 67 71 64 255
-0.021687549 -0.0026987749 0.60800004 41 42 36 255
-0.020048931 -0.0027032625 0.60900003 86 87 81 255
-0.01840473 -0.0027077463 0.61000001 171 172 166 255
-0.016782371 -0.0027166656 0.61200005 171 175 168 255
-0.015074923 -0.002712264 0.611 173 177 170 255
-0.013394834 -0.0027122975 0.611 188 194 186 255
-0.011714685 -0.0027123268 0.611 172 176 169 255
-0.010050908 -0.0027167918 0.61200005 182 186 179 255
-0.0083679128 -0.0027168135 0.61200005 183 189 182 255
-0.0066739586 -0.002712392 0.611 167 173 166 255
-0.0049854764 -0.0027079664 0.61000001 166 172 165 255
-0.0032970486 -0.0026990979 0.60800004 161 166 162 255
-0.0016196073 -0.0026902249 0.60600001 165 170 166 255
4.6995301e-05 -0.0026902268 0.60600001 167 170 166 255
0.0017107702 -0.0026857855 0.60500002 162 165 161 255
0.0033801927 -0.0026902186 0.60600001 142 145 142 255
0.0050634295 -0.0026990874 0.60800004 159 164 160 255
0.0067465664 -0.0027035128 0.60900003 159 164 160 255
0.0084213447 -0.0027034949 0.60900003 178 184 177 255
0.010079508 -0.0026990336 0.60800004 169 175 168 255
0.011790111 -0.002707886 0.61000001 156 162 154 255
0.013489585 -0.0027122956 0.611 155 161 153 255
0.015194503 -0.0027167012 0.61200005 150 154 147 255
0.01690485 -0.0027211027 0.61300004 152 156 149 255
0.018620623 -0.0027254994 0.61400002 159 163 156 255
0.020374889 -0.0027343316 0.61600006 152 155 151 255
0.022140067 -0.0027431594 0.61800003 153 156 152 255
0.023916142 -0.0027519828 0.62 151 155 148 255
0.025620468 -0.002751925 0.62 151 155 148 255
0.02736875 -0.0027563018 0.62100005 149 153 146 255
0.029075596 -0.0027562361 0.62100005 145 149 142 255
0.030831885 -0.0027606047 0.62200004 137 141 134 255
0.032593533 -0.0027649691 0.62300003 146 150 143 255
0.034525737 -0.0027826435 0.62700003 145 149 142 255
0.036364149 -0.0027914371 0.62900001 141 142 136 255
0.038092285 -0.0027913514 0.62900001 150 151 145 255
0.039883561 -0.0027956995 0.63000005 146 147 141 255
0.041680161 -0.0028000427 0.63100004 151 150 144 255
0.04348208 -0.0028043825 0.63200003 144 143 137 255
0.045289315 -0.002808718 0.63300002 139 138 132 255
0.047176145 -0.0028174866 0.63500005 143 142 136 255
0.049150806 -0.0028306874 0.63800001 145 144 138 255
0.051061943 -0.0028394468 0.64000005 144 143 137 255
0.053066384 -0.0028526383 0.64300001 139 140 134 255
0.054831255 -0.0028525165 0.64300001 147 148 142 255
0.056859963 -0.0028656989 0.64600003 130 131 125 255
0.058723379 -0.0028700051 0.64700001 132 133 127 255
0.060872562 -0.0028876141 0.65100002 140 141 135 255
0.06285096 -0.0028963471 0.65300006 136 138 130 255
0.064939059 -0.0029095106 0.65600002 131 133 125 255
0.066839896 -0.0029137996 0.65700001 133 135 127 255
0.069059387 -0.0029313888 0.66100001 138 138 130 255
0.07097888 -0.0029356694 0.66200006 132 131 125 255
0.073123507 -0.0029488143 0.66500002 123 122 116 255
0.074946195 -0.0029486527 0.66500002 118 117 111 255
0.077230349 -0.0029662226 0.66900003 114 113 107 255
0.079063416 -0.0029660531 0.66900003 126 125 119 255
0.081258953 -0.0029791803 0.67200005 118 117 111 255
0.083470598 -0.0029923024 0.67500001 113 113 105 255
0.08582478 -0.0030098525 0.67900002 105 105 95 255
0.08794228 -0.0030185329 0.68100005 112 112 102 255
0.090334162 -0.0030360732 0.68500006 111 112 100 255
0.093016833 -0.0030624717 0.69100004 113 111 101 255
0.096556105 -0.003115454 0.70300001 112 110 100 255
0.1001607 -0.0031684262 0.71500003 113 113 103 255
0.10454471 -0.0032435437 0.73200005 104 106 98 255
0.10902137 -0.0033186481 0.74900001 100 102 94 255
0.11344233 -0.0033893087 0.76500005 96 100 92 255
-0.046833154 -0.0047140005 0.65600002 76 77 65 255
-0.043795936 -0.0045848191 0.63800001 76 75 61 255
-0.041384593 -0.0045131138 0.62800002 218 219 207 255
-0.039406922 -0.004484518 0.62400001 245 247 239 255
-0.037511472 -0.0044631013 0.62100005 203 207 200 255
-0.035689998 -0.0044488637 0.61900002 173 177 170 255
-0.033879373 -0.00443462 0.61700004 146 149 145 255
-0.032027423 -0.0044131805 0.61400002 126 129 126 255
-0.030241244 -0.0043989224 0.61200005 58 61 57 255
-0.028559262 -0.0043990337 0.61200005 88 91 87 255
-0.026833232 -0.0043919496 0.611 127 131 124 255
-0.02511259 -0.0043848599 0.61000001 180 181 175 255
-0.023358919 -0.0043705753 0.60800004 182 183 177 255
-0.021687482 -0.0043706605 0.60800004 180 181 175 255
-0.02004887 -0.0043779286 0.60900003 176 177 173 255
-0.018374503 -0.0043780012 0.60900003 175 178 174 255
-0.016754897 -0.004392446 0.611 174 178 171 255
-0.01500086 -0.004370939 0.60800004 184 188 181 255
-0.013329024 -0.0043709935 0.60800004 186 190 183 255
-0.01165713 -0.004371041 0.60800004 187 191 184 255
-0.010001608 -0.0043782718 0.60900003 179 183 176 255
-0.0083405413 -0.004385496 0.61000001 168 172 165 255
-0.0066411695 -0.0043711457 0.60800004 163 167 160 255
-0.0049691154 -0.0043711681 0.60800004 161 166 162 255
-0.0032916158 -0.0043639946 0.60700005 162 167 164 255
-0.001622275 -0.0043640039 0.60700005 169 174 170 255
4.6995156e-05 -0.0043568169 0.60600001 139 142 139 255
0.0017107651 -0.0043496247 0.60500002 139 144 141 255
0.0033690268 -0.0043424256 0.60400003 150 153 150 255
0.00503843 -0.0043495987 0.60500002 160 163 159 255
0.0067243897 -0.004363955 0.60700005 169 173 166 255
0.0084074903 -0.0043711155 0.60800004 172 176 169 255
0.010079477 -0.0043710801 0.60800004 184 188 181 255
0.011790074 -0.0043854164 0.61000001 162 168 161 255
0.013489544 -0.0043925578 0.611 159 163 156 255
0.015169626 -0.0043925028 0.611 140 144 137 255
0.016822066 -0.0043852534 0.61000001 153 157 150 255
0.018499257 -0.0043851859 0.61000001 155 159 152 255
0.020308675 -0.0044138678 0.61400002 145 149 142 255
0.022032522 -0.0044209757 0.61500001 144 148 141 255
0.023800345 -0.0044352659 0.61700004 152 156 149 255
0.025496418 -0.0044351728 0.61700004 163 167 160 255
0.027192382 -0.0044350736 0.61700004 153 157 150 255
