ply
format ascii 1.0
comment PCL generated
element vertex 934
property float x
property float y
property float z
property uchar red
property uchar green
property uchar blue
property uchar alpha
element camera 0
property float view_px
property float view_py
property float view_pz
property float x_axisx
property float x_axisy
property float x_axisz
property float y_axisx
property float y_axisy
property float y_axisz
property float z_axisx
property float z_axisy
property float z_axisz
property float focal
property float scalex
property float scaley
property float centerx
property float centery
property int viewportx
property int viewporty
property float k1
property float k2
end_header
-0.036028583 -0.046743829 0.69100004 81 81 63 255
-0.033932835 -0.046474446 0.68700004 87 89 71 255
-0.031858921 -0.04620498 0.68300003 89 92 78 255
-0.029806854 -0.045935441 0.67900002 125 130 119 255
-0.027776645 -0.04566583 0.67500001 132 136 128 255
-0.025768297 -0.045396142 0.671 116 118 110 255
-0.023853136 -0.0452617 0.66900003 87 87 77 255
-0.021981772 -0.045194838 0.66800004 82 83 71 255
-0.020055493 -0.044992596 0.66500002 76 77 63 255
-0.018145621 -0.044790287 0.66200006 86 88 68 255
-0.016326146 -0.044790894 0.66200006 100 103 89 255
-0.014550429 -0.044926748 0.66400003 113 116 102 255
-0.012821151 -0.045265533 0.66900003 121 124 112 255
-0.011015083 -0.045401271 0.671 138 142 134 255
-0.0091296369 -0.045198638 0.66800004 179 183 176 255
-0.0072169709 -0.044725277 0.66100001 174 178 171 255
-0.0053100828 -0.043981209 0.65000004 152 153 149 255
-0.0034853294 -0.04350771 0.64300001 157 158 152 255
-0.0017017181 -0.043101825 0.63700002 147 148 142 255
4.914531e-05 -0.042898856 0.634 126 125 119 255
0.0017835149 -0.042695839 0.63100004 123 121 111 255
0.0035125338 -0.042628083 0.63000005 67 65 55 255
0.0052526887 -0.042695597 0.63100004 61 59 48 255
0.0069761728 -0.042627718 0.63000005 84 81 67 255
0.0087079518 -0.042627443 0.63000005 66 62 51 255
0.010439692 -0.042627107 0.63000005 44 43 29 255
0.012190708 -0.042694371 0.63100004 47 46 30 255
0.013880964 -0.042558592 0.62900001 54 53 37 255
0.015535353 -0.042355102 0.62600005 74 75 63 255
0.017173182 -0.042151548 0.62300003 96 98 88 255
0.018915704 -0.042218577 0.62400001 109 110 104 255
0.020663643 -0.042285547 0.625 105 107 99 255
0.022381179 -0.042284798 0.625 96 97 91 255
0.02398295 -0.042081032 0.62200004 89 89 81 255
0.025650743 -0.042012516 0.62100005 82 84 74 255
0.027356986 -0.0420116 0.62100005 81 83 73 255
0.029016314 -0.041942973 0.62 95 97 87 255
0.030620482 -0.041806646 0.61800003 96 98 88 255
0.032370411 -0.041873209 0.61900002 106 106 96 255
0.034015622 -0.041804422 0.61800003 100 100 90 255
0.035712987 -0.041803222 0.61800003 107 107 97 255
0.037289139 -0.041666694 0.61600006 93 93 83 255
0.039043985 -0.041733023 0.61700004 94 92 82 255
0.040738143 -0.041731663 0.61700004 94 92 82 255
0.042500902 -0.04179788 0.61800003 84 84 74 255
0.044054441 -0.041661147 0.61600006 76 76 66 255
0.045819592 -0.041727252 0.61700004 86 86 76 255
0.047513053 -0.041725677 0.61700004 80 80 70 255
0.049286064 -0.041791674 0.61800003 78 78 68 255
0.050816886 -0.041654747 0.61600006 78 76 66 255
0.052507013 -0.041653011 0.61600006 71 72 60 255
0.05419692 -0.041651227 0.61600006 88 88 78 255
0.055977356 -0.041717011 0.61700004 85 88 76 255
0.057576112 -0.041647512 0.61600006 71 74 60 255
0.059361584 -0.041713186 0.61700004 90 93 79 255
0.061251253 -0.041846406 0.61900002 97 98 84 255
0.063049972 -0.04191196 0.62 74 73 59 255
0.064749487 -0.041909866 0.62 80 76 65 255
0.06644877 -0.041907724 0.62 81 78 64 255
0.068257712 -0.041973129 0.62100005 79 76 62 255
0.069959216 -0.04197089 0.62100005 76 73 57 255
0.071660459 -0.041968603 0.62100005 74 71 57 255
0.073479578 -0.042033855 0.62200004 80 77 63 255
0.075303905 -0.042099047 0.62300003 77 72 66 255
0.077257037 -0.042231757 0.625 81 77 66 255
0.078589112 -0.042026583 0.62200004 72 69 55 255
0.080420814 -0.042091638 0.62300003 77 74 58 255
0.082389526 -0.042224199 0.625 78 75 59 255
0.084638022 -0.042491812 0.62900001 77 74 60 255
0.086358927 -0.042489149 0.62900001 84 81 67 255
0.088219561 -0.042553995 0.63000005 96 93 79 255
0.090085372 -0.042618793 0.63100004 101 98 84 255
0.092101827 -0.042751074 0.63300002 85 82 68 255
0.093832448 -0.042748239 0.63300002 84 79 68 255
0.096015662 -0.042947948 0.63600004 91 86 75 255
0.09836866 -0.043215126 0.64000005 90 86 75 255
0.10105606 -0.043617263 0.64600003 89 85 75 255
0.10345759 -0.043884274 0.65000004 94 90 80 255
0.10604255 -0.044218738 0.65500003 100 96 86 255
0.10881909 -0.044620607 0.66100001 98 94 83 255
0.11162808 -0.045022395 0.66700006 94 92 81 255
0.1142994 -0.045356594 0.67200005 80 81 67 255
0.11682484 -0.045623221 0.67600006 68 71 59 255
0.11954729 -0.045957267 0.68100005 69 74 63 255
0.12372287 -0.046831056 0.69400001 79 85 77 255
-0.22420368 -0.066030562 0.94200003 202 208 210 255
-0.2214089 -0.065965943 0.94100004 192 199 198 255
-0.21838656 -0.065831207 0.93900007 192 196 196 255
-0.21468504 -0.065486088 0.93400002 193 198 195 255
-0.21101028 -0.065140903 0.92900002 197 202 199 255
-0.20713781 -0.064725526 0.92300004 188 193 190 255
-0.20374089 -0.064450324 0.91900003 167 172 168 255
-0.20036529 -0.064175062 0.91500002 169 175 168 255
-0.19657846 -0.063759454 0.90900004 157 161 154 255
-0.19047491 -0.062572129 0.89200002 164 168 161 255
-0.18446343 -0.061384588 0.87500006 189 195 188 255
-0.1802088 -0.060758114 0.86600006 182 188 181 255
-0.17682418 -0.060412165 0.86100006 179 185 178 255
-0.17326371 -0.059995975 0.85500002 175 181 174 255
-0.16953553 -0.059509508 0.84800005 170 176 169 255
-0.16446465 -0.058531668 0.83400005 159 165 158 255
-0.15985857 -0.057694025 0.82200003 132 136 129 255
-0.15493394 -0.056715827 0.80800003 139 143 136 255
-0.1514084 -0.056228839 0.80100006 158 162 154 255
-0.14866576 -0.056022555 0.79800004 148 155 144 255
-0.14685695 -0.056167256 0.80000001 125 132 120 255
-0.14521763 -0.056382164 0.80300003 86 93 81 255
-0.1421366 -0.056035303 0.79800004 81 88 76 255
-0.13750395 -0.055056337 0.78400004 135 140 128 255
-0.13450122 -0.054709259 0.77900004 140 147 135 255
-0.13220508 -0.054643031 0.77800006 120 127 115 255
-0.1304156 -0.054787468 0.78000003 68 73 62 255
-0.12795693 -0.054650914 0.77800006 79 84 72 255
-0.12470008 -0.054163042 0.77100003 93 95 85 255
-0.12116306 -0.053534552 0.76200002 91 92 80 255
-0.11845619 -0.053257231 0.75800002 65 64 48 255
-0.11577082 -0.052979831 0.75400001 59 58 42 255
-0.11340854 -0.052842882 0.75200003 51 48 32 255
-0.11105682 -0.05270588 0.75000006 53 51 33 255
-0.10871565 -0.052568797 0.74800003 49 46 30 255
-0.10609986 -0.052291092 0.74400002 54 51 35 255
-0.10392519 -0.05222417 0.74300003 49 46 30 255
-0.10175563 -0.052157182 0.74200004 50 47 31 255
-0.099591188 -0.052090142 0.74100006 50 47 31 255
-0.097563557 -0.052093353 0.74100006 48 46 28 255
-0.095406637 -0.052026194 0.74000001 55 53 35 255
-0.093254849 -0.051958986 0.73900002 50 50 32 255
-0.090861306 -0.051751081 0.73600006 61 59 41 255
-0.088483863 -0.051543094 0.73300004 57 55 35 255
-0.086358473 -0.051475685 0.73200005 58 56 36 255
-0.084353492 -0.051478531 0.73200005 84 82 62 255
-0.082123183 -0.051340658 0.73000002 82 80 60 255
-0.079793796 -0.051132392 0.72700006 58 56 36 255
-0.077373512 -0.050853699 0.72300005 47 49 31 255
-0.075391985 -0.050856292 0.72300005 50 49 33 255
-0.073105559 -0.050647791 0.72000003 50 49 35 255
-0.071032889 -0.050579906 0.71900004 53 52 38 255
-0.068869382 -0.0504416 0.71700001 54 53 39 255
-0.066809878 -0.050373577 0.71600002 79 78 64 255
-0.064665042 -0.050235141 0.71400005 87 85 67 255
-0.062355265 -0.049955897 0.71000004 64 62 44 255
-0.060152281 -0.049746938 0.70700002 52 50 30 255
-0.058130194 -0.049678631 0.70600003 60 58 40 255
-0.055954169 -0.049469516 0.70300001 62 60 42 255
-0.053948093 -0.049401071 0.70200002 53 53 35 255
-0.051873181 -0.049262181 0.70000005 52 51 35 255
-0.0498804 -0.049193598 0.69900006 55 56 42 255
-0.047755681 -0.048984185 0.69600004 54 57 43 255
-0.045778971 -0.048915457 0.69500005 60 62 45 255
-0.043870699 -0.048917048 0.69500005 67 69 52 255
-0.041962244 -0.048918568 0.69500005 88 90 72 255
-0.039938353 -0.048779249 0.69300002 112 112 94 255
-0.037925284 -0.04863986 0.69100004 85 85 67 255
-0.035818767 -0.048359614 0.68700004 83 83 65 255
-0.033734076 -0.048079278 0.68300003 87 89 71 255
-0.03171787 -0.047869269 0.68000001 89 93 76 255
-0.029630218 -0.04751838 0.67500001 115 117 107 255
-0.027611068 -0.047237821 0.671 135 137 129 255
-0.025652181 -0.047027577 0.66800004 126 128 120 255
-0.023709675 -0.046817265 0.66500002 81 81 71 255
-0.021882275 -0.046818089 0.66500002 83 84 72 255
-0.020024624 -0.046748441 0.66400003 86 87 73 255
-0.018199794 -0.046749134 0.66400003 89 90 76 255
-0.016399546 -0.046820164 0.66500002 106 109 95 255
-0.014593735 -0.046891131 0.66600001 119 122 110 255
-0.012859021 -0.04724367 0.671 129 131 121 255
-0.01101469 -0.047244098 0.671 182 183 177 255
-0.0090746442 -0.046751607 0.66400003 176 180 173 255
-0.0071293712 -0.045977399 0.65300006 158 158 156 255
-0.0052527096 -0.04527352 0.64300001 163 164 160 255
-0.0034526838 -0.044851221 0.63700002 144 145 141 255
-0.0016909718 -0.044569671 0.63300002 112 113 109 255
4.8833506e-05 -0.044358477 0.63000005 126 125 119 255
0.0017777984 -0.044288032 0.62900001 114 112 102 255
0.0035012576 -0.044217523 0.62800002 64 62 52 255
0.0052358531 -0.044287771 0.62900001 57 53 42 255
0.0069759237 -0.044357967 0.63000005 55 52 38 255
0.0087352823 -0.044498496 0.63200003 55 51 40 255
0.010472461 -0.044498149 0.63200003 43 42 28 255
0.012151636 -0.044286512 0.62900001 50 49 33 255
0.013836337 -0.04414523 0.62700003 54 55 41 255
0.015509984 -0.044003878 0.625 65 66 54 255
0.017172573 -0.043862477 0.62300003 71 71 61 255
0.018915033 -0.043932233 0.62400001 75 77 69 255
0.020629847 -0.043931518 0.62400001 79 81 73 255
0.022344578 -0.043930739 0.62400001 86 87 81 255
0.023982102 -0.043789104 0.62200004 89 91 83 255
0.025732446 -0.043858614 0.62300003 87 89 81 255
0.027400073 -0.04378726 0.62200004 81 85 77 255
0.02901529 -0.043645445 0.62 109 111 103 255
0.030569859 -0.043433201 0.61700004 108 110 100 255
0.032264691 -0.043432072 0.61700004 102 104 94 255
0.033959392 -0.043430891 0.61700004 95 95 85 255
0.035711739 -0.043500036 0.61800003 88 88 78 255
0.037287839 -0.043357968 0.61600006 74 74 64 255
0.038979352 -0.043356616 0.61600006 94 92 82 255
0.040670708 -0.043355204 0.61600006 97 95 85 255
0.042430662 -0.043424111 0.61700004 89 89 79 255
0.043981396 -0.043281827 0.61500001 86 87 75 255
0.045595232 -0.043209877 0.61400002 77 78 64 255
0.047280405 -0.043208253 0.61400002 81 82 68 255
0.049124882 -0.04334731 0.61600006 80 78 67 255
0.05081515 -0.043345567 0.61600006 76 77 65 255
0.052590452 -0.043414127 0.61700004 60 61 49 255
0.054283064 -0.043412279 0.61700004 75 77 67 255
0.055975456 -0.043410368 0.61700004 81 84 72 255
0.057574164 -0.04333806 0.61600006 75 78 64 255
0.059359584 -0.043406397 0.61700004 62 63 49 255
0.061249204 -0.04354503 0.61900002 72 73 59 255
0.063047864 -0.043613255 0.62 70 67 53 255
0.064747326 -0.043611076 0.62 74 71 57 255
0.066446558 -0.043608855 0.62 71 68 54 255
0.068145536 -0.043606583 0.62 72 69 55 255
0.069844253 -0.043604262 0.62 78 75 61 255
0.07142733 -0.043531574 0.61900002 63 60 46 255
0.073122777 -0.043529157 0.61900002 75 72 58 255
0.074817978 -0.043526705 0.61900002 76 73 57 255
0.076760113 -0.043664835 0.62100005 76 73 57 255
0.078333884 -0.043591961 0.62 80 77 63 255
0.080160074 -0.043659676 0.62100005 76 73 57 255
0.082123257 -0.043797631 0.62300003 77 74 60 255
0.084366232 -0.044076126 0.62700003 80 77 63 255
0.086081617 -0.044073373 0.62700003 81 77 66 255
0.087656677 -0.044000283 0.62600005 79 76 62 255
0.089654252 -0.044138018 0.62800002 102 99 83 255
0.091662474 -0.044275694 0.63000005 90 87 71 255
0.093533091 -0.044343043 0.63100004 77 73 59 255
0.095710762 -0.044550873 0.634 77 73 59 255
0.097904548 -0.044758648 0.63700002 89 86 72 255
0.10058368 -0.045177128 0.64300001 94 91 77 255
0.10281782 -0.045384757 0.64600003 95 91 80 255
0.10555367 -0.045803063 0.65200001 102 101 87 255
0.10832196 -0.046221282 0.65800005 105 103 92 255
0.11129005 -0.046709642 0.66500002 96 95 81 255
0.11395584 -0.047057424 0.67000002 94 93 79 255
0.11647578 -0.047334895 0.67400002 74 73 59 255
0.11919272 -0.04768252 0.67900002 63 63 53 255
0.12229315 -0.0481705 0.68600005 74 78 60 255
-0.22300805 -0.06824258 0.93700004 187 194 193 255
-0.22046219 -0.068248242 0.93700004 188 195 192 255
-0.21698557 -0.067962505 0.93300003 192 197 194 255
-0.21330042 -0.067603879 0.92800003 192 197 194 255
-0.20986913 -0.06731803 0.92400002 188 193 190 255
-0.20645913 -0.067032121 0.92000002 175 180 177 255
-0.20329212 -0.06681902 0.91700006 160 163 160 255
-0.19948405 -0.066387251 0.91100007 157 160 157 255
-0.19419442 -0.065445244 0.89800006 149 152 148 255
-0.18790735 -0.064138621 0.88000005 189 193 186 255
-0.18277191 -0.063196234 0.86700004 177 183 176 255
-0.17916338 -0.062763937 0.86100006 186 192 185 255
-0.17538171 -0.06225865 0.85400003 177 183 176 255
-0.17224562 -0.061971977 0.85000002 177 183 176 255
-0.16813131 -0.061320666 0.84100002 158 164 157 255
-0.16327681 -0.060377549 0.82800007 153 157 150 255
-0.15829819 -0.059361316 0.81400001 123 127 120 255
-0.15416248 -0.058636632 0.80400002 156 160 152 255
-0.15064789 -0.058130611 0.79700005 162 166 158 255
-0.14828882 -0.058062136 0.79600006 144 151 140 255
-0.14648545 -0.058212455 0.79800004 125 132 121 255
-0.14485162 -0.058435723 0.80100006 55 62 51 255
-0.14177611 -0.058075309 0.79600006 98 105 94 255
-0.13732439 -0.057131089 0.78300005 142 146 138 255
-0.13397914 -0.056624509 0.77600002 137 142 131 255
-0.13135141 -0.056409728 0.77300006 117 120 108 255
-0.12890683 -0.056267843 0.77100003 101 102 90 255
-0.12614386 -0.05597993 0.76700002 99 101 84 255
-0.12324058 -0.055618946 0.76200002 79 78 64 255
-0.12052324 -0.055330854 0.75800002 63 62 46 255
-0.11798365 -0.055115689 0.75500005 51 50 34 255
-0.11546007 -0.054900445 0.75200003 63 62 46 255
-0.1131033 -0.054758139 0.75000006 52 50 32 255
-0.1107571 -0.054615766 0.74800003 51 49 31 255
-0.10842147 -0.054473333 0.74600005 48 45 29 255
-0.10595381 -0.054257795 0.74300003 52 49 33 255
-0.10378192 -0.054188248 0.74200004 45 42 26 255
-0.10188942 -0.054264706 0.74300003 48 47 31 255
-0.09958791 -0.054122008 0.74100006 48 47 31 255
-0.097428642 -0.054052275 0.74000001 53 51 33 255
-0.09514562 -0.053909451 0.73800004 55 52 36 255
-0.092999354 -0.053839594 0.73700005 58 56 38 255
-0.090734802 -0.053696625 0.73500001 60 58 40 255
-0.088480875 -0.053553578 0.73300004 53 51 33 255
-0.086237565 -0.053410459 0.73100001 53 51 31 255
-0.084235378 -0.053413406 0.73100001 76 75 53 255
-0.082007885 -0.05327015 0.72900003 88 86 66 255
-0.0796813 -0.053053748 0.72600001 73 71 51 255
-0.077370852 -0.05283726 0.72300005 55 55 37 255
-0.075285107 -0.052766856 0.72200006 44 44 26 255
-0.073103011 -0.052623294 0.72000003 47 46 30 255
-0.070931628 -0.052479673 0.71800005 52 51 35 255
-0.068866968 -0.052409053 0.71700001 51 50 34 255
-0.066807538 -0.05233838 0.71600002 73 72 56 255
-0.064662769 -0.052194532 0.71400005 86 86 68 255
-0.062440891 -0.051977497 0.71100003 72 70 52 255
-0.060150154 -0.051687274 0.70700002 58 56 38 255
-0.05812813 -0.0516163 0.70600003 63 61 43 255
-0.055872589 -0.05132591 0.70200002 65 63 45 255
-0.053869318 -0.051254787 0.70100003 56 55 39 255
-0.051723123 -0.051037353 0.69800001 54 53 37 255
-0.049807254 -0.0510392 0.69800001 51 52 38 255
-0.047685355 -0.050821617 0.69500005 51 54 40 255
-0.045777325 -0.050823331 0.69500005 57 60 46 255
-0.043805994 -0.050751846 0.69400001 66 67 53 255
-0.041960724 -0.050826553 0.69500005 89 90 76 255
-0.039821643 -0.05053553 0.69100004 117 118 104 255
-0.037759256 -0.050317559 0.68800002 86 87 73 255
-0.035608917 -0.04995323 0.68300003 86 88 71 255
-0.033535291 -0.049661957 0.67900002 95 97 80 255
-0.031483497 -0.049370598 0.67500001 90 94 77 255
-0.029541345 -0.04922545 0.67300004 102 105 91 255
-0.027527761 -0.048933938 0.66900003 131 132 120 255
-0.025651243 -0.04886179 0.66800004 111 111 101 255
-0.023708804 -0.048643265 0.66500002 85 87 77 255
-0.021848565 -0.048570972 0.66400003 108 110 100 255
-0.01999373 -0.048498608 0.66300005 93 95 87 255
-0.018199123 -0.048572473 0.66400003 87 91 84 255
-0.016398942 -0.048646275 0.66500002 131 135 128 255
-0.014593196 -0.048720006 0.66600001 156 160 153 255
-0.012781895 -0.048793677 0.66700006 188 192 185 255
-0.010915793 -0.04864781 0.66500002 166 167 163 255
-0.0089649791 -0.047989789 0.65600002 166 169 165 255
-0.0070526847 -0.047258537 0.64600003 148 151 148 255
-0.0052116718 -0.046673525 0.63800001 142 145 141 255
-0.0034362958 -0.04638106 0.634 139 140 136 255
-0.0016882382 -0.046234846 0.63200003 115 114 110 255
4.8909205e-05 -0.046161722 0.63100004 97 96 92 255
0.0017805588 -0.046088532 0.63000005 66 63 57 255
0.0035011284 -0.04594212 0.62800002 71 66 60 255
0.005219012 -0.045868799 0.62700003 52 48 38 255
0.0069535207 -0.045941722 0.62800002 48 44 33 255
0.0087073185 -0.046087738 0.63000005 40 37 23 255
0.010455502 -0.04616053 0.63100004 43 42 28 255
0.012151187 -0.046013799 0.62900001 52 50 39 255
0.013835826 -0.045867007 0.62700003 70 68 57 255
0.015509412 -0.045720149 0.625 84 85 73 255
0.017199503 -0.045646384 0.62400001 75 76 64 255
0.018944649 -0.045718852 0.625 85 86 74 255
0.020629089 -0.045644961 0.62400001 95 96 84 255
0.022307951 -0.045571014 0.62300003 92 94 86 255
0.023981221 -0.045497 0.62200004 100 102 94 255
0.0256902 -0.045496073 0.62200004 88 93 82 255
0.027310971 -0.045348797 0.62 89 93 85 255
0.028920639 -0.045201469 0.61800003 97 102 90 255
0.030568741 -0.045127224 0.61700004 106 109 97 255
0.032211229 -0.045052923 0.61600006 91 92 78 255
0.033903122 -0.045051698 0.61600006 88 89 75 255
0.035594877 -0.045050412 0.61600006 76 75 61 255
0.037347015 -0.045122199 0.61700004 91 89 78 255
0.039041217 -0.045120798 0.61700004 78 76 66 255
0.04073526 -0.04511933 0.61700004 67 64 57 255
0.042497903 -0.045190934 0.61800003 66 64 54 255
0.044051334 -0.045043107 0.61600006 82 80 70 255
0.045667861 -0.044968344 0.61500001 76 77 63 255
0.047355715 -0.044966657 0.61500001 70 71 57 255
0.049202878 -0.045111138 0.61700004 79 82 68 255
0.050978325 -0.045182437 0.61800003 78 82 65 255
0.052588593 -0.045107458 0.61700004 62 66 49 255
0.054281149 -0.045105539 0.61700004 83 85 68 255
0.055882771 -0.045030467 0.61600006 77 79 62 255
0.057478681 -0.044955332 0.61500001 65 67 50 255
0.059165098 -0.044953257 0.61500001 67 66 52 255
0.061049175 -0.04509731 0.61700004 75 72 58 255
0.062740617 -0.04509512 0.61700004 64 61 45 255
0.064536244 -0.045165963 0.61800003 75 72 56 255
0.066229932 -0.045163665 0.61800003 73 71 53 255
0.067923382 -0.045161322 0.61800003 66 63 47 255
0.069841869 -0.045305066 0.62 70 67 51 255
0.071424894 -0.045229547 0.61900002 65 62 48 255
0.073002182 -0.045153979 0.61800003 73 70 56 255
0.074573725 -0.045078374 0.61700004 73 70 54 255
0.076263122 -0.045075793 0.61700004 76 75 51 255
0.078204922 -0.045219261 0.61900002 89 87 69 255
0.080028318 -0.045289624 0.62 82 80 62 255
0.082120545 -0.045506027 0.62300003 65 62 48 255
0.084094338 -0.045649305 0.625 70 67 51 255
0.085804209 -0.045646463 0.625 82 79 63 255
0.08751379 -0.045643575 0.625 84 81 65 255
0.089365833 -0.045713671 0.62600005 83 80 64 255
0.091514021 -0.045929756 0.62900001 81 77 61 255
0.093826525 -0.046218786 0.63300002 86 82 66 255
0.095858671 -0.046361715 0.63500005 80 76 60 255
0.098055132 -0.046577595 0.63800001 74 70 54 255
0.10026766 -0.046793409 0.64100003 94 91 75 255
0.10281458 -0.047155134 0.64600003 106 103 89 255
0.1052266 -0.047443788 0.65000004 100 97 81 255
0.10782476 -0.047805354 0.65500003 97 94 80 255
0.11044987 -0.048166826 0.66000003 99 96 82 255
0.1136122 -0.048747141 0.66800004 85 82 68 255
0.11629941 -0.049108423 0.67300004 72 69 55 255
0.11883806 -0.049396664 0.67700005 71 69 58 255
0.12157641 -0.049757782 0.68200004 68 68 60 255
0.12524667 -0.050483577 0.69200003 69 70 64 255
-0.22530703 -0.070723481 0.93600005 202 209 208 255
-0.22252633 -0.070653766 0.93500006 186 193 192 255
-0.2197506 -0.070584029 0.93400002 188 195 191 255
-0.21604961 -0.070211954 0.92900002 196 201 198 255
-0.21237537 -0.06983982 0.92400002 192 197 194 255
-0.208955 -0.069543198 0.92000002 175 180 177 255
-0.20600475 -0.06939771 0.91800004 164 169 166 255
-0.20284316 -0.069176562 0.91500002 138 143 140 255
-0.19794576 -0.068350509 0.90400004 130 133 130 255
-0.19137779 -0.066919379 0.88500005 182 185 181 255
-0.18619387 -0.065941714 0.87200004 184 190 183 255
-0.18234511 -0.06541764 0.86500007 180 186 179 255
-0.178534 -0.064893462 0.85800004 178 184 177 255
-0.17455518 -0.064293519 0.85000002 173 179 172 255
-0.17143007 -0.063996054 0.84600002 173 179 172 255
-0.16692691 -0.06316895 0.83500004 169 175 168 255
-0.16208884 -0.062190369 0.82200003 146 150 142 255
-0.15732116 -0.061211597 0.80900002 126 130 122 255
-0.15319917 -0.060459662 0.79900002 151 155 147 255
-0.1500763 -0.060085949 0.79400003 153 157 149 255
-0.14772543 -0.06001487 0.79300004 138 142 134 255
-0.14611386 -0.060246501 0.79600006 126 130 122 255
-0.14430465 -0.060402427 0.79800004 73 78 67 255
-0.14070305 -0.059801355 0.79000002 149 154 143 255
-0.13626783 -0.058821645 0.77700001 136 141 130 255
-0.13293904 -0.058296006 0.77000004 126 129 117 255
-0.1299879 -0.057921685 0.76500005 94 95 81 255
-0.127398 -0.057698689 0.76200002 93 93 75 255
-0.12482412 -0.057475645 0.75900006 67 67 49 255
-0.12242796 -0.057328239 0.75700003 52 51 35 255
-0.12004235 -0.057180781 0.75500005 56 56 38 255
-0.11766726 -0.057033245 0.75300002 46 46 28 255
-0.11499566 -0.056734152 0.74900001 54 52 34 255
-0.11264715 -0.056586485 0.74700004 49 47 29 255
-0.11030921 -0.05643874 0.74500006 52 49 33 255
-0.10827251 -0.056442447 0.74500006 48 45 29 255
-0.10595024 -0.056294583 0.74300003 54 51 35 255
-0.10377839 -0.056222402 0.74200004 56 53 37 255
-0.10161171 -0.056150176 0.74100006 67 65 47 255
-0.099584505 -0.056153666 0.74100006 60 58 40 255
-0.097162008 -0.055929743 0.73800004 52 50 32 255
-0.094884492 -0.055781528 0.73600006 54 52 34 255
-0.092617586 -0.055633239 0.73400003 55 53 35 255
-0.090361305 -0.05548488 0.73200005 60 58 40 255
-0.088236362 -0.05541224 0.73100001 55 53 35 255
-0.085998602 -0.055263739 0.72900003 62 60 40 255
-0.084001943 -0.055266775 0.72900003 69 67 47 255
-0.081780009 -0.055118132 0.72700006 90 88 68 255
-0.079458967 -0.054893587 0.72400004 64 62 44 255
-0.077154063 -0.054668956 0.72100002 48 48 30 255
-0.074969605 -0.054520074 0.71900004 48 48 30 255
-0.072998866 -0.054522771 0.71900004 51 51 33 255
-0.070830278 -0.054373737 0.71700001 45 45 27 255
-0.068768434 -0.054300461 0.71600002 55 55 37 255
-0.06661851 -0.054151278 0.71400005 70 70 52 255
-0.064479291 -0.054002013 0.71200001 83 83 65 255
-0.062262975 -0.053776827 0.70900005 80 80 62 255
-0.060062874 -0.053551544 0.70600003 59 57 39 255
-0.05796133 -0.053402048 0.70400006 60 58 40 255
-0.055711363 -0.053100746 0.70000005 69 67 49 255
-0.053636797 -0.052951079 0.69800001 60 60 42 255
-0.051573008 -0.052801333 0.69600004 53 55 38 255
-0.049662694 -0.052803248 0.69600004 56 57 43 255
-0.047546353 -0.052577477 0.69300002 61 64 50 255
-0.045709748 -0.052655116 0.69400001 57 60 48 255
-0.043741237 -0.052580949 0.69300002 73 74 62 255
-0.041838404 -0.052582573 0.69300002 93 94 82 255
-0.03964727 -0.052204739 0.68800002 115 118 106 255
-0.037538312 -0.051902696 0.68400002 97 100 86 255
-0.035399038 -0.05152468 0.67900002 85 89 72 255
-0.033336472 -0.051222458 0.67500001 88 92 74 255
-0.031342387 -0.050996054 0.67200005 67 69 52 255
-0.029452438 -0.050921328 0.671 75 76 62 255
-0.027485572 -0.050694764 0.66800004 121 122 110 255
-0.025611872 -0.0506199 0.66700006 129 130 118 255
-0.023672251 -0.050393172 0.66400003 103 105 95 255
-0.021847734 -0.050394055 0.66400003 108 110 102 255
-0.019992968 -0.050318968 0.66300005 112 113 107 255
-0.018198429 -0.0503956 0.66400003 155 159 152 255
-0.016373657 -0.050396275 0.66400003 165 169 162 255
-0.014548818 -0.050396871 0.66400003 191 195 188 255
-0.012685593 -0.050245609 0.66200006 167 168 164 255
-0.010784063 -0.049866561 0.65700001 148 152 145 255
-0.0088416459 -0.049107939 0.64700001 155 158 154 255
-0.006954161 -0.048349235 0.63700002 151 154 150 255
-0.0051706294 -0.048045862 0.63300002 135 139 132 255
-0.0034253243 -0.047970127 0.63200003 110 111 105 255
-0.0016855022 -0.047894329 0.63100004 85 84 80 255
4.8829828e-05 -0.047818456 0.63000005 65 64 58 255
0.0017776644 -0.04774252 0.62900001 66 61 55 255
0.0035009938 -0.047666512 0.62800002 55 50 43 255
0.0052188118 -0.047590438 0.62700003 48 44 33 255
0.0069532539 -0.047666103 0.62800002 38 35 21 255
0.0086931642 -0.047741704 0.62900001 40 37 23 255
0.010421964 -0.047741327 0.62900001 45 42 28 255
0.012112088 -0.04758909 0.62700003 86 84 73 255
0.013813231 -0.047512688 0.62600005 88 89 77 255
0.015508819 -0.047436215 0.625 80 81 67 255
0.017198848 -0.047359686 0.62400001 84 85 71 255
0.018883307 -0.047283091 0.62300003 104 105 91 255
0.020562189 -0.047206432 0.62200004 98 99 85 255
0.022199681 -0.047053814 0.62 85 85 77 255
0.023903202 -0.04705292 0.62 83 85 77 255
0.025647925 -0.047127862 0.62100005 78 82 74 255
0.027265888 -0.046975061 0.61900002 98 102 94 255
0.028872749 -0.046822201 0.61700004 80 85 74 255
0.030567588 -0.046821062 0.61700004 80 83 71 255
0.032157719 -0.046668086 0.61500001 82 83 69 255
0.033901848 -0.046742707 0.61600006 82 83 69 255
0.035535756 -0.046665493 0.61500001 82 81 67 255
0.037285089 -0.046739984 0.61600006 76 75 61 255
0.038913209 -0.046662662 0.61500001 82 83 71 255
0.040601704 -0.04666115 0.61500001 80 78 68 255
0.042427558 -0.04681132 0.61700004 81 79 69 255
0.043978184 -0.046657942 0.61500001 83 81 71 255
0.045666169 -0.046656251 0.61500001 74 73 59 255
0.04743097 -0.046730366 0.61600006 70 69 55 255
0.04920106 -0.046804409 0.61700004 70 71 57 255
0.050893966 -0.046802539 0.61700004 85 89 72 255
0.05250144 -0.046724759 0.61600006 76 80 63 255
0.054279163 -0.046798624 0.61700004 83 85 67 255
0.055880737 -0.046720732 0.61600006 80 82 64 255
0.057570055 -0.046718631 0.61600006 62 62 44 255
0.059162959 -0.046640635 0.61500001 80 78 60 255
0.060948033 -0.046714272 0.61600006 80 78 60 255
0.062636681 -0.046712007 0.61600006 77 74 58 255
0.064325087 -0.046709694 0.61600006 80 78 60 255
0.066120408 -0.046783149 0.61700004 73 71 53 255
0.067920968 -0.046856541 0.61800003 84 82 64 255
0.069839396 -0.047005687 0.62 75 73 55 255
0.071422376 -0.046927337 0.61900002 67 64 48 255
0.07288149 -0.046773136 0.61700004 76 71 65 255
0.074329391 -0.046618905 0.61500001 70 66 55 255
0.076013267 -0.046616241 0.61500001 64 61 45 255
0.078075878 -0.04684091 0.61800003 73 71 53 255
0.080025554 -0.046989709 0.62 85 83 65 255
0.081985906 -0.047138456 0.62200004 76 74 56 255
0.08382237 -0.047211349 0.62300003 70 68 50 255
0.085801296 -0.047359966 0.625 69 65 48 255
0.087510824 -0.047356974 0.625 69 66 50 255
0.089362822 -0.047429714 0.62600005 77 73 57 255
0.091365471 -0.047578156 0.62800002 74 70 54 255
0.093675189 -0.047878053 0.63200003 76 73 59 255
0.095855512 -0.048102114 0.63500005 83 80 64 255
0.097898215 -0.048250355 0.63700002 72 69 55 255
0.10010796 -0.048474282 0.64000005 78 75 61 255
0.10249295 -0.048773877 0.64400005 84 81 67 255
0.10506132 -0.049149115 0.64900005 85 82 66 255
0.10732744 -0.049372811 0.65200001 93 90 76 255
0.10977697 -0.049672164 0.65600002 91 88 74 255
0.1129283 -0.050274298 0.66400003 91 88 74 255
0.11595014 -0.050800595 0.671 91 87 76 255
0.11883432 -0.051251084 0.67700005 74 72 62 255
0.12139438 -0.051550072 0.68100005 65 65 57 255
0.12433787 -0.052000366 0.68700004 70 71 65 255
0.12859973 -0.05298036 0.70000005 79 83 76 255
-0.22481966 -0.073126093 0.93400002 194 201 200 255
-0.22204441 -0.073053814 0.93300003 188 193 190 255
-0.2188036 -0.072824918 0.93000007 193 198 194 255
-0.21488096 -0.072361022 0.92400002 187 192 188 255
-0.21122037 -0.071975365 0.91900003 176 181 178 255
-0.20826787 -0.07182461 0.91700006 152 157 154 255
-0.20532574 -0.07167381 0.91500002 137 142 139 255
-0.20172903 -0.07128796 0.91000003 120 125 122 255
-0.19465573 -0.069648519 0.88900006 161 167 160 255
-0.18899362 -0.068478882 0.87400001 187 191 184 255
-0.18490736 -0.067857556 0.86600006 175 181 174 255
-0.18149656 -0.067471184 0.86100006 186 192 185 255
-0.17748833 -0.066849627 0.85300004 179 185 178 255
-0.17372857 -0.066306308 0.84600002 173 179 172 255
-0.17041175 -0.065919653 0.84100002 173 179 172 255
-0.1655225 -0.0649058 0.82800007 157 163 155 255
-0.16090077 -0.063970149 0.81600004 126 133 122 255
-0.15614958 -0.062955923 0.80300003 121 126 115 255
-0.15223575 -0.062255129 0.79400003 155 160 149 255
-0.14893757 -0.061789438 0.78800005 153 157 149 255
-0.14697565 -0.061872575 0.78900003 141 145 137 255
-0.14519143 -0.062034115 0.79100001 116 118 110 255
-0.14285342 -0.061960347 0.79000002 98 100 90 255
-0.13891755 -0.061180603 0.78000003 143 145 137 255
-0.13521118 -0.060479145 0.77100003 118 120 110 255
-0.13207148 -0.060012888 0.76500005 96 98 81 255
-0.12913404 -0.059624974 0.76000005 84 86 69 255
-0.12655787 -0.059393883 0.75700003 64 64 46 255
-0.12416216 -0.059241179 0.75500005 55 55 37 255
-0.12193868 -0.059166886 0.75400001 51 51 33 255
-0.1197203 -0.059092529 0.75300002 57 55 37 255
-0.11735076 -0.058939647 0.75100005 54 54 36 255
-0.11483823 -0.058708195 0.74800003 55 53 33 255
-0.11234172 -0.058476672 0.74500006 49 47 27 255
-0.11030541 -0.058480553 0.74500006 50 48 30 255
-0.10826876 -0.058484394 0.74500006 44 42 24 255
-0.10594656 -0.058331162 0.74300003 52 49 33 255
-0.10363492 -0.058177855 0.74100006 56 53 37 255
-0.10133388 -0.058024477 0.73900002 85 83 65 255
-0.099312216 -0.058028072 0.73900002 53 50 34 255
-0.097158544 -0.057953078 0.73800004 52 50 32 255
-0.094752192 -0.057720963 0.73500001 53 51 33 255
-0.092361905 -0.057488762 0.73200005 61 59 41 255
-0.090234607 -0.057413548 0.73100001 54 54 36 255
-0.088112466 -0.057338279 0.73000002 57 55 37 255
-0.085759565 -0.057105847 0.72700006 59 57 39 255
-0.083537988 -0.056951866 0.72500002 80 78 60 255
-0.081327066 -0.056797814 0.72300005 81 79 61 255
-0.079236552 -0.056722246 0.72200006 69 67 49 255
-0.077044219 -0.056568041 0.72000003 52 50 32 255
-0.074862555 -0.056413759 0.71800005 51 48 32 255
-0.072691575 -0.056259394 0.71600002 54 52 34 255
-0.070531294 -0.056104958 0.71400005 48 46 28 255
-0.06857378 -0.056107596 0.71400005 57 55 37 255
-0.06652271 -0.056031588 0.71300006 71 69 49 255
-0.064205192 -0.055719733 0.70900005 95 93 73 255
-0.061997179 -0.055486381 0.70600003 86 84 66 255
-0.05989046 -0.055331539 0.70400006 61 59 41 255
-0.057876796 -0.055255208 0.70300001 65 62 46 255
-0.055629656 -0.054943006 0.69900006 53 52 36 255
-0.053481068 -0.054709308 0.69600004 57 56 42 255
-0.051422838 -0.054554131 0.69400001 58 56 45 255
-0.049518086 -0.054556102 0.69400001 61 62 50 255
-0.047475919 -0.054400776 0.69200003 63 66 54 255
-0.045642119 -0.054481208 0.69300002 60 62 52 255
-0.043676428 -0.054404348 0.69200003 69 71 61 255
-0.041776408 -0.054406028 0.69200003 98 100 90 255
-0.039472859 -0.053857278 0.68500006 122 124 114 255
-0.037317336 -0.053465664 0.68000001 99 102 88 255
-0.035189129 -0.053073965 0.67500001 92 96 79 255
-0.033236399 -0.052918062 0.67300004 73 75 58 255
-0.031294521 -0.052762084 0.671 65 64 48 255
-0.029451283 -0.052763291 0.671 73 72 58 255
-0.027484491 -0.052528523 0.66800004 124 123 109 255
-0.025572464 -0.05237231 0.66600001 135 136 122 255
-0.023635672 -0.052137386 0.66300005 89 94 83 255
-0.021813972 -0.052138288 0.66300005 111 113 103 255
-0.019962028 -0.052060489 0.66200006 168 172 165 255
-0.018170305 -0.052139893 0.66300005 178 182 175 255
-0.016373012 -0.052219234 0.66400003 193 194 188 255
-0.014526332 -0.052141204 0.66300005 140 141 135 255
-0.012608444 -0.051748529 0.65800005 142 143 137 255
-0.010668743 -0.051119834 0.65000004 156 160 153 255
-0.0087593058 -0.050412405 0.64100003 143 147 140 255
-0.0069211349 -0.049862191 0.634 122 126 118 255
-0.0051540881 -0.049626492 0.63100004 107 111 103 255
-0.0034197695 -0.049626671 0.63100004 97 99 91 255
-0.0016827644 -0.049548123 0.63000005 85 85 77 255
4.8827893e-05 -0.04954816 0.63000005 55 52 45 255
0.0017775937 -0.049469467 0.62900001 52 48 37 255
0.0035064295 -0.049469363 0.62900001 47 44 30 255
0.0052269278 -0.04939054 0.62800002 42 39 23 255
0.0069529791 -0.049390297 0.62800002 41 38 22 255
0.0086789997 -0.049389977 0.62800002 47 44 28 255
0.010388415 -0.049310952 0.62700003 61 58 44 255
0.012092292 -0.049231857 0.62600005 71 69 58 255
0.013812685 -0.049231336 0.62600005 82 83 71 255
0.015508207 -0.049152099 0.625 82 83 69 255
0.017198166 -0.049072798 0.62400001 110 111 99 255
0.018882561 -0.048993435 0.62300003 103 104 90 255
0.020495264 -0.048756722 0.62 85 86 72 255
0.022163006 -0.048677232 0.61900002 87 87 77 255
0.023863712 -0.048676316 0.61900002 74 74 64 255
0.025605615 -0.048753958 0.62 86 88 80 255
0.027220773 -0.048595641 0.61800003 77 81 73 255
0.028918413 -0.048594527 0.61800003 76 81 70 255
0.030566396 -0.048514713 0.61700004 84 87 75 255
0.032208756 -0.048434842 0.61600006 82 83 69 255
0.033900529 -0.048433527 0.61600006 77 78 64 255
0.035534374 -0.04835353 0.61500001 77 76 60 255
0.037223116 -0.048352096 0.61500001 69 68 52 255
0.038785163 -0.048193365 0.61300004 77 76 60 255
0.040468104 -0.048191808 0.61300004 78 77 63 255
0.042219639 -0.048268802 0.61400002 74 70 59 255
0.043976497 -0.04834573 0.61500001 69 67 56 255
0.045664415 -0.048343979 0.61500001 63 60 46 255
0.047429159 -0.048420779 0.61600006 76 73 59 255
0.049199186 -0.048497505 0.61700004 70 69 55 255
0.050809547 -0.048416972 0.61600006 71 73 55 255
0.052328993 -0.048257783 0.61400002 62 64 47 255
0.054101169 -0.04833433 0.61500001 54 54 36 255
0.055697199 -0.048253637 0.61400002 57 57 39 255
0.057474438 -0.048330065 0.61500001 61 61 43 255
0.058968354 -0.048170678 0.61300004 66 64 46 255
0.060648948 -0.04816841 0.61300004 73 70 54 255
0.062329311 -0.048166081 0.61300004 62 59 43 255
0.064113855 -0.048242271 0.61400002 69 67 49 255
0.066010818 -0.048396967 0.61600006 74 72 54 255
0.067808576 -0.048473027 0.61700004 69 67 49 255
0.069724202 -0.048627581 0.61900002 58 56 38 255
0.071304396 -0.048546411 0.61800003 61 59 41 255
0.072878852 -0.048465189 0.61700004 71 68 52 255
0.074447572 -0.048383933 0.61600006 71 68 54 255
0.076257721 -0.048459709 0.61700004 67 64 48 255
0.078073077 -0.048535433 0.61800003 77 75 57 255
0.079893641 -0.048611101 0.61900002 84 82 64 255
0.081851199 -0.048765235 0.62100005 71 69 51 255
0.083819419 -0.048919305 0.62300003 69 67 49 255
0.085798278 -0.049073301 0.625 66 64 46 255
0.087507769 -0.049070213 0.625 70 67 51 255
0.089359716 -0.049145591 0.62600005 72 69 53 255
0.091216832 -0.049220912 0.62700003 70 67 53 255
0.093375534 -0.049453169 0.63000005 76 73 59 255
0.09539938 -0.049606867 0.63200003 70 66 52 255
0.097587526 -0.04983899 0.63500005 76 71 60 255
0.099791758 -0.050071038 0.63800001 88 84 68 255
0.1021712 -0.050381485 0.64200002 80 77 63 255
0.10457218 -0.050691854 0.64600003 68 65 51 255
0.10699467 -0.051002141 0.65000004 79 76 62 255
0.10927133 -0.051233884 0.65300006 98 95 81 255
0.11224432 -0.051779374 0.66000003 105 102 88 255
0.11542798 -0.052403197 0.66800004 106 103 89 255
0.11847942 -0.052948445 0.67500001 95 93 82 255
0.12121221 -0.05333671 0.68000001 69 69 59 255
0.12397194 -0.053724885 0.68500006 67 69 61 255
0.12730969 -0.054348242 0.69300002 77 81 73 255
-0.22409146 -0.07543654 0.93100005 190 197 196 255
-0.22084837 -0.075199626 0.92800003 184 189 186 255
-0.21738593 -0.074881636 0.92400002 190 193 189 255
-0.21417728 -0.074644625 0.92100006 172 177 173 255
-0.21098453 -0.074407563 0.91800004 155 160 157 255
-0.20803477 -0.074251518 0.91600007 124 129 126 255
-0.20419787 -0.073771164 0.91000003 123 128 125 255
-0.19928475 -0.072885342 0.89900005 134 139 136 255
-0.19224147 -0.071188554 0.87800002 183 189 182 255
-0.1876906 -0.07038343 0.86800003 182 186 179 255
-0.18404777 -0.069902532 0.86200005 186 190 183 255
-0.18064791 -0.069502629 0.85700005 185 191 184 255
-0.17665064 -0.068859316 0.84900004 171 177 170 255
-0.17290185 -0.068297006 0.84200007 174 180 173 255
-0.16939335 -0.067815676 0.83600003 165 171 164 255
-0.16451782 -0.066766374 0.82300001 151 158 147 255
-0.15990981 -0.065798007 0.81100005 125 132 121 255
-0.15536679 -0.064829454 0.79900002 119 124 113 255
-0.15127224 -0.06402301 0.78900003 153 158 147 255
-0.14798775 -0.063541017 0.78300005 136 140 132 255
-0.14566696 -0.063464694 0.78200006 119 121 113 255
-0.14353475 -0.063469492 0.78200006 114 116 106 255
-0.14067885 -0.063149571 0.77800006 125 126 114 255
-0.13677581 -0.062342513 0.76800001 101 102 90 255
-0.13380374 -0.061941203 0.76300001 102 103 89 255
-0.13120386 -0.061702169 0.76000005 77 79 62 255
-0.12878986 -0.061544251 0.75800002 54 54 36 255
-0.12621921 -0.061305068 0.75500005 55 55 37 255
-0.12350012 -0.060984604 0.75100005 53 51 31 255
-0.12144934 -0.060988888 0.75100005 59 57 37 255
-0.1192392 -0.060911909 0.75000006 53 51 31 255
-0.11703414 -0.06083487 0.74900001 55 53 33 255
-0.11468066 -0.060676549 0.74700004 42 41 19 255
-0.11248852 -0.060599383 0.74600005 55 53 33 255
-0.11030149 -0.060522161 0.74500006 48 46 28 255
-0.10811955 -0.060444873 0.74400002 43 41 23 255
-0.10580016 -0.06028628 0.74200004 51 49 31 255
-0.10349132 -0.060127605 0.74000001 65 63 45 255
-0.10119309 -0.059968863 0.73800004 88 86 68 255
-0.099174201 -0.059972562 0.73800004 65 63 45 255
-0.096891701 -0.059813675 0.73600006 54 52 34 255
-0.094619781 -0.059654698 0.73400003 57 55 37 255
-0.092106141 -0.059333101 0.73000002 52 52 34 255
-0.089984387 -0.059255254 0.72900003 51 51 33 255
-0.087747097 -0.059096046 0.72700006 54 54 36 255
-0.085638374 -0.059018046 0.72600001 61 59 41 255
-0.083304405 -0.058777388 0.72300005 73 71 53 255
-0.081099018 -0.058617935 0.72100002 88 86 68 255
-0.078904323 -0.05845841 0.71900004 77 75 57 255
-0.076720275 -0.058298804 0.71700001 52 50 32 255
-0.074651174 -0.058220424 0.71600002 49 47 29 255
-0.072485752 -0.058060661 0.71400005 54 52 34 255
-0.070429794 -0.057982132 0.71300006 55 53 35 255
-0.068571128 -0.058066178 0.71400005 54 52 34 255
-0.066240236 -0.05774352 0.71000004 69 67 47 255
-0.063840471 -0.05733943 0.70500004 98 96 76 255
-0.061555702 -0.057016574 0.70100003 88 86 68 255
-0.059547842 -0.056937639 0.70000005 69 67 49 255
-0.057545226 -0.056858633 0.69900006 58 55 39 255
-0.055388715 -0.056616854 0.69600004 61 58 44 255
-0.053325273 -0.056456331 0.69400001 58 57 43 255
-0.051272616 -0.056295734 0.69200003 62 60 49 255
-0.049302071 -0.0562164 0.69100004 60 60 50 255
-0.047268219 -0.056055639 0.68900001 67 69 59 255
-0.045442726 -0.056138869 0.69000006 63 65 55 255
-0.043548454 -0.056140676 0.69000006 79 81 71 255
-0.041533265 -0.055979673 0.68800002 102 104 94 255
-0.039240785 -0.055411752 0.68100005 121 124 112 255
-0.03715121 -0.055087835 0.67700005 108 112 95 255
-0.035031326 -0.054682449 0.67200005 82 86 69 255
-0.033086911 -0.054521095 0.67000002 67 69 52 255
-0.031153347 -0.05435966 0.66800004 57 59 42 255
-0.029318428 -0.054360904 0.66800004 75 76 62 255
-0.027442237 -0.054280691 0.66700006 104 105 91 255
-0.025494637 -0.054037634 0.66400003 137 140 126 255
-0.023563417 -0.053794503 0.66100001 139 142 130 255
-0.021747284 -0.053795438 0.66100001 156 158 148 255
-0.019931059 -0.053796295 0.66100001 175 179 171 255
-0.018169563 -0.053959861 0.66300005 162 166 159 255
-0.016372344 -0.054041963 0.66400003 164 165 159 255
-0.014460012 -0.053717047 0.66000003 116 117 111 255
-0.012454642 -0.052903708 0.65000004 171 172 166 255
-0.010537004 -0.052253056 0.64200002 144 148 141 255
-0.0086769601 -0.051683713 0.63500005 134 138 130 255
-0.0068990202 -0.051439863 0.63200003 109 113 105 255
-0.0051375418 -0.051195938 0.62900001 101 103 93 255
-0.0034087903 -0.05119611 0.62900001 78 80 70 255
-0.0016773534 -0.051114827 0.62800002 75 75 65 255
4.8670889e-05 -0.051114861 0.62800002 46 44 33 255
0.0017718693 -0.051033434 0.62700003 48 45 31 255
0.0035007119 -0.051114716 0.62800002 47 44 28 255
0.0052350368 -0.051195923 0.62900001 38 36 18 255
0.0069748368 -0.05127706 0.63000005 41 39 21 255
0.0086786449 -0.051113956 0.62800002 47 45 27 255
0.010338288 -0.050787993 0.62400001 58 55 41 255
0.012014533 -0.050624751 0.62200004 76 77 65 255
0.013723865 -0.050624214 0.62200004 86 89 77 255
0.015482762 -0.050786383 0.62400001 87 90 78 255
0.017169908 -0.050704319 0.62300003 94 97 85 255
0.018851485 -0.050622191 0.62200004 91 92 78 255
0.020494431 -0.050458603 0.62 91 92 80 255
0.022197908 -0.050457723 0.62 84 84 74 255
0.023824194 -0.050294008 0.61800003 91 91 81 255
0.025563281 -0.05037437 0.61900002 91 93 85 255
0.027263716 -0.050373286 0.61900002 88 90 82 255
0.028917246 -0.05029076 0.61800003 84 86 76 255
0.030565163 -0.050208163 0.61700004 88 88 80 255
0.032207459 -0.050125506 0.61600006 77 77 67 255
0.033899166 -0.050124157 0.61600006 68 69 57 255
0.035590727 -0.050122734 0.61600006 70 70 52 255
0.037221625 -0.050039887 0.61500001 66 66 48 255
0.03878361 -0.049875613 0.61300004 64 64 44 255
0.040466491 -0.049874011 0.61300004 70 68 48 255
0.042080443 -0.049790982 0.61200005 76 73 57 255
0.043831751 -0.049870603 0.61300004 74 71 57 255
0.045588363 -0.049950153 0.61400002 69 66 52 255
0.047350284 -0.050029635 0.61500001 87 84 70 255
0.048958044 -0.049946368 0.61400002 85 83 65 255
0.050642587 -0.049944378 0.61400002 65 63 45 255
0.052241728 -0.049860995 0.61300004 65 63 45 255
0.054099061 -0.050021552 0.61500001 64 62 44 255
0.055695042 -0.049938049 0.61400002 71 68 52 255
0.057472207 -0.050017141 0.61500001 61 58 44 255
0.059062265 -0.049933527 0.61400002 59 56 40 255
0.060745537 -0.04993118 0.61400002 60 59 45 255
0.062326923 -0.049847461 0.61300004 59 58 44 255
0.064006999 -0.049845003 0.61300004 75 72 56 255
0.065901138 -0.050005108 0.61500001 71 69 51 255
0.067696102 -0.050083838 0.61600006 65 63 45 255
0.069496296 -0.050162498 0.61700004 66 64 46 255
0.071186341 -0.050159805 0.61700004 57 55 37 255
0.072876118 -0.050157055 0.61700004 76 74 56 255
0.074565642 -0.050154254 0.61700004 56 53 37 255
0.07637848 -0.050232686 0.61800003 59 56 40 255
0.078070194 -0.050229777 0.61800003 63 59 42 255
0.079890698 -0.05030809 0.61900002 61 59 41 255
0.081848189 -0.05046761 0.62100005 60 58 40 255
0.083681822 -0.050545804 0.62200004 67 65 47 255
0.085520618 -0.050623938 0.62300003 71 69 51 255
0.087224603 -0.050620764 0.62300003 71 69 51 255
0.089071013 -0.050698787 0.62400001 71 68 52 255
0.090922602 -0.050776754 0.625 74 71 55 255
0.092631146 -0.050773434 0.625 66 63 47 255
0.094792232 -0.051013771 0.62800002 70 66 52 255
0.096969388 -0.051254023 0.63100004 73 68 57 255
0.099319048 -0.05157543 0.63500005 82 78 64 255
0.10153109 -0.051815525 0.63800001 79 75 61 255
0.10392107 -0.05213676 0.64200002 70 67 53 255
0.10633259 -0.052457914 0.64600003 83 80 66 255
0.10876562 -0.052778989 0.65000004 98 95 81 255
0.11122016 -0.053099971 0.65400004 97 96 82 255
0.11438735 -0.053745616 0.66200006 100 98 87 255
0.11794891 -0.054553494 0.67200005 99 97 86 255
0.12120818 -0.055198863 0.68000001 88 86 75 255
0.12378687 -0.055519436 0.68400002 65 65 55 255
0.1265707 -0.055921085 0.68900001 62 64 56 255
0.13050005 -0.056809586 0.70000005 62 66 58 255
-0.22564021 -0.077640265 0.92700005 192 198 200 255
-0.22336307 -0.077730373 0.92800003 186 193 192 255
-0.22012819 -0.077485435 0.92500007 196 199 196 255
-0.21643864 -0.077072889 0.92000002 182 185 181 255
-0.21347347 -0.076911621 0.91800004 173 176 172 255
-0.21051872 -0.076750308 0.91600007 153 156 152 255
-0.2071202 -0.076421365 0.91200006 121 126 122 255
-0.20172352 -0.07533814 0.89900005 130 135 131 255
-0.19551039 -0.073919483 0.88200003 184 190 183 255
-0.19048406 -0.072919667 0.87000006 181 187 180 255
-0.18681996 -0.072422594 0.86400002 182 186 179 255
-0.18318804 -0.071925417 0.85800004 187 191 184 255
-0.17937754 -0.071344309 0.85100001 172 178 171 255
-0.17581283 -0.07084693 0.84500003 168 174 167 255
-0.172691 -0.070517138 0.84100002 170 176 169 255
-0.16857745 -0.069767974 0.83200002 162 168 161 255
-0.16351302 -0.068599373 0.81800002 151 157 149 255
-0.15891877 -0.067598291 0.80600005 126 131 120 255
-0.15438949 -0.066597022 0.79400003 129 134 123 255
-0.15011692 -0.065679446 0.78300005 145 147 137 255
-0.14703786 -0.065265022 0.77800006 131 133 125 255
-0.14435819 -0.065018289 0.77500004 116 116 106 255
-0.14187801 -0.064855374 0.77300006 110 111 99 255
-0.13886589 -0.064440683 0.76800001 98 99 87 255
-0.1357026 -0.063941985 0.76200002 91 92 78 255
-0.13309771 -0.063694932 0.75900006 82 84 67 255
-0.13068141 -0.063531712 0.75700003 65 67 50 255
-0.12844555 -0.06345237 0.75600004 50 50 32 255
-0.12604758 -0.063289024 0.75400001 55 55 37 255
-0.12349574 -0.06304168 0.75100005 53 51 31 255
-0.12112158 -0.062878184 0.74900001 58 56 36 255
-0.11891697 -0.062798589 0.74800003 53 51 31 255
-0.11671743 -0.062718935 0.74700004 55 53 33 255
-0.11452299 -0.062639207 0.74600005 45 44 22 255
-0.11218286 -0.062475458 0.74400002 47 45 25 255
-0.1101494 -0.062479574 0.74400002 53 51 33 255
-0.10782494 -0.062315688 0.74200004 47 45 27 255
-0.10565366 -0.062235706 0.74100006 47 45 27 255
-0.10320777 -0.061987665 0.73800004 67 65 47 255
-0.10091507 -0.061823551 0.73600006 84 82 64 255
-0.09876734 -0.061743345 0.73500001 60 58 40 255
-0.096756391 -0.061747085 0.73500001 53 51 33 255
-0.094487295 -0.061582744 0.73300004 51 49 31 255
-0.092102632 -0.061334301 0.73000002 53 53 35 255
-0.089980938 -0.061253812 0.72900003 49 49 31 255
-0.087623015 -0.061005194 0.72600001 52 52 34 255
-0.085517108 -0.060924552 0.72500002 55 53 35 255
-0.083185956 -0.060675766 0.72200006 69 67 49 255
-0.080870919 -0.060426887 0.71900004 84 82 64 255
-0.078681752 -0.06026195 0.71700001 87 85 65 255
-0.076503269 -0.060096946 0.71500003 48 46 28 255
-0.074335463 -0.059931856 0.71300006 52 50 32 255
-0.072279841 -0.05985073 0.71200001 54 52 34 255
-0.070328213 -0.059853602 0.71200001 55 53 35 255
-0.068568394 -0.060024541 0.71400005 58 56 36 255
-0.066051006 -0.059522852 0.708 71 70 48 255
-0.06356626 -0.059021041 0.70200002 97 95 75 255
-0.061289802 -0.058687281 0.69800001 88 86 68 255
-0.059375305 -0.058689747 0.69800001 59 57 39 255
-0.057460573 -0.058692142 0.69800001 55 52 36 255
-0.055386465 -0.058526292 0.69600004 56 55 41 255
-0.053323112 -0.058360353 0.69400001 57 56 42 255
-0.051270522 -0.058194324 0.69200003 62 63 51 255
-0.049228713 -0.058028225 0.69000006 65 65 55 255
-0.047266278 -0.057946123 0.68900001 67 69 59 255
-0.04544086 -0.058032162 0.69000006 67 69 59 255
-0.043420438 -0.057865806 0.68800002 96 98 88 255
-0.041290086 -0.057531144 0.68400002 122 127 116 255
-0.0390663 -0.057028167 0.67800003 132 134 124 255
-0.036985051 -0.056693316 0.67400002 83 86 72 255
-0.034925614 -0.056358363 0.67000002 63 65 48 255
-0.03303615 -0.056275677 0.66900003 58 60 43 255
-0.031152049 -0.05619292 0.66800004 59 61 43 255
