ply
format ascii 1.0
comment PCL generated
element vertex 972
property float x
property float y
property float z
property uchar red
property uchar green
property uchar blue
property uchar alpha
element camera 0
property float view_px
property float view_py
property float view_pz
property float x_axisx
property float x_axisy
property float x_axisz
property float y_axisx
property float y_axisy
property float y_axisz
property float z_axisx
property float z_axisy
property float z_axisz
property float focal
property float scalex
property float scaley
property float centerx
property float centery
property int viewportx
property int viewporty
property float k1
property float k2
end_header
0.1486866 -0.39913282 0.80100006 39 36 20 255
0.15257284 -0.40363166 0.81000006 37 34 20 255
0.15478872 -0.40364623 0.81000006 22 19 5 255
0.1562296 -0.4016678 0.80600005 22 18 8 255
0.15725575 -0.39869291 0.80000001 23 19 9 255
0.15844871 -0.3962166 0.79500002 22 18 8 255
0.16022076 -0.39523569 0.79300004 25 21 10 255
0.16177742 -0.39375666 0.79000002 26 24 13 255
0.16352555 -0.39277646 0.78800005 23 19 8 255
0.16547333 -0.392295 0.78700006 24 23 9 255
0.16720299 -0.39131546 0.78500003 25 24 10 255
0.16956933 -0.39183185 0.78600001 24 23 9 255
0.17106761 -0.39035457 0.78300005 29 28 12 255
0.17299229 -0.3898747 0.78200006 28 25 9 255
0.17446397 -0.38839811 0.77900004 29 26 10 255
0.17637305 -0.3879191 0.77800006 33 31 13 255
0.17804763 -0.38694182 0.77600002 33 31 13 255
0.18017605 -0.38696226 0.77600002 32 30 12 255
0.1818351 -0.38598588 0.77400005 33 31 13 255
0.18372129 -0.38550857 0.77300006 34 32 14 255
0.18512167 -0.38403428 0.77000004 31 29 11 255
0.18699238 -0.38355783 0.76900005 32 30 12 255
0.18910402 -0.38358068 0.76900005 36 34 16 255
0.19121619 -0.38360408 0.76900005 31 29 11 255
0.19282606 -0.38263029 0.76700002 34 32 14 255
0.19493382 -0.38265476 0.76700002 34 30 13 255
0.19704214 -0.38267979 0.76700002 34 30 13 255
0.19863173 -0.38170746 0.76500005 34 30 13 255
0.20021091 -0.38073558 0.76300001 34 30 13 255
0.20177969 -0.37976417 0.76100004 37 35 15 255
0.2033381 -0.37879327 0.75900006 37 33 16 255
0.20515674 -0.37832189 0.75800002 38 35 15 255
0.20751743 -0.37884942 0.75900006 34 30 13 255
0.2098842 -0.37937757 0.76000005 36 32 15 255
0.21225722 -0.37990651 0.76100004 37 33 16 255
0.21407306 -0.37943766 0.76000005 38 34 17 255
0.2158841 -0.3789694 0.75900006 37 33 16 255
0.21797758 -0.37900105 0.75900006 38 32 15 255
0.22007178 -0.37903345 0.75900006 40 36 19 255
0.22216678 -0.37906653 0.75900006 38 33 13 255
0.22396708 -0.37860081 0.75800002 44 39 19 255
0.22606087 -0.37863529 0.75800002 42 37 17 255
0.22815554 -0.37867054 0.75800002 40 35 15 255
0.23055477 -0.37920615 0.75900006 41 37 20 255
0.23234735 -0.37874326 0.75800002 40 36 19 255
0.2350632 -0.3797802 0.76000005 45 41 24 255
0.23779093 -0.3808181 0.76200002 46 40 23 255
0.24179009 -0.3838563 0.76800001 55 51 34 255
0.24772902 -0.38989514 0.78000003 57 53 37 255
-0.33244595 -0.40432581 0.80000001 86 84 74 255
-0.32522294 -0.39817852 0.78800005 88 85 69 255
-0.31766021 -0.39152995 0.77500004 69 65 48 255
-0.31342956 -0.38892624 0.77000004 64 60 43 255
-0.30922917 -0.38632494 0.76500005 52 49 29 255
-0.30546036 -0.38423082 0.76100004 52 49 29 255
-0.30211455 -0.38264358 0.75800002 51 48 27 255
-0.29878756 -0.38105825 0.75500005 50 47 26 255
-0.29665801 -0.3809886 0.75500005 47 44 24 255
-0.29374996 -0.37991112 0.75300002 49 48 26 255
-0.29279134 -0.38135749 0.75600004 47 44 24 255
-0.29143301 -0.38230017 0.75800002 48 45 25 255
-0.28930172 -0.38223514 0.75800002 47 42 22 255
-0.28755093 -0.3826755 0.75900006 42 41 19 255
-0.28542 -0.38261282 0.75900006 47 46 24 255
-0.28403711 -0.38355932 0.76100004 40 39 17 255
-0.28227407 -0.38400266 0.76200002 40 39 17 255
-0.28050691 -0.38444695 0.76300001 43 41 21 255
-0.27800593 -0.38388464 0.76200002 38 36 16 255
-0.27551195 -0.38332364 0.76100004 37 35 17 255
-0.27338421 -0.38326743 0.76100004 37 35 17 255
-0.27161428 -0.38371587 0.76200002 34 32 14 255
-0.26984012 -0.38416523 0.76300001 39 37 19 255
-0.2680617 -0.38461545 0.76400006 34 32 14 255
-0.26662698 -0.38556987 0.76600003 33 31 13 255
-0.26483715 -0.38602179 0.76700002 32 30 12 255
-0.26372799 -0.38748103 0.77000004 32 30 12 255
-0.26192385 -0.38793448 0.77100003 29 27 9 255
-0.26078925 -0.38939503 0.77400005 30 28 10 255
-0.25863662 -0.38934705 0.77400005 33 31 13 255
-0.25681651 -0.3898029 0.77500004 28 26 8 255
-0.25433481 -0.3892538 0.77400005 34 32 14 255
-0.25316298 -0.39071709 0.77700001 30 28 10 255
-0.25132954 -0.39117545 0.77800006 33 30 14 255
-0.25045237 -0.39314273 0.78200006 33 30 14 255
-0.24860156 -0.3936024 0.78300005 29 26 10 255
-0.24674624 -0.39406282 0.78400004 29 26 10 255
-0.24426241 -0.39351884 0.78300005 29 26 12 255
-0.24209434 -0.39347839 0.78300005 29 26 12 255
-0.23992716 -0.39343867 0.78300005 24 21 7 255
-0.23836823 -0.39440462 0.78500003 24 23 9 255
-0.23679918 -0.39537126 0.78700006 26 24 13 255
-0.23492178 -0.39583611 0.78800005 25 26 14 255
-0.23303971 -0.39630166 0.78900003 21 22 10 255
-0.2308604 -0.39626563 0.78900003 20 21 9 255
-0.22926159 -0.39723474 0.79100001 21 21 11 255
-0.22736545 -0.39770231 0.79200006 17 17 7 255
-0.22518031 -0.39766842 0.79200006 19 16 9 255
-0.22215123 -0.39612901 0.78900003 16 14 4 255
-0.21635143 -0.38957042 0.77600002 30 27 11 255
-0.21034798 -0.3825115 0.76200002 36 34 14 255
-0.20496896 -0.37645826 0.75000006 47 46 22 255
-0.20127992 -0.373418 0.74400002 45 44 20 255
-0.19842796 -0.3718845 0.74100006 52 51 29 255
-0.19559313 -0.37035176 0.73800004 43 42 20 255
-0.19303772 -0.36932167 0.73600006 44 43 21 255
-0.19049387 -0.3682923 0.73400003 48 47 25 255
-0.1874481 -0.36626023 0.73000002 43 42 20 255
-0.18417081 -0.36372724 0.72500002 47 46 24 255
-0.18117283 -0.36169681 0.72100002 49 46 25 255
-0.17894299 -0.36117208 0.72000003 54 50 33 255
-0.17696491 -0.36114955 0.72000003 56 52 35 255
-0.17474432 -0.36062598 0.71900004 45 39 22 255
-0.17228939 -0.35960132 0.71700001 52 47 27 255
-0.17008346 -0.35907888 0.71600002 52 49 29 255
-0.16835308 -0.35955995 0.71700001 52 49 28 255
-0.16638561 -0.35953999 0.71700001 44 43 21 255
-0.16350129 -0.3575148 0.71300006 45 42 21 255
-0.16131908 -0.35699448 0.71200001 50 49 25 255
-0.15891892 -0.35597327 0.71000004 52 51 27 255
-0.15697229 -0.35595533 0.71000004 48 47 23 255
-0.15437101 -0.35443383 0.70700002 46 45 21 255
-0.15221778 -0.35391551 0.70600003 45 44 20 255
-0.15007038 -0.35339764 0.70500004 48 46 21 255
-0.14813893 -0.35338151 0.70500004 44 42 18 255
-0.14600043 -0.35286453 0.70400006 45 42 21 255
-0.14366311 -0.35184678 0.70200002 50 46 22 255
-0.14113514 -0.3503283 0.69900006 55 50 29 255
-0.1394206 -0.350815 0.70000005 50 47 27 255
-0.13730802 -0.35029972 0.69900006 50 47 27 255
-0.1353949 -0.35028598 0.69900006 51 48 27 255
-0.13310015 -0.34927037 0.69700003 46 44 24 255
-0.13062838 -0.34775409 0.69400001 47 45 25 255
-0.12854427 -0.34724039 0.69300002 43 41 21 255
-0.12591764 -0.3452239 0.68900001 45 43 23 255
-0.12385319 -0.34471101 0.68800002 48 47 25 255
-0.12161718 -0.34369743 0.68600005 53 52 28 255
-0.11974143 -0.34368625 0.68600005 52 51 27 255
-0.11752226 -0.34267336 0.68400002 48 47 25 255
-0.11531428 -0.34166089 0.68200004 56 55 33 255
-0.11311742 -0.34064871 0.68000001 58 56 36 255
-0.11076809 -0.33913594 0.67700005 55 53 35 255
-0.10859621 -0.33812445 0.67500001 63 61 43 255
-0.10659363 -0.33761424 0.67400002 56 54 36 255
-0.10459669 -0.33710426 0.67300004 63 59 42 255
-0.10245269 -0.33609369 0.671 59 55 39 255
-0.1003198 -0.33508343 0.66900003 62 58 42 255
-0.098345235 -0.3345744 0.66800004 63 59 43 255
-0.096376285 -0.33406556 0.66700006 53 50 36 255
-0.094412938 -0.33355695 0.66600001 53 50 36 255
-0.092455201 -0.33304864 0.66500002 57 54 40 255
-0.090639375 -0.33304137 0.66500002 56 53 37 255
-0.088823698 -0.33303437 0.66500002 50 48 30 255
-0.086877301 -0.33252671 0.66400003 46 44 26 255
-0.084936492 -0.33201933 0.66300005 53 51 31 255
-0.082750492 -0.33051059 0.66000003 51 50 28 255
-0.080948971 -0.33050445 0.66000003 49 48 26 255
-0.07902763 -0.32999772 0.65900004 44 41 21 255
-0.077229045 -0.32999197 0.65900004 52 50 32 255
-0.075545028 -0.3304871 0.66000003 43 41 23 255
-0.073743924 -0.33048171 0.66000003 38 36 18 255
-0.071942911 -0.33047649 0.66000003 39 37 19 255
-0.069929451 -0.32947004 0.65800005 42 38 22 255
-0.06823764 -0.32996592 0.65900004 46 42 25 255
-0.066439629 -0.32996121 0.65900004 50 44 27 255
-0.064641707 -0.32995668 0.65900004 52 46 29 255
-0.062939227 -0.33045295 0.66000003 50 43 23 255
-0.061138734 -0.33044875 0.66000003 43 38 17 255
-0.059518136 -0.33144611 0.66200006 43 38 17 255
-0.057625145 -0.3309415 0.66100001 47 43 19 255
-0.055822141 -0.33093771 0.66100001 40 37 16 255
-0.054019194 -0.33093411 0.66100001 42 40 22 255
-0.052216321 -0.33093068 0.66100001 44 42 24 255
-0.050413497 -0.33092731 0.66100001 42 38 21 255
-0.048610736 -0.33092418 0.66100001 44 40 23 255
-0.046878837 -0.33142176 0.66200006 45 42 22 255
-0.045005362 -0.33091822 0.66100001 47 44 24 255
-0.04320275 -0.33091545 0.66100001 43 40 20 255
-0.041400187 -0.3309128 0.66100001 44 42 24 255
-0.039717484 -0.33191153 0.66300005 42 40 22 255
-0.037966732 -0.33240977 0.66400003 44 41 21 255
-0.036101662 -0.33190686 0.66300005 41 38 17 255
-0.034345534 -0.33240533 0.66400003 43 42 20 255
-0.032485988 -0.33190268 0.66300005 42 39 18 255
-0.030678201 -0.33190078 0.66300005 47 45 27 255
-0.028826905 -0.3313984 0.66200006 46 44 26 255
-0.027062725 -0.33189729 0.66300005 45 42 26 255
-0.025255026 -0.33189571 0.66300005 45 43 25 255
-0.023447353 -0.33189431 0.66300005 45 43 25 255
-0.02167234 -0.33239353 0.66400003 42 40 22 255
-0.019832073 -0.33189172 0.66300005 47 43 26 255
-0.018024465 -0.33189061 0.66300005 45 41 24 255
-0.016192412 -0.33138904 0.66200006 39 35 18 255
-0.014409293 -0.33188874 0.66300005 43 40 20 255
-0.012601731 -0.33188793 0.66300005 45 41 24 255
-0.010794181 -0.33188725 0.66300005 44 41 21 255
-0.0089866398 -0.33188668 0.66300005 44 41 20 255
-0.007179108 -0.3318862 0.66300005 47 42 21 255
-0.0053715832 -0.33188584 0.66300005 43 38 18 255
-0.0035586872 -0.33138499 0.66200006 45 40 20 255
-0.0017538971 -0.33138487 0.66200006 46 41 21 255
5.1045612e-05 -0.33238593 0.66400003 51 48 28 255
0.0018640901 -0.33288658 0.66500002 43 41 21 255
0.0036825887 -0.33338732 0.66600001 58 55 34 255
0.0055147996 -0.33438879 0.66800004 54 51 30 255
0.0073359567 -0.33438915 0.66800004 64 59 38 255
0.0091571203 -0.33438963 0.66800004 70 65 44 255
0.010945423 -0.33338904 0.66600001 66 59 38 255
0.012799474 -0.33439091 0.66800004 64 55 34 255
0.014620672 -0.33439174 0.66800004 48 39 18 255
0.016466495 -0.33489323 0.66900003 48 39 18 255
0.018290445 -0.33489418 0.66900003 46 39 19 255
0.020114416 -0.33489534 0.66900003 44 39 19 255
0.022003986 -0.33589774 0.671 47 42 22 255
0.023797931 -0.33539852 0.67000002 42 37 17 255
0.025624692 -0.33539996 0.67000002 45 40 20 255
0.027369533 -0.33440036 0.66800004 49 42 22 255
0.029278291 -0.33540326 0.67000002 45 38 18 255
0.031197986 -0.33640635 0.67200005 46 39 18 255
0.033177771 -0.33791006 0.67500001 43 38 18 255
0.035070192 -0.33841279 0.67600006 50 43 23 255
0.036913496 -0.33841497 0.67600006 46 39 18 255
0.038871504 -0.33941853 0.67800003 60 53 32 255
0.040840454 -0.34042218 0.68000001 61 54 33 255
0.04288315 -0.34192669 0.68300003 72 63 42 255
0.044614688 -0.34092817 0.68100005 72 63 42 255
0.046540082 -0.34143168 0.68200004 70 63 42 255
0.048470978 -0.34193528 0.68300003 63 58 38 255
0.050554775 -0.34344038 0.68600005 51 46 26 255
0.052502152 -0.34394434 0.68700004 44 41 21 255
0.054455038 -0.34444848 0.68800002 48 45 24 255
0.05649532 -0.34545341 0.69000006 49 44 23 255
0.058461972 -0.34595782 0.69100004 46 41 21 255
0.060521472 -0.34696308 0.69300002 44 39 19 255
0.062591963 -0.34796855 0.69500005 47 40 20 255
0.064673439 -0.34897417 0.69700003 45 38 18 255
0.066670388 -0.34947929 0.69800001 44 37 16 255
0.068672888 -0.34998471 0.69900006 43 38 18 255
0.070781887 -0.35099089 0.70100003 43 38 18 255
0.072798178 -0.35149655 0.70200002 48 43 23 255
0.074820042 -0.35200244 0.70300001 45 39 22 255
0.07673829 -0.35200787 0.70300001 42 38 21 255
0.078992307 -0.35351563 0.70600003 42 36 19 255
0.080918945 -0.35352141 0.70600003 47 41 24 255
0.083080381 -0.35452884 0.708 43 37 20 255
0.085252859 -0.35553658 0.71000004 42 36 19 255
0.087436363 -0.35654452 0.71200001 46 38 21 255
0.089756452 -0.35805354 0.71500003 49 41 24 255
0.091964774 -0.35906199 0.71700001 60 52 35 255
0.09418416 -0.36007077 0.71900004 65 56 35 255
0.096280865 -0.36057895 0.72000003 78 67 44 255
0.098383196 -0.36108744 0.72100002 69 58 35 255
0.10076949 -0.36259773 0.72400004 66 56 29 255
0.10331425 -0.3646093 0.72800004 65 52 28 255
0.10573637 -0.36612028 0.73100001 55 42 19 255
0.10802767 -0.36713079 0.73300004 65 52 29 255
0.11017994 -0.36764064 0.73400003 65 54 31 255
0.11249072 -0.36865181 0.73600006 55 46 25 255
0.11496816 -0.37016404 0.73900002 52 45 25 255
0.11746222 -0.37167674 0.74200004 50 45 24 255
0.11997286 -0.37318984 0.74500006 45 40 19 255
0.12282766 -0.37570515 0.75000006 45 38 17 255
0.12570998 -0.37822092 0.75500005 59 50 27 255
0.12845065 -0.38023612 0.75900006 63 54 31 255
0.13138536 -0.38275278 0.76400006 47 38 15 255
0.13434768 -0.38526997 0.76900005 40 33 12 255
0.13751501 -0.38828865 0.77500004 38 33 13 255
0.14053528 -0.39080688 0.78000003 38 34 17 255
0.14431478 -0.39532977 0.78900003 36 34 16 255
0.14832944 -0.40035444 0.79900002 33 30 14 255
0.15202235 -0.40437773 0.80700004 30 27 13 255
0.15442154 -0.40489393 0.80800003 21 17 6 255
0.15624498 -0.40390715 0.80600005 22 17 10 255
0.15746804 -0.40141732 0.80100006 20 15 8 255
0.15866403 -0.39892772 0.79600006 23 19 9 255
0.16003506 -0.39693946 0.79200006 25 21 10 255
0.16158935 -0.39545268 0.78900003 24 22 11 255
0.16333513 -0.39446744 0.78700006 28 24 13 255
0.16528057 -0.39398375 0.78600001 25 24 10 255
0.16722092 -0.39350051 0.78500003 29 28 14 255
0.16937198 -0.39351898 0.78500003 28 27 13 255
0.1710864 -0.39253533 0.78300005 26 25 9 255
0.17279029 -0.39155197 0.78100002 29 28 12 255
0.17425963 -0.39006767 0.77800006 32 29 13 255
0.17593969 -0.38908502 0.77600002 28 26 8 255
0.17806818 -0.38910565 0.77600002 31 29 11 255
0.18019712 -0.38912678 0.77600002 32 30 12 255
0.18185662 -0.38814548 0.77400005 34 32 14 255
0.1837433 -0.38766608 0.77300006 32 30 12 255
0.18538454 -0.38668558 0.77100003 33 31 13 255
0.1875017 -0.38670868 0.77100003 31 29 11 255
0.1891275 -0.3857291 0.76900005 38 36 18 255
0.19124021 -0.38575321 0.76900005 28 26 8 255
0.19285062 -0.3847746 0.76700002 36 32 15 255
0.19521309 -0.38530141 0.76800001 36 32 15 255
0.1968109 -0.38432384 0.76600003 36 32 15 255
0.19865794 -0.3838484 0.76500005 34 30 13 255
0.20023765 -0.38287169 0.76300001 35 33 13 255
0.20180699 -0.38189548 0.76100004 35 33 13 255
0.20336592 -0.38091969 0.75900006 36 34 16 255
0.20518516 -0.38044631 0.75800002 38 34 17 255
0.20727307 -0.38047546 0.75800002 37 33 16 255
0.20936157 -0.38050523 0.75800002 36 32 15 255
0.2114508 -0.38053569 0.75800002 38 32 15 255
0.21325901 -0.3800647 0.75700003 37 31 14 255
0.2153469 -0.38009647 0.75700003 33 27 10 255
0.21743557 -0.38012892 0.75700003 38 32 15 255
0.21952495 -0.38016209 0.75700003 40 34 17 255
0.22132239 -0.37969375 0.75600004 34 30 13 255
0.22341062 -0.37972829 0.75600004 36 33 13 255
0.22609618 -0.38076818 0.75800002 38 35 15 255
0.22819157 -0.38080433 0.75800002 37 34 14 255
0.23028781 -0.38084126 0.75800002 34 30 13 255
0.23238494 -0.38087893 0.75800002 37 33 16 255
0.23572035 -0.38292751 0.76200002 46 42 25 255
0.2384546 -0.38397214 0.76400006 49 44 24 255
0.24246037 -0.38702828 0.77000004 51 47 30 255
0.24777102 -0.39209673 0.78000003 55 53 35 255
-0.33253115 -0.40663204 0.80000001 79 77 67 255
-0.32324126 -0.39790764 0.78300005 77 73 56 255
-0.31732988 -0.39325297 0.77400005 69 66 46 255
-0.31350732 -0.39114138 0.77000004 63 60 39 255
-0.30930504 -0.38852423 0.76500005 54 51 31 255
-0.30513304 -0.38590941 0.76000005 50 47 26 255
-0.30138981 -0.38380456 0.75600004 47 44 23 255
-0.29806685 -0.38220939 0.75300002 48 45 24 255
-0.29594168 -0.38213852 0.75300002 45 43 23 255
-0.29381824 -0.38206896 0.75300002 47 45 25 255
-0.29247126 -0.38301525 0.75500005 47 43 26 255
-0.29111469 -0.38396236 0.75700003 42 39 19 255
-0.28936678 -0.38440332 0.75800002 46 41 21 255
-0.28799382 -0.38535231 0.76000005 47 42 21 255
-0.2858589 -0.38528815 0.76000005 39 36 15 255
-0.28372559 -0.38522524 0.76000005 42 41 19 255
-0.28196427 -0.38567024 0.76100004 38 37 15 255
-0.27983114 -0.38560954 0.76100004 33 33 13 255
-0.27806443 -0.38605657 0.76200002 35 35 15 255
-0.27556929 -0.38549143 0.76100004 35 35 17 255
-0.27415907 -0.38644701 0.76300001 33 31 13 255
-0.27166954 -0.38588411 0.76200002 39 37 19 255
-0.26989439 -0.38633513 0.76300001 39 37 19 255
-0.26811501 -0.38678706 0.76400006 33 31 13 255
-0.26667947 -0.38774607 0.76600003 33 31 13 255
-0.26488867 -0.38819966 0.76700002 33 31 13 255
-0.26377869 -0.38966623 0.77000004 32 30 12 255
-0.26197365 -0.39012146 0.77100003 35 33 15 255
-0.26083827 -0.3915894 0.77400005 34 32 14 255
-0.25835049 -0.39103439 0.77300006 34 32 14 255
-0.25653228 -0.3914921 0.77400005 32 30 12 255
-0.254381 -0.39144486 0.77400005 28 26 8 255
-0.25288257 -0.39240992 0.77600002 32 30 12 255
-0.25137416 -0.39337572 0.77800006 31 28 12 255
-0.25017601 -0.39484766 0.78100002 29 26 10 255
-0.24864472 -0.39581475 0.78300005 33 30 14 255
-0.246159 -0.39526606 0.78200006 29 26 12 255
-0.24399184 -0.39522371 0.78200006 29 25 14 255
-0.24120717 -0.39417157 0.78000003 29 25 14 255
-0.23966047 -0.39514163 0.78200006 25 21 10 255
-0.23779987 -0.39560711 0.78300005 25 23 12 255
-0.23623565 -0.39657849 0.78500003 21 19 8 255
-0.23466122 -0.39755046 0.78700006 21 22 10 255
-0.23307657 -0.39852303 0.78900003 21 22 10 255
-0.2308965 -0.39848608 0.78900003 20 20 10 255
-0.229297 -0.39945987 0.79100001 19 19 9 255
-0.22682592 -0.3989194 0.79000002 16 16 6 255
-0.22464556 -0.39888468 0.79000002 19 17 7 255
-0.22162119 -0.39733616 0.78700006 27 23 12 255
-0.21666215 -0.39225462 0.77700001 29 26 12 255
-0.2103786 -0.38465074 0.76200002 37 35 17 255
-0.20472512 -0.37805825 0.74900001 47 46 24 255
-0.201038 -0.37500045 0.74300003 47 46 24 255
-0.19792022 -0.37295306 0.73900002 48 47 25 255
-0.19535525 -0.37191588 0.73700005 47 46 24 255
-0.19306423 -0.37138405 0.73600006 49 48 26 255
-0.19051974 -0.37034836 0.73400003 53 50 30 255
-0.18773003 -0.36880884 0.73100001 43 42 20 255
-0.18419522 -0.36575666 0.72500002 47 46 24 255
-0.18094526 -0.36320987 0.72000003 50 47 27 255
-0.1787176 -0.36268169 0.71900004 50 48 28 255
-0.17649592 -0.3621541 0.71800005 47 44 24 255
-0.17428026 -0.36162704 0.71700001 49 46 25 255
-0.17183027 -0.3605963 0.71500003 51 48 27 255
-0.17010444 -0.36107907 0.71600002 48 45 24 255
-0.16813879 -0.36105803 0.71600002 52 50 26 255
-0.16617356 -0.3610374 0.71600002 52 50 26 255
-0.16375011 -0.3600089 0.71400005 54 52 28 255
-0.16111146 -0.35847679 0.71100003 50 48 24 255
-0.15871356 -0.35744944 0.70900005 45 43 19 255
-0.1565481 -0.35692674 0.708 45 44 20 255
-0.15417017 -0.3559005 0.70600003 49 48 24 255
-0.15223485 -0.35588294 0.70600003 49 48 26 255
-0.15029991 -0.35586578 0.70600003 44 43 21 255
-0.14815515 -0.35534504 0.70500004 41 40 18 255
-0.14580882 -0.35432068 0.70300001 45 42 22 255
-0.1434738 -0.35329685 0.70100003 49 46 26 255
-0.14074619 -0.35126555 0.69700003 48 45 25 255
-0.13903677 -0.35175452 0.69800001 41 39 19 255
-0.13692929 -0.35123605 0.69700003 39 37 17 255
-0.13502128 -0.35122183 0.69700003 56 54 34 255
-0.13292257 -0.35070407 0.69600004 54 52 32 255
-0.13064142 -0.3496829 0.69400001 49 47 27 255
-0.12855694 -0.34916595 0.69300002 52 50 30 255
-0.12592991 -0.3471379 0.68900001 49 47 27 255
-0.12386511 -0.34662172 0.68800002 54 55 31 255
-0.12145147 -0.34509841 0.68500006 50 51 27 255
-0.11957813 -0.34508675 0.68500006 60 61 39 255
-0.1175332 -0.34457168 0.68400002 51 52 30 255
-0.11532488 -0.34355319 0.68200004 58 57 35 255
-0.1131277 -0.34253508 0.68000001 56 54 34 255
-0.11077804 -0.34101358 0.67700005 62 60 40 255
-0.10860587 -0.33999616 0.67500001 61 58 38 255
-0.106603 -0.33948278 0.67400002 65 61 44 255
-0.10460578 -0.33896968 0.67300004 65 61 44 255
-0.10261422 -0.33845687 0.67200005 61 57 40 255
-0.1004783 -0.33744067 0.67000002 61 57 40 255
-0.098206274 -0.3359212 0.66700006 57 55 37 255
-0.096095286 -0.33490562 0.66500002 57 55 37 255
-0.094137177 -0.33439401 0.66400003 53 51 33 255
-0.092462741 -0.33488977 0.66500002 51 49 31 255
-0.090783007 -0.33538577 0.66600001 53 51 33 255
-0.088964358 -0.33537838 0.66600001 56 54 36 255
-0.087015003 -0.33486766 0.66500002 52 50 32 255
-0.084943146 -0.33385372 0.66300005 53 51 33 255
-0.082882293 -0.33283991 0.66100001 53 51 31 255
-0.08095517 -0.3323299 0.66000003 49 47 27 255
-0.07915356 -0.33232364 0.66000003 43 41 23 255
-0.077234849 -0.33181408 0.65900004 51 49 31 255
-0.075550653 -0.33231178 0.66000003 40 38 20 255
-0.073749363 -0.33230612 0.66000003 43 41 23 255
-0.071948171 -0.3323006 0.66000003 44 42 24 255
-0.0700408 -0.33179185 0.65900004 45 41 24 255
-0.068346091 -0.3322902 0.66000003 52 48 31 255
-0.066545181 -0.33228528 0.66000003 51 45 28 255
-0.064744368 -0.33228055 0.66000003 40 34 17 255
-0.063039005 -0.33277938 0.66100001 46 40 23 255
-0.061235614 -0.33277494 0.66100001 43 39 22 255
-0.059432309 -0.33277065 0.66100001 44 39 18 255
-0.057629075 -0.33276653 0.66100001 42 37 16 255
-0.055741463 -0.33225918 0.66000003 43 40 19 255
-0.054022826 -0.33275881 0.66100001 43 39 22 255
-0.052219797 -0.33275515 0.66100001 43 39 22 255
-0.050493106 -0.33325508 0.66200006 41 37 20 255
-0.048613928 -0.33274829 0.66100001 45 42 22 255
-0.046881896 -0.33324847 0.66200006 43 40 19 255
-0.045008279 -0.33274204 0.66100001 49 46 25 255
-0.043205533 -0.33273911 0.66100001 47 44 23 255
-0.04146548 -0.33323973 0.66200006 44 42 22 255
-0.03977992 -0.33424377 0.66400003 41 39 21 255
-0.037969135 -0.33424124 0.66400003 41 39 19 255
-0.036103934 -0.33373547 0.66300005 44 43 21 255
-0.034244228 -0.33322987 0.66200006 40 39 17 255
-0.032488011 -0.33373106 0.66300005 43 42 20 255
-0.030680105 -0.33372903 0.66300005 44 42 24 255
-0.028872231 -0.33372718 0.66300005 47 45 27 255
-0.027064387 -0.33372539 0.66300005 48 46 28 255
-0.025294667 -0.33422709 0.66400003 46 44 26 255
-0.023484152 -0.33422557 0.66400003 45 43 25 255
-0.021706302 -0.3347275 0.66500002 39 37 19 255
-0.019833276 -0.33371949 0.66300005 41 37 20 255
-0.01805274 -0.33422166 0.66400003 43 39 22 255
-0.016217848 -0.33371726 0.66300005 43 39 22 255
-0.014431895 -0.33421963 0.66400003 43 39 22 255
-0.012602489 -0.33371547 0.66300005 45 41 24 255
-0.01081111 -0.33421808 0.66400003 41 38 18 255
-0.0090007326 -0.33421746 0.66400003 49 44 24 255
-0.0071903658 -0.33421698 0.66400003 43 38 18 255
-0.005363801 -0.33320993 0.66200006 45 40 20 255
-0.0035588997 -0.33320966 0.66200006 44 37 17 255
-0.0017540014 -0.33320948 0.66200006 45 40 20 255
5.1048653e-05 -0.33421609 0.66400003 54 51 31 255
0.0018613978 -0.33421615 0.66400003 57 54 34 255
0.0036772783 -0.33471966 0.66500002 71 68 48 255
0.0054986156 -0.33522326 0.66600001 73 68 47 255
0.0073363939 -0.33623034 0.66800004 74 67 46 255
0.0091439588 -0.33572754 0.66700006 63 56 35 255
0.010962514 -0.33572817 0.66700006 66 57 36 255
0.012800244 -0.33623222 0.66800004 55 45 26 255
0.014643437 -0.33673638 0.66900003 45 38 18 255
0.016467487 -0.33673739 0.66900003 44 37 17 255
0.018291552 -0.33673847 0.66900003 49 41 24 255
0.020115634 -0.33673966 0.66900003 45 40 20 255
0.022005325 -0.33774766 0.671 46 41 21 255
0.023799386 -0.33724576 0.67000002 45 40 20 255
0.02566451 -0.33775067 0.671 45 40 20 255
0.027412191 -0.33674565 0.66900003 51 44 23 255
0.029323801 -0.33775413 0.671 44 37 16 255
0.031199923 -0.3382594 0.67200005 40 33 12 255
0.033130679 -0.33926818 0.67400002 44 39 19 255
0.035020504 -0.33977374 0.67500001 48 41 21 255
0.03691582 -0.34027946 0.67600006 47 40 20 255
0.038873967 -0.34128866 0.67800003 46 41 20 255
0.040843055 -0.342298 0.68000001 49 44 23 255
0.042697523 -0.34230074 0.68000001 56 49 28 255
0.044552043 -0.34230363 0.68000001 64 57 36 255
0.046474855 -0.34281009 0.68100005 71 64 43 255
0.048474144 -0.34382001 0.68300003 74 67 47 255
0.050558105 -0.34533355 0.68600005 49 44 24 255
0.052505627 -0.34584042 0.68700004 48 45 25 255
0.054537822 -0.34685087 0.68900001 43 40 19 255
0.056580994 -0.34786156 0.69100004 46 41 20 255
0.058635149 -0.34887239 0.69300002 45 40 19 255
0.060612947 -0.34937993 0.69400001 42 35 15 255
0.062506206 -0.34938425 0.69400001 44 37 16 255
0.064585134 -0.35039565 0.69600004 46 39 18 255
0.066579536 -0.35090378 0.69700003 45 38 15 255
0.068775974 -0.35241902 0.70000005 46 39 18 255
0.070786923 -0.35292757 0.70100003 53 46 25 255
0.072803415 -0.35343623 0.70200002 55 50 29 255
0.074931905 -0.35444865 0.70400006 50 45 25 255
0.076853067 -0.35445434 0.70400006 45 39 22 255
0.079110034 -0.35597065 0.70700002 41 35 18 255
0.080924965 -0.35547322 0.70600003 44 38 21 255
0.08308664 -0.35648653 0.708 44 38 21 255
0.085259341 -0.35750008 0.71000004 43 37 20 255
0.087443069 -0.35851386 0.71200001 45 39 22 255
0.089637868 -0.35952795 0.71400005 46 38 21 255
0.091715418 -0.3600387 0.71500003 44 36 19 255
0.094060592 -0.3615568 0.71800005 51 40 27 255
0.096288569 -0.36257169 0.72000003 63 53 36 255
0.09852761 -0.36358684 0.72200006 71 62 31 255
0.10091691 -0.36510587 0.72500002 81 71 46 255
0.10332277 -0.36662525 0.72800004 75 62 38 255
0.10560053 -0.36764127 0.73000002 63 50 27 255
0.10803676 -0.36916128 0.73300004 62 49 26 255
0.11033944 -0.37017798 0.73500001 63 52 31 255
0.11250041 -0.37069145 0.73600006 51 43 26 255
0.11497817 -0.37221244 0.73900002 44 40 23 255
0.11747257 -0.37373388 0.74200004 43 40 20 255
0.12014459 -0.37575936 0.74600005 41 38 18 255
0.12283869 -0.37778524 0.75000006 50 43 20 255
0.12555489 -0.37981156 0.75400001 60 52 27 255
0.12863171 -0.38284588 0.76000005 62 52 27 255
0.1312256 -0.38436937 0.76300001 50 42 17 255
0.1341856 -0.3869009 0.76800001 44 35 12 255
0.13735066 -0.38993672 0.77400005 41 36 16 255
0.140729 -0.3934769 0.78100002 39 35 18 255
0.14451177 -0.39802539 0.79000002 41 39 21 255
0.14871541 -0.4035823 0.80100006 26 25 9 255
0.15203753 -0.40662062 0.80700004 23 22 8 255
0.15443714 -0.40714014 0.80800003 14 12 2 255
0.15606709 -0.40564451 0.80500007 16 13 6 255
0.15768091 -0.40414914 0.80200005 17 14 7 255
0.15887997 -0.40164617 0.79700005 21 16 9 255
0.16025409 -0.39964744 0.79300004 23 19 9 255
0.16160665 -0.39764893 0.78900003 25 23 12 255
0.16314526 -0.39615473 0.78600001 25 24 10 255
0.1650884 -0.39566889 0.78500003 24 23 9 255
0.16702645 -0.39518344 0.78400004 25 26 12 255
0.16917519 -0.39520252 0.78400004 25 24 10 255
0.17066878 -0.39370972 0.78100002 24 23 9 255
0.17258887 -0.39322552 0.78000003 26 25 11 255
0.17427991 -0.39223766 0.77800006 29 28 12 255
0.17618716 -0.3917543 0.77700001 31 28 12 255
0.1780894 -0.39127135 0.77600002 33 31 13 255
0.18021883 -0.3912932 0.77600002 33 31 13 255
0.18187879 -0.39030701 0.77400005 32 30 12 255
0.18352823 -0.38932118 0.77200001 34 32 14 255
0.18516722 -0.38833579 0.77000004 30 28 10 255
0.18728219 -0.38835958 0.77000004 34 32 14 255
0.1891517 -0.38787952 0.76900005 32 30 12 255
0.1915137 -0.38840878 0.77000004 35 31 14 255
0.19287589 -0.38692081 0.76700002 38 32 15 255
0.19498478 -0.38694677 0.76700002 32 28 11 255
0.19683731 -0.38646877 0.76600003 35 31 14 255
0.19894466 -0.38649589 0.76600003 35 31 14 255
0.20052765 -0.38551441 0.76400006 37 35 17 255
0.20210025 -0.38453332 0.76200002 35 33 15 255
0.20366251 -0.38355282 0.76000005 37 33 16 255
0.20548514 -0.3830775 0.75900006 36 32 15 255
0.20730293 -0.38260272 0.75800002 39 35 18 255
0.20911586 -0.38212854 0.75700003 36 32 15 255
0.210924 -0.38165492 0.75600004 38 32 15 255
0.21272735 -0.38118196 0.75500005 35 29 12 255
0.21509492 -0.38171935 0.75600004 37 31 14 255
0.21718152 -0.38175261 0.75600004 40 34 17 255
0.21897884 -0.38128164 0.75500005 40 34 17 255
0.22077142 -0.38081121 0.75400001 36 32 15 255
0.22344597 -0.38185677 0.75600004 36 33 13 255
0.22583407 -0.38239807 0.75700003 40 37 17 255
0.22822855 -0.38294026 0.75800002 36 33 13 255
0.23002172 -0.3824729 0.75700003 36 33 13 255
0.23211685 -0.38251147 0.75700003 39 37 17 255
0.23545051 -0.38457224 0.76100004 41 38 18 255
0.23818287 -0.3856234 0.76300001 46 43 23 255
0.24218707 -0.3886975 0.76900005 47 45 25 255
0.24717864 -0.39328963 0.77800006 51 49 31 255
-0.33053911 -0.40638548 0.79500002 72 70 59 255
-0.32249889 -0.3991442 0.78100002 77 73 56 255
-0.31618071 -0.39395127 0.77100003 75 72 51 255
-0.31236482 -0.39182696 0.76700002 61 59 35 255
-0.30816916 -0.38919419 0.76200002 52 49 28 255
-0.30400378 -0.38656381 0.75700003 46 43 22 255
-0.30066606 -0.38495687 0.75400001 46 43 22 255
-0.29813907 -0.38437277 0.75300002 45 43 23 255
-0.2964057 -0.38481089 0.75400001 42 40 20 255
-0.29388788 -0.38422954 0.75300002 43 41 21 255
-0.29215237 -0.38467002 0.75400001 44 41 21 255
-0.29041293 -0.38511157 0.75500005 44 41 21 255
-0.28905132 -0.38606414 0.75700003 45 40 20 255
-0.28768015 -0.38701761 0.75900006 42 37 17 255
-0.28629929 -0.38797194 0.76100004 40 35 15 255
-0.28453538 -0.38841733 0.76200002 41 38 17 255
-0.2820262 -0.38784444 0.76100004 39 36 15 255
-0.27952415 -0.38727292 0.76000005 39 37 17 255
-0.27739415 -0.38721213 0.76000005 36 34 14 255
-0.27526563 -0.38715246 0.76000005 32 32 14 255
-0.27385733 -0.38811257 0.76200002 34 34 16 255
-0.2720826 -0.38856426 0.76300001 39 37 19 255
-0.26994988 -0.38850763 0.76300001 36 34 16 255
-0.2685205 -0.38947034 0.76500005 42 40 22 255
-0.26673308 -0.38992471 0.76600003 39 37 17 255
-0.2645959 -0.389871 0.76600003 37 35 15 255
-0.26348794 -0.39134508 0.76900005 38 36 18 255
-0.26202458 -0.39231086 0.77100003 38 36 18 255
-0.26055136 -0.39327738 0.77300006 33 31 13 255
-0.25806531 -0.39271849 0.77200001 33 31 13 255
-0.2565805 -0.39368668 0.77400005 32 30 12 255
-0.2544283 -0.39363837 0.77400005 32 30 12 255
-0.25292906 -0.39460796 0.77600002 34 32 14 255
-0.25141987 -0.39557838 0.77800006 34 31 15 255
-0.24990059 -0.39654937 0.78000003 28 25 9 255
-0.24837127 -0.39752108 0.78200006 30 26 12 255
-0.24620228 -0.39747688 0.78200006 32 28 14 255
-0.24434631 -0.39794177 0.78300005 27 23 9 255
-0.24155791 -0.39688292 0.78100002 27 23 12 255
-0.24000768 -0.39785758 0.78300005 30 26 15 255
-0.23844729 -0.39883286 0.78500003 24 20 9 255
-0.23687685 -0.39980885 0.78700006 23 21 10 255
-0.23469971 -0.39976946 0.78700006 22 23 11 255
-0.23252349 -0.39973083 0.78700006 23 24 12 255
-0.23093353 -0.40070876 0.78900003 16 18 8 255
-0.22933334 -0.40168729 0.79100001 16 18 8 255
-0.22743581 -0.40215865 0.79200006 17 17 7 255
-0.22468038 -0.40110746 0.79000002 21 19 9 255
-0.2216551 -0.39954954 0.78700006 25 21 10 255
-0.21669497 -0.39443907 0.77700001 25 22 8 255
-0.21068624 -0.38729978 0.76300001 33 31 13 255
-0.20502879 -0.38066986 0.75000006 46 43 23 255
-0.2010674 -0.37708682 0.74300003 45 42 22 255
-0.19741309 -0.37401244 0.73700005 49 46 26 255
-0.19458786 -0.37246153 0.73400003 49 47 27 255
-0.19230443 -0.37192625 0.73300004 53 52 30 255
-0.19028673 -0.37189898 0.73300004 44 41 20 255
-0.18801282 -0.37136507 0.73200005 46 45 23 255
-0.18472855 -0.36880255 0.72700006 47 45 21 255
-0.1817237 -0.3667483 0.72300005 49 47 23 255
-0.17899001 -0.36520201 0.72000003 47 45 21 255
-0.17651917 -0.36416373 0.71800005 47 45 21 255
-0.17405984 -0.36312601 0.71600002 52 52 26 255
-0.17161201 -0.36208904 0.71400005 53 53 27 255
-0.16988847 -0.36257398 0.71500003 49 49 23 255
-0.16792506 -0.36255231 0.71500003 53 52 28 255
-0.1659621 -0.36253113 0.71500003 48 47 25 255
-0.1633115 -0.36098942 0.71200001 49 46 26 255
-0.16090441 -0.35995531 0.71000004 48 45 25 255
-0.15828483 -0.3584148 0.70700002 42 39 19 255
-0.15634553 -0.35839576 0.70700002 50 48 28 255
-0.15418825 -0.35787025 0.70600003 50 49 27 255
-0.15246814 -0.35835892 0.70700002 47 45 25 255
-0.15010421 -0.35732755 0.70500004 44 42 22 255
-0.14817195 -0.3573103 0.70500004 46 45 23 255
-0.14582515 -0.35627976 0.70300001 48 46 26 255
-0.14328499 -0.35474309 0.70000005 50 48 28 255
-0.14096355 -0.35371366 0.69800001 58 55 35 255
-0.13885261 -0.35319141 0.69700003 47 45 25 255
-0.13674743 -0.3526696 0.69600004 50 49 27 255
-0.13464807 -0.35214823 0.69500005 52 51 29 255
-0.13255447 -0.35162723 0.69400001 51 50 28 255
-0.1306549 -0.35161331 0.69400001 51 50 28 255
-0.12857008 -0.35109311 0.69300002 50 51 29 255
-0.12612543 -0.34956014 0.69000006 51 52 30 255
-0.1238775 -0.34853411 0.68800002 55 56 32 255
-0.12164077 -0.34750849 0.68600005 56 57 33 255
-0.11941522 -0.34648332 0.68400002 60 61 37 255
-0.11720087 -0.34545851 0.68200004 52 53 31 255
-0.11482856 -0.34392756 0.67900002 63 62 40 255
-0.11280563 -0.34341002 0.67800003 60 58 38 255
-0.11046111 -0.34187981 0.67500001 66 64 44 255
-0.1082941 -0.34085652 0.67300004 62 58 41 255
-0.10645458 -0.34084639 0.67300004 66 62 45 255
-0.10461526 -0.34083661 0.67300004 63 61 43 255
-0.10262342 -0.34032068 0.67200005 63 61 43 255
-0.10033724 -0.33879218 0.66900003 67 65 47 255
-0.097773142 -0.3362512 0.66400003 54 52 34 255
-0.095814601 -0.33573619 0.66300005 58 56 38 255
-0.094003476 -0.33572781 0.66300005 47 45 25 255
-0.092470609 -0.33673242 0.66500002 47 45 25 255
-0.090518005 -0.33621815 0.66400003 54 52 34 255
-0.088971771 -0.33722314 0.66600001 49 47 29 255
-0.0870222 -0.33670935 0.66500002 45 43 25 255
-0.08507821 -0.3361958 0.66400003 58 56 38 255
-0.082889013 -0.33466989 0.66100001 51 49 29 255
-0.080961667 -0.33415681 0.66000003 52 50 30 255
-0.079159848 -0.33415028 0.66000003 43 41 23 255
-0.077475347 -0.33465025 0.66100001 52 50 32 255
-0.075556546 -0.33413786 0.66000003 41 39 19 255
-0.073755063 -0.33413193 0.66000003 43 41 23 255
-0.071953684 -0.33412617 0.66000003 46 44 26 255
-0.070152409 -0.33412063 0.66000003 43 40 20 255
-0.068351232 -0.33411527 0.66000003 42 39 19 255
-0.066449314 -0.33360386 0.65900004 47 41 24 255
-0.064651057 -0.33359891 0.65900004 53 45 28 255
-0.062948257 -0.33410028 0.66000003 50 44 27 255
-0.061147425 -0.33409566 0.66000003 40 36 19 255
-0.059346691 -0.33409116 0.66000003 47 42 22 255
-0.057458833 -0.33358067 0.65900004 43 38 17 255
-0.055745434 -0.33408269 0.66000003 41 36 15 255
-0.053944912 -0.33407873 0.66000003 43 37 20 255
-0.05214446 -0.33407491 0.66000003 40 36 19 255
-0.050496627 -0.33508357 0.66200006 40 36 19 255
-0.048690844 -0.33508003 0.66200006 44 40 23 255
-0.046885122 -0.33507663 0.66200006 45 43 23 255
-0.045011356 -0.33456722 0.66100001 49 46 25 255
-0.043208469 -0.33456415 0.66100001 46 43 22 255
-0.041468278 -0.33506739 0.66200006 45 43 23 255
-0.039722677 -0.33557069 0.66300005 45 43 23 255
-0.037971668 -0.33607417 0.66400003 40 39 17 255
-0.036051873 -0.33505937 0.66200006 43 42 20 255
-0.034246489 -0.33505702 0.66200006 48 47 25 255
-0.032490149 -0.33556083 0.66300005 43 42 20 255
-0.03072839 -0.33606482 0.66400003 46 44 24 255
-0.028961217 -0.33656895 0.66500002 46 44 26 255
-0.027066149 -0.33555487 0.66300005 42 40 22 255
-0.025296304 -0.33605924 0.66400003 44 42 24 255
-0.023450295 -0.33555153 0.66300005 43 41 21 255
-0.021675054 -0.33605611 0.66400003 41 38 17 255
-0.019834546 -0.33554864 0.66300005 45 42 21 255
-0.018053893 -0.33605349 0.66400003 44 41 20 255
-0.016243344 -0.33605236 0.66400003 44 41 21 255
-0.014454548 -0.33655745 0.66500002 44 40 23 255
-0.012641306 -0.33655658 0.66500002 37 33 17 255
-0.010828078 -0.33655584 0.66500002 47 44 28 255
-0.0090148579 -0.33655515 0.66500002 50 46 32 255
-0.0071908198 -0.33604854 0.66400003 42 38 22 255
-0.0053803455 -0.33604816 0.66400003 44 40 23 255
-0.0035645002 -0.33554178 0.66300005 47 41 24 255
-0.0017567616 -0.33554161 0.66300005 44 40 23 255
5.0974992e-05 -0.33554155 0.66300005 50 46 29 255
0.0018587117 -0.33554161 0.66300005 66 62 45 255
0.0036719802 -0.33604789 0.66400003 74 71 51 255
0.0054907063 -0.33655426 0.66500002 67 60 40 255
0.0073258751 -0.33756691 0.66700006 69 62 42 255
0.0091582472 -0.33807349 0.66800004 58 50 33 255
0.010979645 -0.33807418 0.66800004 51 43 26 255
0.012801056 -0.33807495 0.66800004 43 35 18 255
0.014644369 -0.33858192 0.66900003 42 36 19 255
0.016468536 -0.33858296 0.66900003 39 35 18 255
0.018292719 -0.33858407 0.66900003 39 35 18 255
0.020146992 -0.33909145 0.67000002 45 41 24 255
0.022006741 -0.33959895 0.671 51 47 30 255
0.023871968 -0.34010661 0.67200005 44 39 19 255
0.025704421 -0.34010825 0.67200005 43 38 18 255
0.027495926 -0.33960387 0.671 49 42 21 255
0.029325714 -0.33960578 0.671 44 37 16 255
0.031201966 -0.34011394 0.67200005 43 36 15 255
0.033132862 -0.34112832 0.67400002 47 40 20 255
0.035022818 -0.34163678 0.67500001 44 37 17 255
0.036918275 -0.34214538 0.67600006 48 41 21 255
0.038819224 -0.34265411 0.67700005 44 39 18 255
0.040725667 -0.34316292 0.67800003 48 41 20 255
0.042637613 -0.34367198 0.67900002 50 43 22 255
0.044489544 -0.34367502 0.67900002 59 52 31 255
0.046409778 -0.34418431 0.68000001 75 68 48 255
0.048406508 -0.3452 0.68200004 70 63 43 255
0.050487895 -0.34672198 0.68500006 51 45 28 255
0.052509293 -0.34773797 0.68700004 50 45 25 255
0.054541651 -0.34875417 0.68900001 48 43 22 255
0.056584992 -0.34977052 0.69100004 42 38 14 255
0.058554705 -0.35028085 0.69200003 47 40 19 255
0.060442608 -0.35028526 0.69200003 46 39 18 255
0.062420651 -0.35079595 0.69300002 41 36 15 255
0.064404234 -0.35130692 0.69400001 44 40 16 255
0.066584423 -0.35283044 0.69700003 46 42 17 255
0.068682812 -0.35384801 0.69900006 55 51 26 255
0.070893198 -0.35537195 0.70200002 70 64 39 255
0.072808899 -0.3553775 0.70200002 67 60 37 255
0.07515049 -0.35740817 0.70600003 58 51 30 255
0.076968133 -0.35690784 0.70500004 49 43 26 255
0.079116151 -0.35792649 0.70700002 48 40 23 255
0.080816656 -0.35692033 0.70500004 44 36 20 255
0.082975812 -0.35793945 0.70700002 44 36 19 255
0.085266113 -0.35946509 0.71000004 45 37 20 255
0.087204449 -0.35947216 0.71000004 46 38 21 255
0.089268468 -0.35998574 0.71100003 49 41 24 255
0.091338076 -0.36049956 0.71200001 39 31 14 255
0.093675323 -0.36202627 0.71500003 43 35 18 255
0.095895372 -0.363047 0.71700001 43 35 18 255
0.098399431 -0.36508071 0.72100002 49 39 22 255
0.10078628 -0.36660841 0.72400004 73 62 41 255
0.10333166 -0.36864281 0.72800004 73 62 41 255
0.10546502 -0.36915839 0.72900003 75 61 41 255
0.10775144 -0.3701807 0.73100001 69 58 35 255
0.11004896 -0.3712033 0.73300004 56 47 26 255
0.11251049 -0.37273276 0.73600006 47 40 20 255
0.11483299 -0.37375602 0.73800004 41 38 18 255
0.11748332 -0.37579265 0.74200004 47 44 24 255
0.12015571 -0.3778297 0.74600005 45 42 21 255
0.123014 -0.38037366 0.75100005 45 41 17 255
0.1257333 -0.38241154 0.75500005 58 50 25 255
0.1288133 -0.385463 0.76100004 65 55 30 255
0.13175431 -0.38800839 0.76600003 57 47 22 255
0.13472293 -0.39055434 0.77100003 48 39 16 255
0.13771918 -0.39310077 0.77600002 40 35 15 255
0.14092328 -0.3961544 0.78200006 38 34 17 255
0.14416051 -0.39920864 0.78800005 34 32 14 255
0.14780219 -0.40327665 0.79600006 30 27 11 255
0.15111116 -0.40633217 0.80200005 24 22 11 255
0.15387982 -0.40786827 0.80500007 20 18 8 255
0.1556958 -0.4068715 0.80300003 18 15 8 255
0.15769778 -0.40638179 0.80200005 16 13 6 255
0.15909652 -0.40437219 0.79800004 21 18 11 255
0.16067584 -0.4028697 0.79500002 22 20 10 255
0.16182941 -0.40035394 0.79000002 26 24 13 255
0.16316351 -0.39834514 0.78600001 25 24 10 255
0.16489676 -0.39735034 0.78400004 27 26 12 255
0.16683252 -0.39686275 0.78300005 27 26 12 255
0.168979 -0.39688239 0.78300005 26 25 11 255
0.17090736 -0.39639565 0.78200006 27 24 10 255
0.17260936 -0.39540243 0.78000003 29 26 12 255
0.17452487 -0.39491656 0.77900004 31 28 12 255
0.17620857 -0.39392415 0.77700001 29 26 10 255
0.17811128 -0.39343914 0.77600002 28 26 8 255
0.18000898 -0.39295456 0.77500004 29 27 9 255
0.18166667 -0.39196348 0.77300006 35 33 15 255
0.18355159 -0.39147982 0.77200001 33 31 13 255
0.18519109 -0.39048958 0.77000004 33 31 13 255
0.1873066 -0.39051405 0.77000004 31 29 11 255
0.18868464 -0.38901752 0.76700002 33 31 13 255
0.19079296 -0.38904297 0.76700002 34 30 13 255
0.19214742 -0.38754737 0.76400006 35 31 14 255
0.19450289 -0.38808125 0.76500005 37 33 17 255
0.19635047 -0.38760114 0.76400006 36 32 15 255
0.19819318 -0.38712159 0.76300001 37 33 16 255
0.20003095 -0.38664252 0.76200002 33 29 12 255
0.20212916 -0.38667154 0.76200002 39 35 18 255
0.20395997 -0.38619363 0.76100004 36 32 15 255
0.20578597 -0.38571638 0.76000005 34 28 11 255
0.20760715 -0.38523972 0.75900006 43 38 18 255
0.20942347 -0.38476354 0.75800002 35 32 12 255
0.21123499 -0.38428801 0.75700003 40 34 17 255
0.21332353 -0.38432077 0.75700003 38 34 17 255
0.21541286 -0.38435423 0.75700003 37 33 16 255
0.2172156 -0.38388067 0.75600004 39 35 18 255
0.21872348 -0.38289988 0.75400001 39 35 18 255
0.22080685 -0.3829354 0.75400001 38 34 17 255
0.22318666 -0.38347957 0.75500005 36 31 11 255
0.22557276 -0.38402456 0.75600004 43 38 18 255
0.22736304 -0.38355443 0.75500005 42 37 16 255
0.22975646 -0.38410115 0.75600004 39 36 16 255
0.23215631 -0.38464874 0.75700003 42 39 19 255
0.23580042 -0.38722992 0.76200002 47 44 23 255
0.23822425 -0.38777956 0.76300001 50 47 26 255
0.24191464 -0.39036334 0.76800001 49 47 27 255
0.2462693 -0.39396521 0.77500004 60 60 42 255
-0.33021113 -0.40816948 0.79400003 67 65 54 255
-0.32093161 -0.39934433 0.77700001 79 77 57 255
-0.31585285 -0.39566293 0.77000004 78 77 53 255
-0.31163058 -0.39301196 0.76500005 67 66 42 255
-0.30824772 -0.39139068 0.76200002 54 53 31 255
-0.30408046 -0.38874441 0.75700003 56 54 30 255
-0.3019377 -0.3886677 0.75700003 54 52 28 255
-0.3001928 -0.38910562 0.75800002 50 47 27 255
-0.29805091 -0.3890315 0.75800002 43 40 20 255
-0.29473966 -0.38741922 0.75500005 44 42 22 255
-0.29183468 -0.38632187 0.75300002 46 43 23 255
-0.28971213 -0.38625205 0.75300002 40 37 17 255
-0.28835511 -0.38720921 0.75500005 39 36 16 255
-0.2869885 -0.38816717 0.75700003 45 40 20 255
-0.28561229 -0.38912609 0.75900006 37 32 11 255
-0.28422636 -0.39008582 0.76100004 37 34 13 255
-0.28171873 -0.38950884 0.76000005 37 35 11 255
-0.27921823 -0.38893324 0.75900006 39 38 16 255
-0.27672487 -0.38835889 0.75800002 42 41 19 255
-0.27496311 -0.38881046 0.75900006 39 37 17 255
-0.27355662 -0.3897751 0.76100004 36 34 16 255
-0.27249703 -0.39125267 0.76400006 42 40 20 255
-0.27036044 -0.39119479 0.76400006 40 38 18 255
-0.26857629 -0.39164996 0.76500005 39 37 17 255
-0.26643956 -0.39159405 0.76500005 39 38 16 255
-0.26464966 -0.39205104 0.76600003 41 40 18 255
-0.26285544 -0.39250901 0.76700002 39 37 17 255
-0.26139686 -0.39347947 0.76900005 37 35 15 255
-0.25959116 -0.39393905 0.77000004 32 30 12 255
-0.25744677 -0.39388794 0.77000004 34 32 14 255
-0.25563514 -0.39434928 0.77100003 32 30 12 255
-0.25414792 -0.39532295 0.77300006 31 29 11 255
-0.25297663 -0.39680856 0.77600002 29 27 9 255
-0.2514666 -0.39778352 0.77800006 31 28 12 255
-0.24962611 -0.3982479 0.77900004 31 28 12 255
-0.24809878 -0.39922422 0.78100002 30 26 10 255
-0.24561676 -0.39866796 0.78000003 33 29 13 255
-0.24376553 -0.39913476 0.78100002 26 23 9 255
-0.24129105 -0.39858031 0.78000003 28 24 13 255
-0.23974286 -0.39955971 0.78200006 28 24 13 255
-0.23848833 -0.4010506 0.78500003 24 22 11 255
-0.23661606 -0.40152028 0.78600001 24 22 11 255
-0.23473918 -0.4019908 0.78700006 22 22 12 255
-0.23226662 -0.40144047 0.78600001 22 22 12 255
-0.23067877 -0.40242317 0.78800005 16 18 8 255
-0.22908068 -0.40340644 0.79000002 15 15 5 255
-0.22718517 -0.40387967 0.79100001 17 17 7 255
-0.22471611 -0.40333256 0.79000002 25 23 12 255
-0.22168995 -0.40176523 0.78700006 28 25 11 255
-0.21672864 -0.39662573 0.77700001 27 24 10 255
-0.21071862 -0.38944617 0.76300001 28 26 8 255
-0.20505995 -0.38277888 0.75000006 49 47 27 255
-0.20082693 -0.378665 0.74200004 46 45 23 255
-0.19744241 -0.37608328 0.73700005 50 49 27 255
-0.19488159 -0.37503338 0.73500001 40 39 17 255
-0.19233236 -0.37398428 0.73300004 50 49 27 255
-0.18979475 -0.37293592 0.73100001 50 49 27 255
-0.1875257 -0.37239847 0.73000002 56 55 31 255
-0.18475446 -0.37084153 0.72700006 50 49 25 255
-0.18174891 -0.36877528 0.72300005 47 45 21 255
-0.17901455 -0.36721987 0.72000003 45 43 19 255
-0.17629723 -0.36566529 0.71700001 49 47 23 255
-0.17384006 -0.36462137 0.71500003 47 46 22 255
-0.17163476 -0.36408806 0.71400005 47 46 22 255
-0.16991074 -0.36457512 0.71500003 45 44 20 255
-0.16771194 -0.36404294 0.71400005 45 44 20 255
-0.16551909 -0.36351132 0.71300006 42 40 16 255
-0.16333216 -0.36298016 0.71200001 45 42 21 255
-0.16092454 -0.36193988 0.71000004 47 44 23 255
-0.15830442 -0.36039039 0.70700002 44 41 21 255
-0.15636466 -0.36037073 0.70700002 53 51 31 255
-0.15442534 -0.36035153 0.70700002 52 51 29 255
-0.15248641 -0.36033276 0.70700002 50 49 27 255
-0.15012197 -0.35929516 0.70500004 52 50 30 255
-0.14776888 -0.3582581 0.70300001 48 47 25 255
-0.14584203 -0.35824069 0.70300001 55 53 33 255
-0.14350609 -0.35720462 0.70100003 47 45 27 255
-0.14118148 -0.35616907 0.69900006 47 45 25 255
-0.13886814 -0.35513395 0.69700003 48 46 26 255
-0.13695909 -0.35511836 0.69700003 48 47 23 255
-0.13466281 -0.35408419 0.69500005 51 50 26 255
-0.13256884 -0.35355994 0.69400001 55 54 30 255
-0.13029234 -0.35252663 0.69200003 55 54 30 255
-0.12821262 -0.35200322 0.69100004 54 55 33 255
-0.12595583 -0.35097077 0.68900001 51 52 30 255
-0.12389033 -0.35044816 0.68800002 56 55 33 255
-0.12147592 -0.3489072 0.68500006 56 55 33 255
-0.11925274 -0.34787601 0.68300003 59 58 34 255
-0.11704077 -0.34684521 0.68100005 50 48 28 255
-0.11467084 -0.3453055 0.67800003 52 50 30 255
-0.11265033 -0.34478477 0.67700005 57 55 35 255
-0.11047185 -0.34375513 0.67500001 59 57 39 255
-0.10846543 -0.34323508 0.67400002 65 61 45 255
-0.10630652 -0.34220612 0.67200005 64 62 44 255
-0.10446966 -0.34219596 0.67200005 61 58 44 255
-0.10248024 -0.34167683 0.671 62 59 45 255
-0.10049649 -0.341158 0.67000002 64 62 44 255
-0.098076597 -0.33911198 0.66600001 64 62 44 255
-0.095967792 -0.33808467 0.66400003 53 51 33 255
-0.094153702 -0.33807591 0.66400003 49 47 27 255
-0.092339747 -0.33806744 0.66400003 51 49 29 255
-0.090525962 -0.33805922 0.66400003 51 49 31 255
-0.088845924 -0.33856031 0.66500002 49 47 29 255
-0.087029696 -0.3385525 0.66500002 51 49 29 255
-0.085085474 -0.33803591 0.66400003 63 61 41 255
-0.083021432 -0.33701044 0.66200006 58 56 36 255
-0.080968447 -0.33598524 0.66000003 54 52 32 255
-0.079286367 -0.33648747 0.66100001 53 51 33 255
-0.077364504 -0.3359718 0.66000003 51 49 31 255
-0.075677201 -0.33647445 0.66100001 51 49 31 255
-0.073761024 -0.33595923 0.66000003 49 47 27 255
-0.07206849 -0.33646226 0.66100001 51 49 29 255
-0.07026428 -0.33645639 0.66100001 50 45 24 255
-0.068356618 -0.33594179 0.66000003 48 43 23 255
-0.066454515 -0.3354274 0.65900004 46 40 23 255
-0.064656071 -0.33542216 0.65900004 49 43 26 255
-0.062857717 -0.33541712 0.65900004 43 39 22 255
-0.061152097 -0.3359212 0.66000003 42 38 21 255
-0.059351183 -0.33591652 0.66000003 39 35 18 255
