ply
format ascii 1.0
comment PCL generated
element vertex 963
property float x
property float y
property float z
property uchar red
property uchar green
property uchar blue
property uchar alpha
element camera 0
property float view_px
property float view_py
property float view_pz
property float x_axisx
property float x_axisy
property float x_axisz
property float y_axisx
property float y_axisy
property float y_axisz
property float z_axisx
property float z_axisy
property float z_axisz
property float focal
property float scalex
property float scaley
property float centerx
property float centery
property int viewportx
property int viewporty
property float k1
property float k2
end_header
-0.19637291 -0.062214278 1.664 68 77 66 255
-0.19158344 -0.06214302 1.6620001 80 89 77 255
-0.18691671 -0.062109079 1.6610001 69 79 64 255
-0.18247432 -0.062149841 1.6620001 71 81 66 255
-0.17813279 -0.062227942 1.664 70 80 63 255
-0.17367534 -0.062268589 1.6650001 74 84 67 255
-0.16921172 -0.062309157 1.6660001 71 79 62 255
-0.16464314 -0.06231226 1.6660001 71 79 62 255
-0.16007391 -0.062315281 1.6660001 67 75 58 255
-0.15550402 -0.062318224 1.6660001 79 87 72 255
-0.15084293 -0.062283687 1.6650001 75 85 70 255
-0.1462746 -0.062286485 1.6650001 74 84 69 255
-0.14170566 -0.062289201 1.6650001 69 77 62 255
-0.13730086 -0.062366661 1.6670001 67 75 58 255
-0.13328265 -0.062631115 1.674 67 75 58 255
-0.12976359 -0.063157432 1.6880001 59 67 50 255
-0.1263895 -0.063795947 1.705 60 66 49 255
-0.12213635 -0.064022832 1.7110001 56 62 45 255
-0.11723199 -0.063912868 1.7080001 54 60 43 255
-0.11214595 -0.063690551 1.702 48 54 37 255
-0.10734499 -0.063617818 1.7 43 49 32 255
-0.10279614 -0.063694678 1.702 53 58 44 255
-0.098178238 -0.063734055 1.7030001 64 69 55 255
-0.093499526 -0.063735917 1.7030001 56 61 47 255
-0.088663936 -0.063625395 1.7 58 63 49 255
-0.0839433 -0.063589655 1.6990001 62 67 53 255
-0.079227775 -0.06355381 1.6980001 62 67 53 255
-0.074561343 -0.063555308 1.6980001 63 68 56 255
-0.069853418 -0.063519292 1.697 59 64 52 255
-0.065227523 -0.063558042 1.6980001 63 70 58 255
-0.060702849 -0.063708998 1.702 57 62 50 255
-0.056287583 -0.064009599 1.71 61 66 54 255
-0.051737595 -0.064197823 1.715 54 59 47 255
-0.047022801 -0.064198792 1.715 37 42 30 255
-0.042209126 -0.064049944 1.7110001 44 49 38 255
-0.037461102 -0.063975863 1.7090001 50 55 43 255
-0.032743085 -0.063939109 1.7080001 52 59 47 255
-0.028063267 -0.063977152 1.7090001 52 59 47 255
-0.023364155 -0.063977651 1.7090001 72 79 67 255
-0.01871955 -0.064165249 1.7140001 64 71 59 255
-0.014088225 -0.064539932 1.7240001 61 66 52 255
-0.0094018448 -0.064914525 1.7340001 58 63 49 255
-0.004636378 -0.064952105 1.7350001 52 57 43 255
0.00013422119 -0.064802401 1.7310001 53 58 44 255
0.0048884759 -0.064727478 1.7290001 54 59 45 255
0.0096372878 -0.064689897 1.728 56 61 47 255
0.014413866 -0.064801969 1.7310001 56 61 49 255
0.019184727 -0.064839073 1.7320001 56 61 47 255
0.024002481 -0.06498839 1.7360001 56 61 49 255
0.028825555 -0.065100178 1.7390001 59 64 52 255
0.033626348 -0.065136991 1.7400001 55 60 48 255
0.038410421 -0.065136284 1.7400001 55 60 48 255
0.043169502 -0.065098055 1.7390001 57 64 52 255
0.047978047 -0.065134592 1.7400001 56 63 51 255
0.052761562 -0.065133601 1.7400001 57 64 52 255
0.057577912 -0.065169945 1.7410001 55 62 50 255
0.062292058 -0.065093912 1.7390001 55 62 50 255
0.066956371 -0.06498035 1.7360001 55 63 48 255
0.07164523 -0.064904138 1.7340001 55 62 50 255
0.076234646 -0.064752974 1.7300001 56 63 51 255
0.080942191 -0.064714015 1.7290001 61 68 57 255
0.08554478 -0.064600103 1.7260001 59 68 57 255
0.090078212 -0.064448692 1.7220001 61 70 59 255
0.094754443 -0.064409465 1.7210001 64 70 62 255
0.099771611 -0.064594708 1.7260001 58 66 58 255
0.11026689 -0.065189436 1.7420001 60 68 60 255
0.73140842 -0.065931648 1.7770001 149 157 150 255
0.73043084 -0.065410428 1.7630001 146 154 147 255
0.72979552 -0.064926468 1.7500001 142 150 143 255
0.73202914 -0.064702369 1.7440001 142 150 143 255
0.73211926 -0.064292915 1.733 140 148 141 255
0.73300129 -0.063957825 1.7240001 135 143 135 255
0.73383588 -0.063622877 1.715 134 142 134 255
0.73591495 -0.063399389 1.7090001 131 139 131 255
0.73536283 -0.062953457 1.697 134 143 132 255
0.7364915 -0.062656082 1.6890001 143 152 141 255
0.73670053 -0.06228466 1.6790001 147 156 145 255
0.73729831 -0.061950479 1.6700001 152 162 153 255
0.73607206 -0.061468083 1.6570001 157 166 159 255
0.73701161 -0.061171319 1.649 160 169 162 255
0.73880869 -0.060948901 1.6430001 163 172 165 255
0.73876536 -0.060578249 1.6330001 169 177 170 255
0.73912466 -0.060244851 1.6240001 171 179 172 255
0.74035263 -0.059985798 1.6170001 175 183 176 255
0.74154437 -0.059726905 1.6100001 176 184 177 255
0.74177349 -0.059393976 1.6010001 177 185 178 255
0.74148953 -0.059024096 1.5910001 179 187 180 255
0.74162203 -0.058691472 1.582 182 190 183 255
0.74265057 -0.058433197 1.575 182 190 183 255
0.74269474 -0.058100887 1.5660001 182 189 185 255
0.74221504 -0.057731617 1.5560001 185 192 188 255
0.74120331 -0.057325404 1.5450001 186 193 190 255
0.74206376 -0.057067759 1.5380001 185 192 189 255
0.74288839 -0.056810264 1.531 186 193 190 255
0.74270129 -0.056478713 1.5220001 186 193 190 255
0.74344897 -0.05622153 1.5150001 187 194 191 255
0.74317408 -0.055890288 1.506 186 193 190 255
-0.97685701 -0.071034752 1.7800001 35 36 24 255
-0.93435127 -0.069677331 1.7470001 29 31 13 255
-0.93321127 -0.069949254 1.7540001 30 32 14 255
-0.93944687 -0.070779674 1.7750001 30 32 15 255
-0.94557029 -0.071610212 1.7960001 22 24 7 255
-0.91335082 -0.069530465 1.7440001 20 21 7 255
-0.91684806 -0.070162177 1.7600001 23 24 10 255
-0.9181881 -0.070634604 1.7720001 22 23 11 255
-0.91534293 -0.070788354 1.7760001 22 23 11 255
-0.9119671 -0.070902474 1.779 19 20 8 255
-0.90653902 -0.070857428 1.7780001 20 21 9 255
-0.90365613 -0.071011893 1.7820001 20 21 9 255
-0.90277249 -0.071325973 1.7900001 24 22 11 255
-0.90084511 -0.071560577 1.7960001 24 23 9 255
-0.89888835 -0.071795389 1.802 25 22 8 255
-0.90087086 -0.072349146 1.8160001 26 22 8 255
-0.89932644 -0.072624214 1.8230001 28 22 6 255
-0.89725655 -0.07285966 1.8290001 39 27 10 255
-0.89222997 -0.072856307 1.8290001 47 33 14 255
-0.88963217 -0.073052362 1.8340001 52 33 11 255
-0.88556314 -0.073129132 1.8360001 56 38 14 255
-0.88292503 -0.073325619 1.8410001 64 41 18 255
-0.87883198 -0.073402822 1.8430001 67 44 21 255
-0.87615329 -0.073599726 1.848 60 39 17 255
-0.80735117 -0.07195621 1.807 141 143 133 255
-0.78777313 -0.070642114 1.774 239 244 233 255
-0.77852786 -0.070244074 1.7640001 203 211 196 255
-0.76977742 -0.069886021 1.7550001 231 241 224 255
-0.7619496 -0.069607787 1.748 195 206 187 255
-0.75416166 -0.069329694 1.7410001 226 237 218 255
-0.74813521 -0.069211058 1.738 142 153 132 255
-0.74212676 -0.069092579 1.7350001 167 176 155 255
-0.73698616 -0.069053896 1.7340001 201 210 191 255
-0.73100775 -0.068935715 1.7310001 217 226 207 255
-0.72504717 -0.068817675 1.728 148 157 138 255
-0.71827042 -0.06862013 1.723 176 187 168 255
-0.71235037 -0.068502374 1.72 167 178 157 255
-0.70644796 -0.068384759 1.7170001 172 184 161 255
-0.70097154 -0.068307087 1.715 163 175 150 255
-0.69631916 -0.06830921 1.715 175 187 162 255
-0.69086128 -0.068231806 1.7130001 173 185 160 255
-0.68541527 -0.068154521 1.7110001 190 203 176 255
-0.67958313 -0.068037532 1.7080001 157 169 144 255
-0.67416328 -0.067960493 1.7060001 181 193 168 255
-0.66953999 -0.067963243 1.7060001 133 145 120 255
-0.66374826 -0.067846589 1.7030001 171 183 160 255
-0.65797365 -0.067730047 1.7 177 189 166 255
-0.65221584 -0.067613602 1.697 132 144 121 255
-0.64800149 -0.067656636 1.6980001 140 152 129 255
-0.64340329 -0.067659929 1.6980001 152 164 141 255
-0.63842952 -0.067623489 1.697 160 170 147 255
-0.63346165 -0.067587152 1.6960001 142 152 127 255
-0.62887049 -0.067590758 1.6960001 136 146 120 255
-0.62427974 -0.067594469 1.6960001 168 176 150 255
-0.62041998 -0.067677982 1.6980001 131 140 111 255
-0.61509925 -0.067602165 1.6960001 138 146 120 255
-0.61050946 -0.067606151 1.6960001 137 147 121 255
-0.60627711 -0.06765008 1.697 163 173 147 255
-0.60239428 -0.067733988 1.6990001 153 163 137 255
-0.59779692 -0.067738235 1.6990001 156 166 140 255
-0.59215242 -0.06762296 1.6960001 137 147 121 255
-0.58721703 -0.067587487 1.6950001 140 148 122 255
-0.58263087 -0.067591973 1.6950001 135 143 117 255
-0.57804477 -0.067596532 1.6950001 154 162 136 255
-0.57345855 -0.067601152 1.6950001 140 149 120 255
-0.56887245 -0.067605853 1.6950001 143 152 123 255
-0.56461906 -0.067650512 1.6960001 138 147 116 255
-0.56036013 -0.06769523 1.697 135 144 113 255
-0.55576831 -0.06770014 1.697 142 151 120 255
-0.55117625 -0.06770511 1.697 143 152 121 255
-0.54626179 -0.067670226 1.6960001 131 140 111 255
-0.54167205 -0.0676753 1.6960001 137 146 117 255
-0.53676528 -0.067640528 1.6950001 150 159 128 255
-0.53154969 -0.067565896 1.6930001 149 158 127 255
-0.52696711 -0.067571111 1.6930001 136 147 118 255
-0.5226928 -0.067616306 1.6940001 167 178 149 255
-0.51841259 -0.067661531 1.6950001 173 184 155 255
-0.51352036 -0.067626983 1.6940001 133 144 115 255
-0.5089336 -0.067632392 1.6940001 132 141 112 255
-0.50464404 -0.067677759 1.6950001 129 138 107 255
-0.50064355 -0.067763105 1.697 131 140 109 255
-0.49604726 -0.067768626 1.697 171 180 149 255
-0.49145037 -0.067774191 1.697 143 152 121 255
-0.48685294 -0.067779779 1.697 127 137 104 255
-0.48225501 -0.067785397 1.697 126 135 104 255
-0.47793797 -0.067830995 1.6980001 125 135 102 255
-0.47361493 -0.067876622 1.6990001 125 135 102 255
-0.46900964 -0.067882314 1.6990001 131 141 108 255
-0.46413046 -0.067848071 1.6980001 131 140 109 255
-0.45925608 -0.067813851 1.697 137 146 115 255
-0.45465431 -0.067819595 1.697 172 181 150 255
-0.45005193 -0.067825362 1.697 140 150 117 255
-0.44623625 -0.067951046 1.7 123 131 96 255
-0.44214383 -0.068036795 1.702 124 132 96 255
-0.43855393 -0.068202518 1.7060001 124 131 92 255
-0.4346872 -0.068328299 1.7090001 122 129 89 255
-0.43055177 -0.068414107 1.7110001 122 130 87 255
-0.42640477 -0.068499945 1.7130001 121 125 90 255
-0.42199984 -0.068545803 1.7140001 121 126 86 255
-0.41783217 -0.068631656 1.7160001 118 123 83 255
-0.41317129 -0.06863752 1.7160001 120 127 88 255
-0.40803343 -0.068563387 1.7140001 118 124 88 255
-0.4017289 -0.068289198 1.7070001 170 177 145 255
-0.39499626 -0.067934923 1.6980001 166 175 144 255
-0.38946128 -0.067780659 1.6940001 160 171 140 255
-0.3844015 -0.067706369 1.692 156 165 134 255
-0.38069862 -0.067872182 1.6960001 130 140 105 255
-0.37741655 -0.068118036 1.702 122 130 94 255
-0.37366292 -0.068283863 1.7060001 81 89 46 255
-0.36858884 -0.068209536 1.7040001 57 65 22 255
-0.36331111 -0.068095133 1.7010001 141 147 102 255
-0.3584705 -0.068060756 1.7 108 113 71 255
-0.35425889 -0.068146467 1.702 101 107 62 255
-0.34983006 -0.068192117 1.7030001 100 108 65 255
-0.34498948 -0.068157651 1.702 116 123 83 255
-0.33995348 -0.068083107 1.7 128 136 101 255
-0.33453295 -0.067928419 1.6960001 134 144 111 255
-0.32913327 -0.067773663 1.692 135 146 115 255
-0.32394633 -0.067658901 1.6890001 119 130 101 255
-0.31915298 -0.067624219 1.6880001 119 125 100 255
-0.31455043 -0.067629546 1.6880001 13 18 0 255
-0.30994704 -0.067634843 1.6880001 28 30 12 255
-0.30516183 -0.067600019 1.687 44 43 27 255
-0.30020303 -0.067525081 1.6850001 17 20 6 255
-0.29542962 -0.06749016 1.6840001 93 98 86 255
-0.29014269 -0.067334935 1.6800001 91 96 85 255
-0.28504664 -0.067219727 1.677 83 89 81 255
-0.27996609 -0.067104451 1.674 83 91 84 255
-0.27539459 -0.067109384 1.674 85 93 86 255
-0.2708222 -0.067114264 1.674 87 95 88 255
-0.2659308 -0.067038894 1.6720001 86 94 86 255
-0.26089323 -0.066923365 1.669 83 92 81 255
-0.25602469 -0.066847868 1.6670001 78 87 75 255
-0.2516188 -0.066892602 1.6680001 82 91 79 255
-0.24705851 -0.066897191 1.6680001 78 87 75 255
-0.24264272 -0.066941813 1.669 62 71 59 255
-0.23807801 -0.066946283 1.669 70 79 67 255
-0.2332326 -0.066870451 1.6670001 63 72 61 255
-0.22867171 -0.066874787 1.6670001 70 77 66 255
-0.22424445 -0.06691917 1.6680001 70 76 68 255
-0.21967921 -0.06692338 1.6680001 110 116 108 255
-0.21498419 -0.066887394 1.6670001 99 105 97 255
-0.21029386 -0.066851333 1.6660001 81 87 79 255
-0.20573175 -0.066855326 1.6660001 60 66 58 255
-0.20116889 -0.066859253 1.6660001 68 74 66 255
-0.19648725 -0.066822976 1.6650001 64 73 62 255
-0.19181034 -0.06678661 1.664 79 88 76 255
-0.18725075 -0.066790313 1.664 73 83 68 255
-0.18280023 -0.066834085 1.6650001 76 86 71 255
-0.1783435 -0.066877775 1.6660001 75 85 68 255
-0.17356771 -0.066800959 1.664 78 86 69 255
-0.1691069 -0.066844501 1.6650001 71 79 62 255
-0.16454114 -0.066847824 1.6650001 73 81 64 255
-0.16007082 -0.066891216 1.6660001 67 75 58 255
-0.15550102 -0.066894375 1.6660001 74 82 67 255
-0.15093061 -0.066897452 1.6660001 69 79 64 255
-0.14635958 -0.066900454 1.6660001 78 88 73 255
-0.14195822 -0.066983685 1.6680001 71 79 64 255
-0.13762765 -0.067106992 1.6710001 64 74 59 255
-0.13367814 -0.067431033 1.6790001 67 75 60 255
-0.13022226 -0.068036154 1.6940001 63 71 56 255
-0.12668353 -0.068641245 1.7090001 61 69 52 255
-0.12206253 -0.068683945 1.71 57 63 46 255
-0.11709239 -0.068525746 1.7060001 52 58 41 255
-0.11207782 -0.068327256 1.7010001 47 53 36 255
-0.10734284 -0.068289347 1.7 48 53 39 255
-0.10267329 -0.068291523 1.7 55 60 46 255
-0.098060973 -0.068333782 1.7010001 64 69 55 255
-0.093387842 -0.068335772 1.7010001 56 61 47 255
-0.088662162 -0.068297483 1.7 62 67 53 255
-0.083991013 -0.068299286 1.7 64 69 55 255
-0.079179525 -0.068180457 1.697 64 69 55 255
-0.074472018 -0.068141885 1.6960001 69 74 62 255
-0.069728523 -0.068063043 1.6940001 57 62 50 255
-0.065110959 -0.068104632 1.6950001 67 74 62 255
-0.060558952 -0.068226486 1.6980001 62 67 55 255
-0.056088947 -0.068468802 1.7040001 61 66 54 255
-0.051615875 -0.068751201 1.7110001 66 71 59 255
-0.046939593 -0.068792425 1.7120001 41 46 34 255
-0.042183597 -0.068713002 1.71 44 49 37 255
-0.037416499 -0.068593293 1.7070001 49 54 42 255
-0.032723248 -0.068594031 1.7070001 53 60 48 255
-0.028029853 -0.068594672 1.7070001 54 61 49 255
-0.023336338 -0.068595216 1.7070001 68 75 63 255
-0.018675482 -0.068716213 1.71 68 76 61 255
-0.01405525 -0.06911841 1.72 63 68 54 255
-0.0093799653 -0.069520511 1.7300001 54 59 45 255
-0.0046255942 -0.069560841 1.7310001 53 58 44 255
0.0001337532 -0.069319777 1.725 56 61 47 255
0.0048714126 -0.069239356 1.723 51 58 46 255
0.0095980512 -0.06915883 1.7210001 56 63 51 255
0.014355283 -0.069279134 1.7240001 59 64 52 255
0.019106798 -0.069318958 1.725 57 64 52 255
0.023905208 -0.069479242 1.7290001 57 62 50 255
0.028692357 -0.06955906 1.7310001 60 65 53 255
0.033490382 -0.069638766 1.733 55 60 48 255
0.038255114 -0.069638014 1.733 57 62 48 255
0.042970031 -0.069556795 1.7310001 54 61 49 255
0.047701336 -0.069515653 1.7300001 58 65 53 255
0.052487586 -0.069554783 1.7310001 56 63 51 255
0.057246033 -0.069553629 1.7310001 56 63 51 255
0.061968416 -0.069512203 1.7300001 56 63 51 255
0.0667236 -0.06951084 1.7300001 57 64 52 255
0.071478508 -0.069509394 1.7300001 57 64 52 255
0.076100908 -0.069387317 1.7270001 56 65 53 255
0.080846936 -0.069385685 1.7270001 59 66 55 255
0.085394368 -0.069223225 1.723 56 65 54 255
0.090076394 -0.069181234 1.7220001 64 70 62 255
0.094587371 -0.069018617 1.7180001 65 71 63 255
0.09942279 -0.069096945 1.72 63 71 63 255
0.10438989 -0.069255523 1.7240001 60 68 60 255
0.10956841 -0.069534503 1.7310001 59 67 59 255
0.11465284 -0.069733031 1.7360001 60 69 58 255
0.11955788 -0.069810957 1.738 55 64 53 255
0.12418728 -0.069728121 1.7360001 59 67 59 255
0.12887947 -0.069685377 1.7350001 59 67 59 255
0.1337197 -0.069722854 1.7360001 61 69 61 255
0.13856484 -0.069760241 1.7370001 58 66 58 255
0.14316738 -0.069677055 1.7350001 56 64 56 255
0.14775835 -0.06959378 1.733 59 68 57 255
0.73058319 -0.070694663 1.7750001 147 155 148 255
0.73208636 -0.070374139 1.7670001 144 152 144 255
0.73104501 -0.069814816 1.7530001 143 151 144 255
0.73286706 -0.069534436 1.7460001 142 150 143 255
0.73127306 -0.06893564 1.7310001 138 146 138 255
0.73257494 -0.068615764 1.723 136 144 136 255
0.73297912 -0.068216421 1.7130001 133 141 133 255
0.73505288 -0.067976527 1.7070001 136 144 136 255
0.73449552 -0.067497857 1.6950001 139 148 137 255
0.73474669 -0.067099005 1.6850001 143 152 141 255
0.73713881 -0.066899419 1.6800001 145 155 146 255
0.73818117 -0.066580541 1.6720001 146 156 147 255
0.73784894 -0.066142365 1.6610001 156 165 158 255
0.73790556 -0.065744169 1.651 160 169 162 255
0.73790956 -0.065346137 1.641 163 172 165 255
0.73740858 -0.064908467 1.6300001 169 177 170 255
0.73912519 -0.064670049 1.6240001 172 180 173 255
0.74126911 -0.064471632 1.6190001 175 183 176 255
0.74338764 -0.06427338 1.6140001 177 185 178 255
0.7417745 -0.063756712 1.6010001 178 185 181 255
0.74195683 -0.063399509 1.5920001 178 185 181 255
0.7416234 -0.063002646 1.582 181 188 184 255
0.74312371 -0.062765233 1.5760001 181 188 184 255
0.74317074 -0.062408533 1.567 182 189 185 255
0.74317098 -0.062051985 1.5580001 182 189 185 255
0.74216479 -0.06161594 1.5470001 185 192 188 255
0.74206597 -0.061259724 1.5380001 185 192 189 255
0.74240559 -0.060943503 1.5300001 183 190 187 255
0.74221593 -0.060587607 1.521 183 190 187 255
0.74247032 -0.060271718 1.5130001 185 192 189 255
0.743177 -0.059995819 1.506 183 190 186 255
-0.96041811 -0.07499136 1.7590001 34 37 23 255
-0.933824 -0.074403107 1.7460001 27 29 11 255
-0.9364109 -0.074991889 1.7600001 29 31 13 255
-0.94315886 -0.075921692 1.7820001 28 30 12 255
-0.930309 -0.075275391 1.7670001 24 26 9 255
-0.91911817 -0.074757285 1.7550001 23 24 10 255
-0.92518944 -0.075645141 1.7760001 20 21 7 255
-0.92441219 -0.075979449 1.784 21 22 8 255
-0.92256421 -0.076228827 1.7900001 23 24 10 255
-0.91658628 -0.076137789 1.7880001 23 22 8 255
-0.9085837 -0.075876705 1.7820001 23 22 8 255
-0.90061855 -0.075615957 1.7760001 28 25 11 255
-0.90580326 -0.07646241 1.7960001 29 25 9 255
-0.90787178 -0.077053592 1.8100001 26 20 4 255
-0.90737271 -0.077432126 1.8190001 30 19 4 255
-0.9033553 -0.07751292 1.8210001 35 21 4 255
-0.90130365 -0.077764228 1.8270001 46 32 15 255
-0.89873189 -0.077973194 1.8320001 52 38 19 255
-0.89467245 -0.078054711 1.8340001 57 43 24 255
-0.88915026 -0.078008801 1.8330001 52 38 18 255
-0.88653076 -0.078218475 1.8380001 57 43 23 255
-0.78866124 -0.075560994 1.7760001 242 247 235 255
-0.77852762 -0.075050615 1.7640001 210 218 203 255
-0.76977706 -0.074668042 1.7550001 231 241 224 255
-0.76238489 -0.074413292 1.7490001 196 207 188 255
-0.75546044 -0.074201263 1.7440001 227 238 219 255
-0.74813432 -0.073946841 1.738 130 141 122 255
-0.74212569 -0.073820241 1.7350001 202 213 194 255
-0.73613483 -0.073693797 1.7320001 200 211 192 255
-0.72973949 -0.073524959 1.728 204 215 196 255
-0.72336727 -0.073356278 1.7240001 140 151 132 255
-0.71785188 -0.073272854 1.7220001 180 191 172 255
-0.71234852 -0.073189557 1.72 167 178 159 255
-0.70685732 -0.07310643 1.7180001 175 184 163 255
-0.70056069 -0.072938323 1.7140001 167 178 157 255
-0.69591099 -0.072940588 1.7140001 172 183 162 255
-0.69005233 -0.072815306 1.7110001 179 191 168 255
-0.6846115 -0.072732724 1.7090001 187 199 176 255
-0.67878473 -0.072607704 1.7060001 159 171 148 255
-0.6737653 -0.072567925 1.705 173 185 160 255
-0.66875219 -0.072528288 1.7040001 138 150 125 255
-0.66296583 -0.07240364 1.7010001 161 174 147 255
-0.65758342 -0.072321661 1.6990001 165 178 151 255
-0.65221256 -0.072239801 1.697 172 182 157 255
-0.64761645 -0.072243199 1.697 139 151 126 255
-0.64339983 -0.072289281 1.6980001 157 167 141 255
-0.63842595 -0.072250329 1.697 168 178 152 255
-0.63308448 -0.072168902 1.6950001 137 147 121 255
-0.62849587 -0.072172746 1.6950001 139 150 121 255
-0.6242758 -0.072219267 1.6960001 170 179 150 255
-0.62005067 -0.072265901 1.697 134 144 118 255
-0.6150952 -0.072227471 1.6960001 134 144 118 255
-0.61050528 -0.07223171 1.6960001 138 148 123 255
-0.60591561 -0.072236046 1.6960001 154 164 139 255
-0.60132623 -0.072240487 1.6960001 158 168 143 255
-0.59638506 -0.072202399 1.6950001 138 148 123 255
-0.59144962 -0.072164416 1.6940001 129 137 112 255
-0.58686602 -0.072169103 1.6940001 143 151 126 255
-0.58262616 -0.072216481 1.6950001 144 152 127 255
-0.57803994 -0.072221324 1.6950001 146 154 128 255
-0.57345378 -0.072226256 1.6950001 148 157 128 255
-0.56853193 -0.072188653 1.6940001 145 154 123 255
-0.56428123 -0.072236352 1.6950001 155 164 133 255
-0.55936456 -0.072198875 1.6940001 138 149 118 255
-0.55478078 -0.072204098 1.6940001 142 153 122 255
-0.55019671 -0.072209381 1.6940001 147 158 129 255
-0.54625666 -0.072299972 1.6960001 129 140 111 255
-0.54134738 -0.072262749 1.6950001 131 142 113 255
-0.53675991 -0.072268218 1.6950001 145 156 127 255
-0.53154433 -0.072188452 1.6930001 148 159 130 255
-0.527273 -0.072236672 1.6940001 134 145 116 255
-0.52268726 -0.07224229 1.6940001 158 171 142 255
-0.51871294 -0.072333261 1.6960001 168 177 146 255
-0.51381791 -0.072296321 1.6950001 125 134 103 255
-0.50922841 -0.072302096 1.6950001 128 137 106 255
-0.50434065 -0.072265238 1.6940001 127 134 103 255
-0.50034291 -0.072356418 1.6960001 126 133 102 255
-0.49604154 -0.072404966 1.697 167 174 143 255
-0.49173421 -0.072453566 1.6980001 134 143 112 255
-0.48684719 -0.072416849 1.697 128 135 104 255
-0.4825334 -0.072465517 1.6980001 128 135 104 255
-0.47765064 -0.072428867 1.697 128 135 103 255
-0.47333023 -0.072477594 1.6980001 131 138 106 255
-0.46872771 -0.072483666 1.6980001 134 144 111 255
-0.46412459 -0.072489761 1.6980001 132 141 110 255
-0.45979139 -0.07253857 1.6990001 128 137 106 255
-0.45518425 -0.072544709 1.6990001 163 172 141 255
-0.45084158 -0.072593555 1.7 144 154 121 255
-0.44675526 -0.072685137 1.702 119 126 94 255
-0.44265735 -0.07277675 1.7040001 123 131 96 255
-0.43906206 -0.072953805 1.7080001 126 132 96 255
-0.43493551 -0.073045462 1.71 122 129 90 255
-0.43130064 -0.073222585 1.7140001 121 128 89 255
-0.42664763 -0.073228836 1.7140001 117 124 84 255
-0.42223993 -0.073277816 1.715 115 122 82 255
-0.41758257 -0.073284082 1.715 118 125 86 255
-0.41316518 -0.07333307 1.7160001 113 122 83 255
-0.40826541 -0.073296592 1.715 121 129 93 255
-0.40266418 -0.073131859 1.7110001 153 160 128 255
-0.39592075 -0.072753362 1.702 166 176 143 255
-0.38968521 -0.072460294 1.6950001 160 171 140 255
-0.38439563 -0.072338171 1.692 150 162 129 255
-0.38091716 -0.07255806 1.697 124 135 98 255
-0.37763241 -0.072820738 1.7030001 119 128 89 255
-0.37387607 -0.072997905 1.7070001 92 100 57 255
-0.3685829 -0.072875708 1.7040001 63 71 26 255
-0.3635188 -0.07279624 1.702 143 151 108 255
-0.35867554 -0.072759509 1.7010001 101 108 68 255
-0.35446122 -0.072851069 1.7030001 94 102 59 255
-0.34982431 -0.072857067 1.7030001 97 104 64 255
-0.34498376 -0.072820231 1.702 115 122 83 255
-0.33994779 -0.072740585 1.7 128 136 100 255
-0.33472449 -0.072618075 1.697 134 142 107 255
-0.32912767 -0.072409943 1.692 142 153 122 255
-0.32394078 -0.072287329 1.6890001 134 145 114 255
-0.31914741 -0.072250254 1.6880001 125 133 108 255
-0.3147313 -0.07229875 1.6890001 9 14 0 255
-0.3101252 -0.072304398 1.6890001 24 26 8 255
-0.30533731 -0.07226719 1.6880001 34 33 17 255
-0.30019766 -0.0721443 1.6850001 27 29 12 255
-0.29559973 -0.072149791 1.6850001 53 56 42 255
-0.29013741 -0.07194113 1.6800001 97 104 93 255
-0.28538138 -0.071903691 1.6790001 86 93 82 255
-0.28029546 -0.071780525 1.6760001 84 92 84 255
-0.27571854 -0.0717858 1.6760001 90 98 90 255
-0.27081716 -0.071705334 1.674 89 95 88 255
-0.26592588 -0.071624801 1.6720001 91 97 89 255
-0.26088831 -0.071501359 1.669 81 90 79 255
-0.25617349 -0.07146354 1.6680001 80 89 78 255
-0.25161403 -0.07146848 1.6680001 80 89 78 255
-0.24720192 -0.071516216 1.669 81 90 78 255
-0.24263807 -0.071521036 1.669 61 70 58 255
-0.23807342 -0.071525805 1.669 74 83 72 255
-0.23308821 -0.071401931 1.6660001 62 71 60 255
-0.22853008 -0.071406543 1.6660001 66 75 64 255
-0.22410563 -0.071453959 1.6670001 75 83 75 255
-0.21954317 -0.071458444 1.6670001 107 113 105 255
-0.21497995 -0.071462855 1.6670001 87 93 85 255
-0.21016349 -0.07138145 1.6650001 72 78 70 255
-0.20560417 -0.071385704 1.6650001 46 53 42 255
-0.20116487 -0.071432777 1.6660001 72 79 68 255
-0.19624728 -0.07130824 1.6630001 53 62 51 255
-0.1918065 -0.071355149 1.664 65 74 63 255
-0.18713443 -0.071316212 1.6630001 67 74 62 255
-0.1829063 -0.071448736 1.6660001 67 74 62 255
-0.17833988 -0.071452528 1.6660001 69 77 62 255
-0.17356415 -0.07137046 1.664 71 79 64 255
-0.16900188 -0.071374081 1.664 67 75 60 255
-0.16453776 -0.071420513 1.6650001 69 77 62 255
-0.1600675 -0.071466871 1.6660001 70 78 63 255
-0.15549777 -0.071470238 1.6660001 72 79 67 255
-0.15092745 -0.071473524 1.6660001 69 76 64 255
-0.14653224 -0.071562529 1.6680001 67 74 62 255
-0.14204034 -0.071608543 1.669 61 68 56 255
-0.13787182 -0.0718261 1.674 63 71 56 255
-0.13407339 -0.072258137 1.6840001 63 71 54 255
-0.13068072 -0.072947562 1.7 61 69 52 255
-0.12675497 -0.073379472 1.71 54 62 45 255
-0.12198856 -0.073339283 1.7090001 56 64 49 255
-0.11695263 -0.073127329 1.7040001 47 55 40 255
-0.11207543 -0.073001094 1.7010001 45 53 38 255
-0.10734054 -0.072960593 1.7 46 51 37 255
-0.1026711 -0.072962917 1.7 50 55 41 255
-0.097943582 -0.072922222 1.6990001 60 66 49 255
-0.093330935 -0.072967261 1.7 58 64 47 255
-0.088608101 -0.07292635 1.6990001 61 67 50 255
-0.083989203 -0.072971195 1.7 61 67 50 255
-0.079177812 -0.07284423 1.697 63 69 52 255
-0.074470408 -0.07280302 1.6960001 69 74 60 255
-0.069727011 -0.072718777 1.6940001 67 72 58 255
-0.065071143 -0.072720289 1.6940001 60 65 53 255
-0.060486313 -0.07280755 1.6960001 65 70 58 255
-0.055956073 -0.072980575 1.7 62 67 55 255
-0.051433757 -0.073196433 1.705 60 65 53 255
-0.046801481 -0.073283397 1.7070001 57 62 50 255
-0.042133342 -0.073327333 1.7080001 40 45 33 255
-0.037393764 -0.073242359 1.7060001 47 52 40 255
-0.032684196 -0.073200218 1.705 49 56 44 255
-0.02801282 -0.073243834 1.7060001 54 61 49 255
-0.023294814 -0.073158547 1.7040001 57 64 52 255
-0.018642312 -0.073287822 1.7070001 73 81 66 255
-0.014005914 -0.073588729 1.7140001 62 67 53 255
-0.0093580736 -0.074104197 1.7260001 57 62 48 255
-0.0046121324 -0.074104361 1.7260001 56 59 45 255
0.00013328507 -0.073803864 1.7190001 55 60 46 255
0.0048515149 -0.073675007 1.7160001 54 59 45 255
0.0095588025 -0.073588967 1.7140001 57 64 52 255
0.014288357 -0.073674574 1.7160001 61 68 56 255
0.019028848 -0.073760062 1.7180001 56 63 51 255
0.023780253 -0.073845446 1.72 57 64 52 255
0.028542556 -0.073930725 1.7220001 58 65 53 255
0.033296406 -0.073972963 1.723 57 64 52 255
0.038077686 -0.074058019 1.725 55 63 48 255
0.042770509 -0.073971249 1.723 56 61 49 255
0.047452148 -0.073884375 1.7210001 57 62 50 255
0.052183226 -0.07388325 1.7210001 57 64 52 255
0.05691408 -0.073882028 1.7210001 58 65 54 255
0.061680511 -0.073923625 1.7220001 57 64 53 255
0.066490747 -0.074008055 1.7240001 54 63 52 255
0.071229063 -0.074006513 1.7240001 56 65 54 255
0.075967073 -0.074004866 1.7240001 54 63 52 255
0.080704741 -0.074003115 1.7240001 54 63 52 255
0.085342973 -0.073915422 1.7220001 56 65 54 255
0.089969836 -0.073827617 1.72 54 62 54 255
0.094420165 -0.073610961 1.715 64 70 62 255
0.099073842 -0.0735659 1.7140001 63 71 63 255
0.10390326 -0.073649496 1.7160001 67 76 65 255
0.10880652 -0.073775902 1.7190001 65 74 63 255
0.11392393 -0.074030958 1.725 58 67 56 255
0.11879867 -0.074114241 1.7270001 57 66 55 255
0.12361238 -0.074154489 1.728 58 66 58 255
0.12835677 -0.074151739 1.728 59 67 59 255
0.1331777 -0.074191801 1.7290001 57 65 57 255
0.137844 -0.074145943 1.728 58 66 58 255
0.14242174 -0.074057095 1.7260001 58 67 56 255
0.14707319 -0.07401105 1.725 60 69 58 255
0.15171854 -0.073964931 1.7240001 60 69 58 255
0.15644857 -0.073961616 1.7240001 60 69 57 255
0.16117798 -0.073958203 1.7240001 55 64 53 255
0.16590674 -0.073954716 1.7240001 58 66 58 255
0.1708328 -0.074036919 1.7260001 55 63 55 255
0.17566745 -0.074076138 1.7270001 49 57 49 255
0.73230684 -0.076214895 1.7910001 149 157 150 255
0.73140442 -0.075616948 1.7770001 149 157 150 255
0.73125583 -0.075104304 1.7650001 145 153 146 255
0.73104328 -0.07459183 1.7530001 141 149 142 255
0.7324459 -0.074249737 1.7450001 139 147 140 255
0.73127168 -0.073652528 1.7310001 137 145 138 255
0.73214853 -0.073268242 1.7220001 133 141 133 255
0.73297799 -0.07288412 1.7130001 133 141 133 255
0.73376018 -0.072500192 1.7040001 136 144 136 255
0.7327615 -0.071946248 1.6910001 138 147 136 255
0.73431009 -0.071647756 1.6840001 143 152 141 255
0.73713845 -0.071477078 1.6800001 144 154 145 255
0.73818094 -0.071136393 1.6720001 147 157 148 255
0.73873734 -0.070753343 1.6630001 151 160 153 255
0.73924649 -0.070370458 1.654 157 166 159 255
0.73970848 -0.069987759 1.6450001 162 171 164 255
0.73831379 -0.06943506 1.6320001 167 175 168 255
0.73912591 -0.069095261 1.6240001 171 179 172 255
0.74035418 -0.068798184 1.6170001 171 179 172 255
0.74200684 -0.068543829 1.6110001 176 184 177 255
0.74084914 -0.068034381 1.5990001 177 185 178 255
0.7419582 -0.06773784 1.5920001 179 186 182 255
0.74162489 -0.067313828 1.582 181 188 184 255
0.74312544 -0.067060202 1.5760001 180 189 184 255
0.74317259 -0.06667909 1.567 182 191 186 255
0.74317306 -0.066298172 1.5580001 183 192 187 255
0.74360633 -0.065959968 1.5500001 185 192 188 255
0.74303335 -0.065536842 1.5400001 186 193 189 255
0.74289334 -0.065156437 1.531 185 192 188 255
0.74270666 -0.064776205 1.5220001 186 193 190 255
0.74296403 -0.064438716 1.5140001 183 190 187 255
0.74318016 -0.064101391 1.506 184 191 187 255
-1.0246226 -0.084704824 1.8670001 57 59 49 255
-0.92617589 -0.077335924 1.705 40 44 27 255
-0.95644075 -0.080673955 1.779 35 39 22 255
-0.93811083 -0.07953164 1.7540001 29 31 13 255
-0.93056625 -0.079296649 1.7490001 27 29 11 255
-0.94052023 -0.080558032 1.7770001 27 29 11 255
-0.93031627 -0.080096975 1.7670001 23 25 8 255
-0.92959958 -0.080452174 1.7750001 22 24 7 255
-0.93144751 -0.081034221 1.7880001 22 23 9 255
-0.91740698 -0.08284954 1.8290001 88 80 64 255
-0.91037041 -0.082663409 1.825 75 64 49 255
-0.90633619 -0.082749344 1.8270001 71 57 40 255
-0.90278769 -0.082880825 1.83 58 44 27 255
-0.79399002 -0.080943488 1.7880001 160 165 153 255
-0.77985138 -0.079992965 1.7670001 216 223 211 255
-0.76977664 -0.079450063 1.7550001 229 239 224 255
-0.76194835 -0.079133689 1.748 192 203 184 255
-0.75502646 -0.078908063 1.743 218 229 210 255
-0.74813336 -0.078682616 1.738 180 191 172 255
-0.74212456 -0.078547888 1.7350001 197 208 189 255
-0.73570848 -0.078368038 1.7310001 204 215 196 255
-0.7288934 -0.078143105 1.7260001 203 214 195 255
-0.72252655 -0.077963606 1.7220001 171 182 163 255
-0.71743315 -0.077920079 1.7210001 180 191 170 255
-0.71234655 -0.077876724 1.72 186 195 174 255
-0.70644385 -0.077742971 1.7170001 181 191 168 255
-0.70014971 -0.077564076 1.7130001 173 183 160 255
-0.69590861 -0.077611744 1.7140001 170 182 159 255
-0.69004977 -0.077478431 1.7110001 171 183 160 255
-0.68460888 -0.077390529 1.7090001 173 185 162 255
-0.67838401 -0.077212207 1.705 164 176 153 255
-0.67297202 -0.077124581 1.7030001 178 191 164 255
-0.66757172 -0.077037089 1.7010001 143 155 130 255
-0.66257286 -0.076995008 1.7 149 161 136 255
-0.65758014 -0.076953068 1.6990001 168 180 155 255
-0.65259355 -0.076911241 1.6980001 186 196 171 255
-0.64837617 -0.076960132 1.6990001 126 138 113 255
-0.6433962 -0.076918565 1.6980001 169 181 156 255
-0.63842219 -0.076877095 1.697 139 149 123 255
-0.6330806 -0.076790445 1.6950001 136 149 122 255
-0.62849188 -0.076794505 1.6950001 147 158 129 255
-0.62390357 -0.076798677 1.6950001 161 172 143 255
-0.61931574 -0.076802976 1.6950001 142 153 124 255
-0.61472809 -0.076807365 1.6950001 140 150 124 255
-0.61014092 -0.076811865 1.6950001 138 148 122 255
-0.60555381 -0.076816462 1.6950001 157 167 142 255
-0.60061252 -0.076775841 1.6940001 165 175 150 255
-0.59567672 -0.076735303 1.6930001 122 132 107 255
-0.59109563 -0.076740175 1.6930001 145 153 128 255
-0.58651471 -0.076745152 1.6930001 138 146 121 255
-0.58193374 -0.076750204 1.6930001 150 158 133 255
-0.57735288 -0.076755345 1.6930001 133 141 115 255
-0.57311034 -0.076805919 1.6940001 138 147 118 255
-0.56886238 -0.076856568 1.6950001 135 146 115 255
-0.56427598 -0.076861955 1.6950001 154 165 134 255
-0.55968946 -0.076867417 1.6950001 136 147 116 255
-0.55444783 -0.076782249 1.6930001 138 149 120 255
-0.55019116 -0.076833203 1.6940001 142 153 124 255
-0.54592896 -0.076884232 1.6950001 141 152 123 255
-0.54166108 -0.076935336 1.6960001 138 149 120 255
-0.53675431 -0.076895773 1.6950001 151 162 133 255
-0.53185254 -0.076856256 1.6940001 148 159 130 255
-0.52757841 -0.076907538 1.6950001 145 156 127 255
-0.52268142 -0.076868139 1.6940001 151 162 133 255
-0.51840115 -0.076919533 1.6950001 150 159 128 255
-0.51350886 -0.076880224 1.6940001 127 136 105 255
-0.50892198 -0.076886348 1.6940001 129 136 105 255
-0.50463235 -0.076937892 1.6950001 134 141 109 255
-0.50033683 -0.076989494 1.6960001 130 137 105 255
-0.4960354 -0.077041142 1.697 164 171 140 255
-0.49143848 -0.077047437 1.697 130 139 108 255
-0.48684102 -0.077053763 1.697 129 136 105 255
-0.48224303 -0.077060126 1.697 126 133 102 255
-0.47792587 -0.07711193 1.6980001 124 131 99 255
-0.47304523 -0.077072933 1.697 126 133 101 255
-0.46899748 -0.077170223 1.6990001 133 140 108 255
-0.46466491 -0.077222116 1.7 131 140 109 255
-0.46059689 -0.077319473 1.702 123 132 101 255
-0.45624954 -0.077371441 1.7030001 141 151 118 255
-0.45189604 -0.077423431 1.7040001 166 173 141 255
-0.44727385 -0.077429995 1.7040001 123 131 96 255
-0.44291073 -0.077482007 1.705 122 130 95 255
-0.43905562 -0.077624947 1.7080001 122 128 92 255
-0.43543777 -0.077813365 1.7120001 119 126 86 255
-0.43129423 -0.077910915 1.7140001 120 127 87 255
-0.42689008 -0.077963009 1.715 120 128 85 255
-0.42247972 -0.078015126 1.7160001 119 127 84 255
-0.41781962 -0.078021765 1.7160001 117 124 85 255
-0.41339952 -0.078073889 1.7170001 120 127 88 255
-0.40849704 -0.078035064 1.7160001 121 129 93 255
-0.40336379 -0.077950738 1.7140001 127 134 102 255
-0.3970775 -0.077638976 1.7070001 166 176 143 255
-0.39082837 -0.07732714 1.7 170 182 149 255
-0.38529801 -0.077151716 1.6960001 156 168 133 255
-0.38158426 -0.077340201 1.7 130 141 102 255
-0.37762609 -0.0774832 1.7030001 119 131 90 255
-0.37386978 -0.077671699 1.7070001 95 104 57 255
-0.36836034 -0.077496156 1.7030001 66 74 29 255
-0.36351255 -0.077457085 1.702 138 146 103 255
-0.35888016 -0.077463508 1.702 114 121 81 255
-0.35466316 -0.077560931 1.7040001 92 100 57 255
-0.35002354 -0.077567294 1.7040001 92 99 59 255
-0.34497765 -0.077482581 1.702 119 126 87 255
-0.33954176 -0.077306755 1.6980001 131 137 101 255
-0.334324 -0.0771764 1.6950001 135 143 108 255
-0.32892719 -0.077000454 1.6910001 137 146 115 255
-0.32393485 -0.076915517 1.6890001 135 146 117 255
-0.31970873 -0.07701268 1.6910001 128 135 113 255
-0.31509811 -0.077018738 1.6910001 5 10 0 255
-0.3106702 -0.077070288 1.692 24 24 6 255
-0.3058742 -0.077030696 1.6910001 29 28 12 255
-0.30108273 -0.076991051 1.6900001 31 32 18 255
-0.29629579 -0.076951355 1.6890001 15 18 4 255
-0.29064992 -0.076683767 1.6830001 102 107 95 255
-0.28571585 -0.076598369 1.6810001 88 95 84 255
-0.28079176 -0.076512896 1.6790001 81 89 81 255
-0.27604216 -0.076472908 1.6780001 90 98 90 255
-0.27113542 -0.076387309 1.6760001 87 95 87 255
-0.26607966 -0.076256037 1.6730001 89 97 89 255
-0.26135206 -0.076215856 1.6720001 83 92 81 255
-0.25662908 -0.0761756 1.6710001 81 90 79 255
-0.25221235 -0.076226458 1.6720001 84 91 80 255
-0.24749315 -0.076186068 1.6710001 83 92 80 255
-0.24277852 -0.076145604 1.6700001 63 72 60 255
-0.23806854 -0.076105066 1.669 69 78 67 255
-0.23336323 -0.07606446 1.6680001 64 73 62 255
-0.22866255 -0.076023765 1.6670001 69 78 67 255
-0.2242354 -0.076074205 1.6680001 87 96 85 255
-0.2195386 -0.076033361 1.6670001 108 115 104 255
-0.21484651 -0.075992443 1.6660001 86 93 82 255
-0.21015905 -0.075951427 1.6650001 69 76 65 255
-0.20559981 -0.075955942 1.6650001 41 48 37 255
-0.20091909 -0.07591477 1.664 80 87 76 255
-0.19624311 -0.075873516 1.6630001 64 71 60 255
-0.19168712 -0.075877786 1.6630001 75 82 71 255
-0.18724293 -0.0759276 1.664 68 75 64 255
-0.18290235 -0.076022983 1.6660001 67 74 62 255
-0.17844306 -0.076072641 1.6670001 65 72 60 255
-0.1736647 -0.07598532 1.6650001 67 75 60 255
-0.1692013 -0.076034807 1.6660001 69 77 62 255
-0.16463296 -0.076038569 1.6660001 69 77 62 255
-0.16016006 -0.076087885 1.6670001 70 78 63 255
-0.15558767 -0.076091468 1.6670001 69 76 64 255
-0.1511053 -0.076140605 1.6680001 69 76 64 255
-0.14661682 -0.076189652 1.669 70 77 65 255
-0.1422074 -0.076284274 1.6710001 66 73 61 255
-0.13819818 -0.076607063 1.6780001 65 73 58 255
-0.13454808 -0.077158064 1.6900001 65 73 56 255
-0.13098529 -0.077800326 1.7040001 60 68 51 255
-0.12667799 -0.0780316 1.7090001 56 64 47 255
-0.12177168 -0.077897511 1.7060001 50 58 43 255
-0.11681271 -0.07771764 1.702 46 54 39 255
-0.11200701 -0.077628978 1.7 44 52 37 255
-0.10727496 -0.077585876 1.6990001 45 50 36 255
-0.10254798 -0.077542678 1.6980001 51 57 40 255
-0.097883686 -0.077545024 1.6980001 60 66 49 255
-0.093219005 -0.077547275 1.6980001 57 63 46 255
-0.08855392 -0.07754942 1.6980001 63 69 52 255
-0.083888464 -0.077551454 1.6980001 66 72 55 255
-0.079175986 -0.077507712 1.697 63 69 52 255
-0.074512601 -0.07750953 1.697 66 72 55 255
-0.069766566 -0.077419892 1.6950001 68 73 59 255
-0.065069631 -0.077375822 1.6940001 69 74 62 255
-0.060484916 -0.077468671 1.6960001 61 66 54 255
-0.055856023 -0.077515729 1.697 64 69 57 255
-0.051281735 -0.077654049 1.7 59 64 52 255
-0.04666331 -0.07774657 1.702 61 66 54 255
-0.042058356 -0.077884674 1.705 44 49 35 255
-0.037349056 -0.077839941 1.7040001 44 49 35 255
-0.032625929 -0.077749416 1.702 47 54 42 255
-0.027930068 -0.077704459 1.7010001 48 55 43 255
-0.02325326 -0.07770507 1.7010001 60 67 55 255
-0.018609114 -0.077842616 1.7040001 79 87 72 255
-0.013981073 -0.078162789 1.7110001 62 67 53 255
-0.0093199024 -0.078528531 1.7190001 54 59 45 255
-0.0045959922 -0.078574374 1.72 54 59 45 255
0.00013281676 -0.078254655 1.7130001 54 59 47 255
0.0048344396 -0.078117549 1.71 55 60 48 255
0.0095362738 -0.078117371 1.71 61 68 57 255
0.014263046 -0.078254133 1.7130001 60 67 56 255
0.018995179 -0.078345098 1.715 51 60 49 255
0.0237244 -0.07839027 1.7160001 54 63 52 255
0.028409291 -0.078298286 1.7140001 58 65 53 255
0.033141039 -0.078343228 1.715 59 66 54 255
0.037856065 -0.078342378 1.715 56 64 49 255
0.042570934 -0.078341417 1.715 56 63 51 255
0.047258046 -0.078294665 1.7140001 58 63 51 255
0.051969778 -0.078293487 1.7140001 57 64 53 255
0.056714345 -0.078337856 1.715 56 63 52 255
0.061428357 -0.078336447 1.715 58 64 56 255
0.066257812 -0.078471966 1.7180001 58 65 54 255
0.070979521 -0.078470327 1.7180001 54 63 52 255
0.075700931 -0.078468591 1.7180001 56 65 54 255
0.080468841 -0.078512423 1.7190001 55 64 53 255
0.085142776 -0.078464784 1.7180001 53 62 51 255
0.089915477 -0.078508392 1.7190001 55 63 55 255
0.094362952 -0.078277864 1.7140001 63 69 61 255
0.098955981 -0.078184254 1.7120001 63 71 63 255
0.1035376 -0.078090541 1.71 68 77 66 255
0.10817108 -0.078042395 1.7090001 68 77 66 255
0.11312885 -0.078222461 1.7130001 61 70 59 255
0.11803932 -0.078356758 1.7160001 57 66 55 255
0.12303733 -0.0785366 1.72 56 64 56 255
0.12783393 -0.078579336 1.7210001 57 65 57 255
0.13248147 -0.078530662 1.72 60 66 59 255
0.13712299 -0.078481898 1.7190001 61 67 59 255
0.14167592 -0.07838738 1.7170001 61 67 59 255
0.14638786 -0.078384072 1.7170001 63 70 59 255
0.15109919 -0.078380667 1.7170001 63 70 59 255
0.15580989 -0.078377157 1.7170001 64 73 61 255
0.16061348 -0.078419201 1.7180001 62 71 60 255
0.16513324 -0.078324214 1.7160001 63 72 61 255
0.16983932 -0.078320421 1.7160001 63 71 63 255
0.17464644 -0.078362174 1.7170001 62 70 62 255
0.17945836 -0.078403838 1.7180001 63 71 63 255
0.18427511 -0.078445405 1.7190001 64 72 64 255
0.18865685 -0.07830435 1.7160001 60 68 60 255
0.19358483 -0.078391358 1.7180001 57 65 57 255
0.19852304 -0.078478277 1.72 56 64 56 255
0.73434889 -0.081322163 1.7960001 145 153 145 255
0.73222542 -0.080550104 1.779 145 153 145 255
0.73291105 -0.080095194 1.7690001 144 152 145 255
0.73229247 -0.079504631 1.756 141 149 142 255
0.7328639 -0.079050101 1.7460001 138 146 139 255
0.73084778 -0.078324124 1.7300001 137 145 138 255
0.7312969 -0.077869959 1.72 131 139 131 255
0.73297685 -0.077551812 1.7130001 131 140 129 255
0.73462039 -0.077233858 1.7060001 132 141 130 255
0.73492736 -0.076780267 1.6960001 135 144 133 255
0.73561758 -0.076372132 1.687 137 146 135 255
0.73757684 -0.076099999 1.6810001 144 152 144 255
0.73862213 -0.075737521 1.6730001 146 156 147 255
0.74006987 -0.075420491 1.6660001 152 160 153 255
0.7401405 -0.074967839 1.6560001 156 165 158 255
0.74060822 -0.07456065 1.6470001 162 170 163 255
0.73921913 -0.073972568 1.6340001 164 172 165 255
0.74049199 -0.073656298 1.6270001 169 177 170 255
0.74081284 -0.073249668 1.618 173 181 174 255
0.74246848 -0.072979048 1.6120001 174 182 175 255
0.74131364 -0.072436981 1.6 179 187 180 255
0.74195963 -0.072076201 1.5920001 179 188 181 255
0.74209541 -0.071670331 1.5830001 179 188 181 255
0.74312723 -0.071355194 1.5760001 181 190 185 255
0.74364889 -0.070994981 1.5680001 182 191 186 255
0.74460626 -0.070680238 1.5610001 183 190 186 255
0.74552763 -0.070365675 1.554 185 192 188 255
0.74496597 -0.069915473 1.544 185 192 188 255
0.74338144 -0.069374882 1.5320001 184 191 187 255
0.74319768 -0.068970323 1.5230001 185 192 189 255
0.74296719 -0.068565942 1.5140001 187 194 191 255
0.74318355 -0.068207033 1.506 184 191 187 255
-0.7811752 -0.084951654 1.7700001 227 234 222 255
-0.76977617 -0.08423207 1.7550001 231 239 224 255
-0.76107597 -0.083800651 1.7460001 196 206 189 255
-0.75372612 -0.083513424 1.7400001 153 163 146 255
-0.74727136 -0.083322369 1.7360001 208 219 200 255
-0.7412678 -0.083179511 1.733 196 207 188 255
-0.73485708 -0.082988821 1.7290001 201 211 194 255
-0.72804725 -0.082750328 1.7240001 202 212 195 255
-0.72210515 -0.082607992 1.7210001 160 171 152 255
-0.7165975 -0.082513832 1.7190001 188 199 180 255
-0.71068794 -0.082371838 1.7160001 180 191 172 255
-0.70438439 -0.082182005 1.7120001 182 191 172 255
-0.69851243 -0.082040325 1.7090001 168 179 160 255
-0.69428194 -0.082090825 1.71 169 180 159 255
-0.68883723 -0.081997477 1.7080001 168 179 158 255
-0.68340427 -0.081904262 1.7060001 145 156 135 255
-0.6775853 -0.081763186 1.7030001 168 180 157 255
-0.67257375 -0.081718273 1.702 176 188 163 255
-0.66678363 -0.081577487 1.6990001 156 166 141 255
-0.66179001 -0.081532858 1.6980001 144 157 130 255
-0.65680254 -0.081488356 1.697 186 196 171 255
-0.65182126 -0.081444003 1.6960001 190 200 175 255
-0.64722753 -0.081447788 1.6960001 138 148 123 255
-0.64187664 -0.081355654 1.6940001 170 180 155 255
-0.63766575 -0.081407718 1.6950001 137 147 122 255
-0.63232946 -0.08131583 1.6930001 136 149 122 255
-0.62811691 -0.081368156 1.6940001 159 169 143 255
-0.62353116 -0.081372559 1.6940001 145 156 127 255
-0.61858052 -0.081329048 1.6930001 142 152 126 255
-0.61399823 -0.081333667 1.6930001 145 155 129 255
-0.60941631 -0.081338421 1.6930001 136 149 122 255
-0.60519183 -0.08139132 1.6940001 164 176 151 255
-0.60025305 -0.081348218 1.6930001 168 178 153 255
-0.59531987 -0.081305221 1.692 129 137 112 255
-0.59109062 -0.08135844 1.6930001 151 159 133 255
-0.58616304 -0.081315622 1.692 141 147 121 255
-0.58158475 -0.081320971 1.692 156 162 136 255
-0.57700652 -0.081326395 1.692 136 144 118 255
-0.5727666 -0.081379987 1.6930001 134 143 114 255
-0.5685212 -0.081433661 1.6940001 135 144 113 255
-0.56427032 -0.081487425 1.6950001 146 155 124 255
-0.55902338 -0.081397049 1.6930001 133 144 115 255
-0.55444211 -0.081402898 1.6930001 141 152 123 255
-0.54953581 -0.08136072 1.692 132 142 116 255
-0.54592305 -0.081510983 1.6950001 146 156 130 255
-0.54101652 -0.081468962 1.6940001 143 154 125 255
-0.53643161 -0.081475079 1.6940001 137 148 119 255
-0.53153253 -0.08143317 1.6930001 129 140 111 255
-0.52726102 -0.081487522 1.6940001 154 165 136 255
-0.5223667 -0.081445716 1.6930001 146 157 126 255
-0.51778334 -0.081452087 1.6930001 127 136 105 255
-0.51319945 -0.081458494 1.6930001 124 133 102 255
-0.50891566 -0.081513084 1.6940001 127 136 105 255
-0.50432831 -0.081519596 1.6940001 132 139 108 255
-0.50033045 -0.081622414 1.6960001 127 134 103 255
-0.49602899 -0.081677146 1.697 163 172 141 255
-0.49143195 -0.0816838 1.697 134 143 112 255
-0.48654762 -0.081642359 1.6960001 130 139 108 255
-0.48195231 -0.081649087 1.6960001 126 135 104 255
-0.47735637 -0.081655838 1.6960001 126 136 103 255
-0.47275984 -0.081662618 1.6960001 130 137 105 255
-0.46871474 -0.081765734 1.6980001 130 137 105 255
-0.46493158 -0.081917062 1.7010001 130 137 105 255
-0.46086088 -0.082020275 1.7030001 126 133 101 255
-0.45651069 -0.082075343 1.7040001 124 131 99 255
-0.45162407 -0.082034104 1.7030001 159 167 132 255
-0.44726712 -0.082089216 1.7040001 123 131 96 255
-0.44316369 -0.082192533 1.7060001 123 129 93 255
-0.43930587 -0.082344063 1.7090001 122 129 90 255
-0.43543097 -0.082495622 1.7120001 124 129 87 255
-0.43128732 -0.082599014 1.7140001 124 132 89 255
-0.42663437 -0.082606055 1.7140001 120 128 85 255
-0.42247286 -0.082709469 1.7160001 118 125 85 255
-0.41781279 -0.082716502 1.7160001 113 120 81 255
-0.41339269 -0.082771748 1.7170001 120 127 88 255
-0.4089663 -0.082826987 1.7180001 122 130 94 255
-0.40382767 -0.082737587 1.7160001 123 130 98 255
-0.39800119 -0.082503505 1.7110001 158 168 135 255
-0.39151135 -0.08212468 1.7030001 162 173 142 255
-0.38551849 -0.081842244 1.697 173 185 152 255
-0.38135311 -0.081945598 1.6990001 128 139 100 255
-0.37739763 -0.082097165 1.702 120 132 91 255
-0.37364402 -0.082297005 1.7060001 103 111 66 255
-0.36857 -0.082207374 1.7040001 75 83 38 255
-0.36371952 -0.082165949 1.7030001 137 145 102 255
-0.35908443 -0.082172737 1.7030001 122 130 87 255
-0.35486472 -0.082276009 1.705 89 94 52 255
-0.35022241 -0.082282752 1.705 87 95 52 255
-0.34497112 -0.082144663 1.702 111 118 78 255
-0.3395353 -0.081958257 1.6980001 130 137 97 255
-0.33412039 -0.081771784 1.6940001 135 144 105 255
-0.32911536 -0.081681773 1.692 138 150 115 255
-0.32450387 -0.081688263 1.692 139 150 119 255
-0.32008058 -0.081743002 1.6930001 120 128 103 255
-0.31546456 -0.081749417 1.6930001 7 12 0 255
-0.31066403 -0.081707485 1.692 22 24 6 255
-0.30604896 -0.081713796 1.692 25 24 8 255
-0.30143297 -0.081720062 1.692 34 33 19 255
-0.29681608 -0.081726268 1.692 20 23 9 255
-0.2909894 -0.081394285 1.6850001 88 93 81 255
-0.28604987 -0.081303738 1.6830001 91 98 87 255
-0.28112039 -0.081213109 1.6810001 84 93 82 255
-0.27652994 -0.081219047 1.6810001 94 103 92 255
-0.27145329 -0.08107996 1.6780001 87 95 87 255
-0.2665512 -0.080989115 1.6760001 88 97 86 255
-0.26165915 -0.080898188 1.674 85 94 83 255
-0.25708434 -0.080903843 1.674 80 89 78 255
-0.25220695 -0.08081276 1.6720001 84 91 80 255
-0.24748783 -0.080769934 1.6710001 79 88 76 255
-0.24262789 -0.080678679 1.669 62 71 59 255
