ply
format ascii 1.0
comment PCL generated
element vertex 961
property float x
property float y
property float z
property uchar red
property uchar green
property uchar blue
property uchar alpha
element camera 0
property float view_px
property float view_py
property float view_pz
property float x_axisx
property float x_axisy
property float x_axisz
property float y_axisx
property float y_axisy
property float y_axisz
property float z_axisx
property float z_axisy
property float z_axisz
property float focal
property float scalex
property float scaley
property float centerx
property float centery
property int viewportx
property int viewporty
property float k1
property float k2
end_header
-0.45016581 -0.0029422697 1.751 134 143 114 255
-0.44541395 -0.0029425244 1.751 136 145 116 255
-0.44015792 -0.0029394184 1.7490001 143 153 127 255
-0.43491203 -0.0029363118 1.7470001 146 156 130 255
-0.42992234 -0.0029348854 1.7460001 145 155 129 255
-0.4246937 -0.0029317774 1.7440001 147 157 131 255
-0.41971594 -0.0029303501 1.743 144 154 131 255
-0.41474274 -0.0029289224 1.7420001 149 158 137 255
-0.41024482 -0.0029308568 1.743 141 152 133 255
-0.40550792 -0.0029311096 1.743 131 142 123 255
-0.40054023 -0.00292968 1.7420001 132 143 122 255
-0.39580426 -0.0029299317 1.7420001 150 160 137 255
-0.39151639 -0.0029335464 1.7440001 145 155 130 255
-0.38699499 -0.0029354796 1.7450001 144 154 128 255
-0.38224807 -0.002935729 1.7450001 144 154 129 255
-0.37706763 -0.0029326128 1.743 135 147 124 255
-0.37232435 -0.0029328603 1.743 141 152 131 255
-0.36779106 -0.0029347902 1.7440001 141 153 130 255
-0.36262682 -0.0029316698 1.7420001 145 155 130 255
-0.35747263 -0.0029285483 1.7400001 146 156 130 255
-0.35273373 -0.0029287906 1.7400001 142 151 120 255
-0.34839392 -0.0029323988 1.7420001 118 127 96 255
-0.34423947 -0.0029376892 1.7450001 119 128 97 255
-0.34006777 -0.0029429791 1.748 131 140 109 255
-0.33702973 -0.0029583713 1.7570001 104 111 79 255
-0.33488709 -0.0029821834 1.771 91 98 66 255
-0.33192167 -0.0029992617 1.7810001 87 95 60 255
-0.32779884 -0.0030062352 1.7850001 90 96 61 255
-0.32311055 -0.0030081559 1.7860001 82 88 53 255
-0.3182376 -0.0030083898 1.7860001 86 90 54 255
-0.31389001 -0.0030136753 1.789 100 104 69 255
-0.30935246 -0.0030172756 1.7910001 95 99 64 255
-0.30531296 -0.0030259283 1.7960001 90 95 64 255
-0.30024153 -0.0030244701 1.7950001 94 98 72 255
-0.29517469 -0.0030230095 1.794 89 95 77 255
-0.28914145 -0.003011435 1.7870001 81 87 70 255
-0.28346375 -0.0030032273 1.7820001 78 85 73 255
-0.27812505 -0.0029983867 1.779 78 83 72 255
-0.27295545 -0.0029952289 1.7770001 62 67 56 255
-0.26809755 -0.0029954386 1.7770001 43 47 39 255
-0.26294249 -0.0029922745 1.7750001 34 36 28 255
-0.25779751 -0.002989107 1.7730001 12 14 4 255
-0.25237715 -0.0029825643 1.7690001 14 16 6 255
-0.24697782 -0.002976018 1.7650001 19 21 11 255
-0.24091357 -0.0029610365 1.756 81 86 75 255
-0.23516659 -0.0029494229 1.7490001 69 75 67 255
-0.2294571 -0.0029378054 1.7420001 67 75 67 255
-0.22443002 -0.0029346158 1.7400001 36 44 36 255
-0.21941303 -0.0029314226 1.738 4 12 4 255
-0.21477671 -0.0029332864 1.7390001 0 8 0 255
-0.20977184 -0.0029300866 1.7370001 62 70 62 255
-0.20465907 -0.0029251962 1.7340001 66 74 66 255
-0.19956201 -0.0029203021 1.7310001 69 77 69 255
-0.19481824 -0.0029204655 1.7310001 72 80 72 255
-0.19018354 -0.0029223128 1.7320001 83 89 81 255
-0.18532847 -0.0029207824 1.7310001 84 90 82 255
-0.18047822 -0.0029192488 1.7300001 93 99 91 255
-0.17593744 -0.0029227736 1.7320001 59 65 57 255
-0.17148384 -0.0029279832 1.7350001 50 57 46 255
-0.1673014 -0.0029382524 1.7410001 48 55 44 255
-0.16271193 -0.0029417677 1.743 51 58 47 255
-0.1580203 -0.0029435926 1.7440001 59 66 55 255
-0.15288317 -0.0029369739 1.7400001 86 90 82 255
-0.14759716 -0.0029269755 1.7340001 85 91 83 255
-0.1422611 -0.0029152841 1.7270001 86 92 85 255
-0.13720179 -0.0029086522 1.723 79 85 78 255
-0.13239451 -0.0029070806 1.7220001 74 80 73 255
-0.12774046 -0.0029088815 1.723 80 86 78 255
-0.123009 -0.0029089907 1.723 65 71 63 255
-0.11834567 -0.0029107842 1.7240001 70 76 68 255
-0.11367635 -0.0029125742 1.725 65 73 65 255
-0.10887476 -0.0029109831 1.7240001 81 89 82 255
-0.10431983 -0.0029161423 1.7270001 82 90 83 255
-0.099690303 -0.0029196092 1.7290001 81 89 82 255
-0.094884634 -0.0029180062 1.728 91 97 90 255
-0.089979738 -0.0029130217 1.725 88 96 89 255
-0.085338041 -0.0029164772 1.7270001 86 94 87 255
-0.080684952 -0.0029199279 1.7290001 83 91 84 255
-0.075976625 -0.0029216865 1.7300001 77 85 78 255
0.66500247 -0.0032668023 1.9490001 26 31 19 255
0.67852896 -0.0033068019 1.973 24 27 13 255
0.68074721 -0.0032914956 1.9640001 23 26 12 255
0.68221802 -0.0032728424 1.9530001 20 25 11 255
0.68292552 -0.0032508448 1.9400001 21 24 10 255
0.68569112 -0.0032389073 1.9330001 22 25 13 255
0.69413805 -0.0032537829 1.9420002 20 23 11 255
0.69146937 -0.0032167241 1.9200001 19 20 8 255
0.69303614 -0.0031997771 1.9100001 20 21 9 255
0.70149475 -0.0032146655 1.9190001 20 21 9 255
0.70816094 -0.0032211803 1.9230001 21 24 12 255
0.7259782 -0.0032779488 1.9570001 18 23 11 255
0.73538548 -0.0032961934 1.9680001 9 16 5 255
0.74297094 -0.0033060666 1.9740001 95 103 95 255
0.74641973 -0.0032975222 1.9690001 122 130 122 255
0.74869639 -0.0032839593 1.9610001 131 139 132 255
0.74747002 -0.0032553324 1.9440001 136 144 137 255
0.74615228 -0.0032267137 1.927 138 146 139 255
0.74435318 -0.0031964281 1.909 141 149 142 255
0.7432428 -0.0031694996 1.8930001 144 152 145 255
0.7408604 -0.0031375559 1.8740001 144 152 145 255
0.73797804 -0.0031039466 1.8540001 146 154 147 255
0.73699194 -0.0030787161 1.8390001 148 156 149 255
0.68156922 -0.0028089825 1.6780001 170 176 169 255
0.67017353 -0.0027436072 1.6390001 23 25 15 255
0.66968066 -0.0027234366 1.6270001 27 28 16 255
0.66746646 -0.002696577 1.6110001 26 27 13 255
0.66808569 -0.0026814411 1.6020001 22 26 9 255
0.6673981 -0.0026612901 1.59 22 26 9 255
0.67087114 -0.0026578833 1.5880001 23 26 12 255
0.66795683 -0.0026293769 1.5710001 26 29 15 255
0.66709095 -0.0026092457 1.559 31 34 20 255
0.66831434 -0.0025974892 1.552 30 33 19 255
0.67123437 -0.0025924332 1.549 28 31 17 255
0.67675591 -0.0025974254 1.552 22 25 11 255
0.68054014 -0.0025957292 1.5510001 21 24 10 255
0.68696964 -0.0026040808 1.5560001 20 23 9 255
0.68942982 -0.0025973762 1.552 22 25 11 255
0.69186997 -0.0025906784 1.5480001 21 24 10 255
0.6947397 -0.0025856604 1.5450001 22 26 9 255
0.70030934 -0.002590691 1.5480001 22 26 9 255
0.70635229 -0.0025974016 1.552 20 28 11 255
0.71241909 -0.0026041195 1.5560001 12 22 7 255
0.7157461 -0.0026008026 1.554 65 74 62 255
0.71999103 -0.0026008401 1.554 133 143 132 255
0.72283989 -0.002595864 1.5510001 161 170 163 255
0.72473693 -0.0025875473 1.5460001 163 172 165 255
0.72472298 -0.0025725432 1.5370001 165 173 166 255
0.72371334 -0.0025541978 1.526 170 177 173 255
0.72407705 -0.0025408808 1.5180001 170 177 173 255
0.72487903 -0.0025292446 1.511 171 178 174 255
0.72564507 -0.0025176152 1.5040001 174 181 177 255
-1.0265375 -0.0080449544 1.8240001 24 25 13 255
-1.0034862 -0.0079026688 1.7920001 18 18 8 255
-0.98006392 -0.0077560525 1.7590001 17 17 7 255
-0.97956127 -0.0077902684 1.7670001 15 15 7 255
-1.0042305 -0.0080659362 1.83 20 16 6 255
-0.99747324 -0.008051726 1.8270001 24 17 4 255
-0.99399716 -0.0080639916 1.83 44 33 18 255
-0.99105012 -0.0080806958 1.8340001 68 53 33 255
-0.98539799 -0.0080754012 1.8330001 78 62 39 255
-0.97868693 -0.0080613308 1.83 79 66 43 255
-0.9741258 -0.0080649136 1.8310001 80 66 46 255
-0.96215469 -0.0080068698 1.8180001 41 34 14 255
-0.96342182 -0.0080589624 1.83 38 32 15 255
-0.95624828 -0.0080406228 1.8260001 34 32 14 255
-0.95170605 -0.0080443332 1.8270001 38 34 17 255
-0.94871706 -0.0080612805 1.8310001 29 27 9 255
-0.9446795 -0.008069451 1.8330001 25 23 5 255
-0.93499649 -0.0080292271 1.8240001 24 22 4 255
-0.92842633 -0.0080154492 1.8210001 35 31 14 255
-0.92441225 -0.0080237081 1.8230001 38 26 7 255
-0.92240846 -0.0080495989 1.8290001 47 33 13 255
-0.91686428 -0.0080447076 1.8280001 69 51 27 255
-0.91232699 -0.0080486462 1.8290001 94 74 48 255
-0.9067958 -0.0080438117 1.8280001 106 82 54 255
-0.90176684 -0.0080434037 1.8280001 102 78 50 255
-0.89674151 -0.0080430219 1.8280001 111 89 61 255
-0.89367068 -0.0080602663 1.8320001 106 84 56 255
-0.88815576 -0.0080555361 1.8310001 99 80 51 255
-0.8812027 -0.0080376342 1.8270001 88 71 42 255
-0.87331539 -0.0080109593 1.8210001 84 67 38 255
-0.8673715 -0.0080019077 1.8190001 79 64 35 255
-0.8623895 -0.0080016786 1.8190001 78 63 34 255
-0.85788167 -0.0080058714 1.8200001 78 63 34 255
-0.85337126 -0.0080100875 1.8210001 75 62 33 255
-0.84839213 -0.0080099283 1.8210001 74 62 35 255
-0.84248918 -0.0080009941 1.8190001 72 60 33 255
-0.8375206 -0.0080008795 1.8190001 58 50 25 255
-0.83163893 -0.0079919901 1.817 37 32 11 255
-0.82804549 -0.0080051143 1.8200001 30 28 8 255
-0.82443792 -0.0080182608 1.8230001 26 24 6 255
-0.82081616 -0.008031426 1.8260001 25 24 8 255
-0.81226557 -0.0079962322 1.8180001 25 24 8 255
-0.8046487 -0.0079698535 1.812 26 25 11 255
-0.79927325 -0.0079654874 1.8110001 24 22 11 255
-0.65030932 -0.0078943595 1.7930001 158 168 153 255
-0.63717788 -0.007793563 1.7700001 160 168 153 255
-0.63024509 -0.0077676238 1.7640001 172 180 163 255
-0.62369949 -0.0077460939 1.7590001 174 183 164 255
-0.61753303 -0.0077289757 1.7550001 174 183 164 255
-0.61103922 -0.0077074603 1.7500001 171 181 158 255
-0.60387951 -0.0076771406 1.743 169 179 156 255
-0.59847653 -0.0076688505 1.7410001 169 179 156 255
-0.59376645 -0.0076693771 1.7410001 162 172 147 255
-0.58939475 -0.0076743197 1.7420001 173 182 153 255
-0.58468199 -0.0076748631 1.7420001 74 81 52 255
-0.57996905 -0.0076754149 1.7420001 93 98 67 255
-0.57591635 -0.0076847854 1.7440001 150 155 124 255
-0.57185274 -0.0076941657 1.7460001 146 151 120 255
-0.56777817 -0.0077035548 1.748 144 148 120 255
-0.56401461 -0.0077173579 1.751 139 146 117 255
-0.56023467 -0.0077311709 1.7540001 140 147 116 255
-0.55580461 -0.0077361744 1.7550001 137 144 113 255
-0.55168295 -0.0077455943 1.7570001 138 145 114 255
-0.54723883 -0.0077506122 1.7580001 141 148 117 255
-0.5427888 -0.0077556348 1.7590001 140 147 116 255
-0.53741556 -0.0077474369 1.7570001 143 150 119 255
-0.53265882 -0.0077480604 1.7570001 143 148 117 255
-0.52790183 -0.0077486895 1.7570001 141 148 116 255
-0.52344197 -0.0077537335 1.7580001 141 147 112 255
-0.51838613 -0.0077499612 1.7570001 138 144 108 255
-0.51362747 -0.0077506015 1.7570001 140 148 113 255
-0.50857866 -0.0077468352 1.756 140 148 113 255
-0.50382167 -0.0077474844 1.756 141 148 116 255
-0.49877989 -0.0077437242 1.7550001 140 149 118 255
-0.49402434 -0.0077443779 1.7550001 116 125 94 255
-0.48954692 -0.0077494471 1.756 128 137 106 255
-0.48506349 -0.0077545214 1.7570001 125 132 101 255
-0.48030058 -0.0077551841 1.7570001 127 134 103 255
-0.4749957 -0.0077470201 1.7550001 129 136 105 255
-0.46970093 -0.0077388571 1.7530001 127 136 105 255
-0.46494672 -0.007739523 1.7530001 141 150 121 255
-0.45966673 -0.0077313595 1.751 150 159 130 255
-0.45465663 -0.0077276127 1.7500001 127 137 111 255
-0.44990826 -0.007728281 1.7500001 134 142 116 255
-0.44490471 -0.0077245343 1.7490001 137 146 117 255
-0.43940246 -0.0077119521 1.7460001 138 148 122 255
-0.43391576 -0.007699369 1.743 142 153 124 255
-0.42893696 -0.007695619 1.7420001 148 158 132 255
-0.42396271 -0.0076918672 1.7410001 144 154 128 255
-0.41851148 -0.0076792785 1.738 146 156 131 255
-0.4135519 -0.0076755234 1.7370001 143 153 130 255
-0.40859681 -0.0076717674 1.7360001 146 155 134 255
-0.40411156 -0.0076768482 1.7370001 141 152 131 255
-0.39870033 -0.0076642493 1.7340001 144 156 131 255
-0.39375886 -0.0076604858 1.733 143 153 128 255
-0.38882205 -0.0076567223 1.7320001 137 147 121 255
-0.38433322 -0.0076617962 1.733 141 151 125 255
-0.37939993 -0.0076580266 1.7320001 145 155 130 255
-0.37425488 -0.0076498319 1.7300001 148 160 137 255
-0.36954698 -0.0076504783 1.7300001 136 147 126 255
-0.36483815 -0.0076511209 1.7300001 137 149 126 255
-0.35992023 -0.0076473393 1.7290001 133 145 122 255
-0.35521227 -0.0076479758 1.7290001 132 142 116 255
-0.35090882 -0.0076574567 1.7310001 116 125 94 255
-0.34679347 -0.0076713595 1.7340001 115 124 93 255
-0.3426609 -0.0076852622 1.7370001 112 122 89 255
-0.33928919 -0.0077168616 1.7440001 116 126 93 255
-0.3364538 -0.0077617359 1.7540001 95 103 68 255
-0.33413029 -0.0078198919 1.7670001 79 86 54 255
-0.33061662 -0.0078514963 1.774 89 95 60 255
-0.32651293 -0.007869822 1.7780001 80 86 51 255
-0.32148188 -0.0078660129 1.7770001 81 87 52 255
-0.31698987 -0.0078754788 1.779 86 90 55 255
-0.31231052 -0.0078805136 1.7800001 95 99 64 255
-0.3079702 -0.0078943996 1.7830001 93 98 66 255
-0.30344254 -0.0079038525 1.7850001 71 75 47 255
-0.29773217 -0.0078823045 1.7800001 31 37 12 255
-0.29204813 -0.0078607462 1.7750001 26 32 14 255
-0.28655222 -0.007843608 1.771 22 28 11 255
-0.28139541 -0.0078353193 1.7690001 19 26 14 255
-0.27640495 -0.0078314533 1.7680001 18 23 12 255
-0.27141902 -0.007827579 1.7670001 19 24 13 255
-0.26704106 -0.0078414185 1.7700001 22 27 16 255
-0.26205331 -0.0078375302 1.7690001 26 28 20 255
-0.25663391 -0.0078203427 1.7650001 66 68 58 255
-0.25109282 -0.0077987136 1.7600001 83 85 77 255
-0.24515839 -0.0077637807 1.7520001 41 45 37 255
-0.23899247 -0.0077199722 1.7420001 108 114 106 255
-0.23328386 -0.0076894467 1.7350001 91 97 89 255
-0.22800785 -0.007672206 1.7310001 45 53 45 255
-0.22301085 -0.0076638195 1.7290001 62 70 62 255
-0.21789776 -0.0076509919 1.7260001 75 83 75 255
-0.21304731 -0.0076470207 1.725 72 80 72 255
-0.2080808 -0.0076386081 1.723 78 84 76 255
-0.20324245 -0.0076346183 1.7220001 58 66 58 255
-0.19829354 -0.0076261866 1.72 48 56 48 255
-0.19346739 -0.0076221796 1.7190001 89 95 87 255
-0.18875578 -0.0076225982 1.7190001 94 100 92 255
-0.18393637 -0.0076185726 1.7180001 89 95 88 255
-0.17933039 -0.0076234075 1.7190001 57 63 56 255
-0.17492135 -0.007637104 1.7220001 52 58 50 255
-0.1704952 -0.0076507926 1.725 45 52 41 255
-0.16595583 -0.0076600383 1.7270001 87 94 83 255
-0.16103137 -0.0076515316 1.725 98 105 94 255
-0.15602668 -0.0076385811 1.7220001 88 95 84 255
-0.15086207 -0.0076167458 1.7170001 77 83 75 255
-0.14597967 -0.0076082083 1.715 71 77 70 255
-0.14102526 -0.0075952238 1.7120001 67 73 66 255
-0.13640527 -0.007599975 1.7130001 71 75 68 255
-0.13162546 -0.0075958427 1.7120001 77 81 73 255
-0.12699889 -0.0076005743 1.7130001 85 91 83 255
-0.12243766 -0.0076097338 1.715 68 74 66 255
-0.11793361 -0.0076233209 1.7180001 69 75 67 255
-0.11328077 -0.0076280241 1.7190001 78 84 76 255
-0.10843252 -0.0076194042 1.7170001 85 91 83 255
-0.1036552 -0.007615211 1.7160001 81 89 82 255
-0.099055916 -0.0076243207 1.7180001 79 87 80 255
-0.094280481 -0.0076201069 1.7170001 74 82 75 255
-0.08951015 -0.007615882 1.7160001 77 85 78 255
-0.084646091 -0.0076027694 1.7130001 78 86 79 255
-0.080031492 -0.0076118372 1.715 79 87 80 255
-0.07531774 -0.0076120188 1.715 80 88 81 255
-0.07068599 -0.0076210666 1.7170001 79 87 79 255
-0.065927677 -0.0076167872 1.7160001 78 86 78 255
-0.061245922 -0.0076213758 1.7170001 79 86 75 255
-0.056492556 -0.0076170745 1.7160001 81 88 77 255
-0.051955651 -0.0076438352 1.7220001 87 89 79 255
-0.047495205 -0.0076883412 1.7320001 90 90 80 255
-0.043127604 -0.0077594724 1.748 97 95 84 255
-0.021682175 -0.0088119451 1.9850001 80 69 54 255
0.67694408 -0.0087397965 1.9840001 30 33 21 255
0.68024814 -0.0087127667 1.978 26 27 15 255
0.68317306 -0.0086813476 1.9710001 21 24 10 255
0.68710822 -0.0086631533 1.9670001 21 24 10 255
0.68926156 -0.0086229499 1.9580001 25 28 14 255
0.69065696 -0.0085739577 1.9470001 21 24 10 255
0.69199294 -0.0085249804 1.9360001 20 23 11 255
0.69002843 -0.0084363939 1.9160001 19 20 8 255
0.69739002 -0.0084623015 1.9220001 21 22 10 255
0.70441878 -0.0084838159 1.927 20 21 9 255
0.7114749 -0.0085053379 1.932 21 24 12 255
0.72152627 -0.0085620889 1.9450001 18 23 11 255
0.73426414 -0.0086496575 1.9650002 10 17 5 255
0.74184161 -0.008675606 1.9710001 70 79 68 255
0.7456612 -0.0086575523 1.9670001 123 132 121 255
0.74716896 -0.0086131068 1.9570001 128 136 128 255
0.74631625 -0.0085422723 1.9410001 135 143 136 255
0.7446031 -0.0084626572 1.9230001 137 145 138 255
0.74240333 -0.0083786631 1.904 139 147 139 255
0.74127942 -0.0083078938 1.8880001 143 151 143 255
0.74046493 -0.0082415435 1.8730001 142 150 142 255
0.73957002 -0.0081752129 1.858 143 151 143 255
0.73819405 -0.0081045032 1.8420001 145 153 146 255
0.67953819 -0.0073604081 1.6730001 167 173 165 255
0.66567558 -0.0071621966 1.628 28 31 19 255
0.66803408 -0.0071399808 1.623 26 27 13 255
0.66580904 -0.0070693912 1.6070001 27 29 12 255
0.66808558 -0.0070472085 1.6020001 23 27 10 255
0.66571891 -0.0069766538 1.5860001 23 27 10 255
0.66495657 -0.0069237133 1.5740001 27 30 16 255
0.66583085 -0.0068883835 1.5660001 19 24 12 255
0.66537935 -0.0068398751 1.5550001 30 35 23 255
0.66917551 -0.0068353685 1.554 29 32 18 255
0.67210102 -0.0068220813 1.5510001 28 31 17 255
0.67457563 -0.0068044122 1.5470001 24 27 13 255
0.67834628 -0.0067999549 1.5460001 23 27 10 255
0.68476206 -0.0068219039 1.5510001 21 25 8 255
0.68765295 -0.0068086823 1.5480001 22 26 9 255
0.68918824 -0.0067822826 1.5420001 21 25 8 255
0.69204175 -0.0067690955 1.539 23 27 10 255
0.69895214 -0.0067955102 1.5450001 23 27 10 255
0.70544207 -0.0068175462 1.5500001 22 28 11 255
0.71104556 -0.0068308022 1.5530001 16 24 9 255
0.7157461 -0.0068352809 1.554 36 46 31 255
0.71999109 -0.0068353801 1.554 130 139 127 255
0.72284001 -0.0068223025 1.5510001 158 168 159 255
0.72473711 -0.0068004457 1.5460001 164 173 166 255
0.72566611 -0.0067698094 1.539 166 174 167 255
0.72513634 -0.0067259944 1.529 168 176 169 255
0.72455418 -0.006682198 1.5190001 170 178 171 255
0.72583872 -0.0066560162 1.5130001 170 178 171 255
0.72709268 -0.0066298516 1.5070001 172 180 173 255
-1.0192337 -0.012873625 1.802 21 22 10 255
-1.0259762 -0.013021704 1.8230001 18 19 7 255
-1.0068477 -0.012841268 1.7980001 20 20 10 255
-0.99622327 -0.012768057 1.7880001 18 18 8 255
-1.0061722 -0.012959102 1.8150001 16 16 6 255
-0.99281007 -0.012850313 1.8000001 17 15 5 255
-1.001488 -0.013027134 1.825 24 20 6 255
-0.99529058 -0.013011262 1.8230001 42 34 18 255
-0.98965293 -0.013002585 1.8220001 63 49 30 255
-0.98726869 -0.013036778 1.8270001 75 59 36 255
-0.98539919 -0.013078152 1.8330001 78 60 34 255
-0.97761846 -0.013041096 1.8280001 86 73 50 255
-0.96721053 -0.012968433 1.8180001 71 62 41 255
-0.96215558 -0.012967163 1.8180001 40 33 13 255
-0.95499957 -0.012937417 1.8140001 40 36 19 255
-0.948394 -0.012914858 1.8110001 43 37 20 255
-0.94545597 -0.012942266 1.8150001 41 34 14 255
-0.94250011 -0.012969718 1.8190001 35 27 10 255
-0.9400419 -0.013004345 1.8240001 30 24 7 255
-0.9329468 -0.012974853 1.8200001 34 26 9 255
-0.92893684 -0.012988182 1.8220001 53 43 26 255
-0.92542702 -0.013008685 1.825 45 31 12 255
-0.92140049 -0.013022104 1.8270001 71 56 36 255
-0.91536027 -0.013007057 1.825 83 63 39 255
-0.9093346 -0.012992054 1.8230001 96 74 48 255
-0.9048121 -0.01299848 1.8240001 97 73 45 255
-0.89979422 -0.012997821 1.8240001 95 71 43 255
-0.89527023 -0.013004329 1.825 103 81 53 255
-0.89123201 -0.013018006 1.8270001 101 79 51 255
-0.88573086 -0.013010346 1.8260001 100 79 49 255
-0.87975603 -0.012995604 1.8240001 97 75 47 255
-0.87283611 -0.012966653 1.8200001 92 73 43 255
-0.8673718 -0.01295912 1.8190001 90 71 42 255
-0.86144161 -0.012944499 1.817 83 66 37 255
-0.8564679 -0.012944166 1.817 81 64 35 255
-0.85102844 -0.012936747 1.8160001 76 63 34 255
-0.84699464 -0.012950736 1.8180001 80 68 41 255
-0.84063667 -0.012929143 1.8150001 70 58 31 255
-0.83659983 -0.012943204 1.817 59 50 27 255
-0.830266 -0.012921684 1.8140001 47 40 19 255
-0.82486081 -0.012914447 1.8130001 37 34 14 255
-0.82172447 -0.012942858 1.817 30 28 10 255
-0.81587154 -0.012928567 1.8150001 27 25 7 255
-0.81315917 -0.012964168 1.8200001 27 25 7 255
-0.8090893 -0.012978434 1.8220001 27 24 8 255
-0.80765873 -0.013035471 1.83 28 25 11 255
-0.71638751 -0.013098933 1.8380001 150 155 134 255
-0.71295738 -0.013128036 1.8420001 145 148 126 255
-0.70950615 -0.013157161 1.8460001 139 142 118 255
-0.70603406 -0.013186313 1.8500001 135 141 116 255
-0.70216191 -0.013208359 1.853 130 136 111 255
-0.69639307 -0.013194785 1.8510001 129 134 112 255
-0.68764734 -0.013124201 1.8410001 130 135 113 255
-0.66111714 -0.012804825 1.7960001 154 160 142 255
-0.64858335 -0.012655832 1.7750001 156 165 146 255
-0.63870251 -0.012556752 1.761 166 177 158 255
-0.63069755 -0.012493332 1.7520001 171 180 161 255
-0.62488526 -0.012472709 1.7490001 168 177 156 255
-0.6187349 -0.012444966 1.7450001 170 179 158 255
-0.61225432 -0.012410102 1.7400001 168 178 155 255
-0.60615027 -0.012382383 1.7360001 167 177 154 255
-0.60041416 -0.012361807 1.733 165 177 152 255
-0.59503824 -0.012348375 1.7310001 158 170 145 255
-0.59069639 -0.012356359 1.7320001 167 177 151 255
-0.58668733 -0.012371492 1.7340001 68 77 46 255
-0.58266735 -0.012386637 1.7360001 90 97 66 255
-0.57763773 -0.012380392 1.7350001 133 138 107 255
-0.57294357 -0.012381293 1.7350001 155 160 129 255
-0.56824934 -0.012382206 1.7350001 147 151 123 255
-0.56420445 -0.012397404 1.7370001 145 149 121 255
-0.56079274 -0.01242689 1.7410001 138 142 114 255
-0.55703986 -0.012449253 1.7440001 136 141 110 255
-0.55263686 -0.012457352 1.7450001 145 150 119 255
-0.54948425 -0.012494019 1.7500001 139 143 115 255
-0.54537028 -0.012509281 1.7520001 137 144 115 255
-0.5412451 -0.012524554 1.7540001 136 143 114 255
-0.53619123 -0.012518414 1.7530001 139 146 117 255
-0.53144538 -0.012519422 1.7530001 139 146 115 255
-0.52730006 -0.012534723 1.7550001 137 144 113 255
-0.52284557 -0.012542889 1.756 138 145 114 255
-0.51750016 -0.012529635 1.7540001 140 147 115 255
-0.51245737 -0.012523528 1.7530001 139 146 114 255
-0.50770897 -0.01252457 1.7530001 132 139 107 255
-0.50296009 -0.012525617 1.7530001 143 150 119 255
-0.49792638 -0.012519525 1.7520001 140 147 116 255
-0.49317902 -0.012520583 1.7520001 121 128 96 255
-0.48898858 -0.012535939 1.7540001 133 140 109 255
-0.48451051 -0.012544154 1.7550001 131 138 107 255
-0.47975299 -0.012545224 1.7550001 130 137 106 255
-0.47472414 -0.01253915 1.7540001 131 140 109 255
-0.46970004 -0.012533079 1.7530001 134 145 116 255
-0.46494582 -0.012534157 1.7530001 139 149 123 255
-0.45992836 -0.012528089 1.7520001 139 149 123 255
-0.45491546 -0.012522019 1.751 128 138 112 255
-0.44990742 -0.012515951 1.7500001 129 139 113 255
-0.44490385 -0.012509882 1.7490001 132 142 116 255
-0.43940157 -0.012489504 1.7460001 136 146 120 255
-0.43391487 -0.012469126 1.743 142 152 126 255
-0.42893609 -0.012463054 1.7420001 138 148 122 255
-0.42371836 -0.012449823 1.7400001 138 148 122 255
-0.41875139 -0.012443744 1.7390001 142 152 126 255
-0.41331288 -0.01242335 1.7360001 138 148 122 255
-0.4083606 -0.012417268 1.7350001 143 153 127 255
-0.40341273 -0.01241118 1.7340001 138 148 122 255
-0.39846954 -0.012405089 1.733 132 142 116 255
-0.39307642 -0.012384678 1.7300001 133 143 117 255
-0.38814768 -0.012378579 1.7290001 136 146 120 255
-0.38300171 -0.012365315 1.7270001 140 150 124 255
-0.3783038 -0.012366368 1.7270001 137 147 121 255
-0.37295604 -0.012345931 1.7240001 155 167 144 255
-0.36805084 -0.012339812 1.723 143 155 132 255
-0.36272842 -0.012319362 1.72 141 153 130 255
-0.35783777 -0.012313231 1.7190001 140 152 127 255
-0.35356793 -0.012328584 1.7210001 132 143 114 255
-0.34969166 -0.01235826 1.725 120 129 98 255
-0.34579271 -0.012387938 1.7290001 110 120 87 255
-0.34167367 -0.012410448 1.7320001 104 112 77 255
-0.33831561 -0.012461619 1.7390001 113 121 86 255
-0.33568576 -0.01254146 1.7500001 77 85 50 255
-0.33318397 -0.012628471 1.7620001 86 92 57 255
-0.32931125 -0.012665317 1.7670001 82 90 55 255
-0.32504302 -0.012687824 1.7700001 80 85 54 255
-0.32039559 -0.012695987 1.771 78 83 52 255
-0.31574181 -0.012704145 1.7720001 77 82 51 255
-0.31090608 -0.012705125 1.7720001 82 86 58 255
-0.30624217 -0.012713267 1.7730001 77 80 58 255
-0.30089188 -0.012692717 1.7700001 40 42 22 255
-0.29505515 -0.012650638 1.7640001 39 43 25 255
-0.2897439 -0.01263006 1.761 37 41 24 255
-0.28460988 -0.012616644 1.7590001 32 35 23 255
-0.27980396 -0.012617559 1.7590001 29 34 22 255
-0.27484086 -0.012611292 1.7580001 40 45 33 255
-0.27003586 -0.012612186 1.7580001 39 46 34 255
-0.26507908 -0.012605897 1.7570001 42 49 38 255
-0.26012683 -0.012599593 1.756 18 25 14 255
-0.25503379 -0.012586102 1.7540001 71 77 69 255
-0.24923746 -0.012536717 1.7470001 33 39 32 255
-0.24291882 -0.012458607 1.7360001 116 120 113 255
-0.23665951 -0.012380473 1.725 98 104 97 255
-0.2314008 -0.012352563 1.7210001 88 94 87 255
-0.22642657 -0.01233899 1.7190001 93 99 92 255
-0.22159146 -0.012332582 1.7180001 89 95 88 255
-0.21650848 -0.012311803 1.715 69 75 67 255
-0.21193518 -0.012319725 1.7160001 57 63 55 255
-0.20699331 -0.012306096 1.7140001 69 76 65 255
-0.20241569 -0.012313993 1.715 59 65 57 255
-0.19737069 -0.012293153 1.7120001 53 59 51 255
-0.19256645 -0.01228666 1.7110001 97 103 95 255
-0.18754739 -0.012265791 1.7080001 89 95 87 255
-0.18286519 -0.012266448 1.7080001 53 59 51 255
-0.17828663 -0.012274275 1.7090001 46 52 44 255
-0.17390504 -0.012296453 1.7120001 50 56 48 255
-0.16930863 -0.012304251 1.7130001 94 100 92 255
-0.16461 -0.012304854 1.7130001 87 93 85 255
-0.15963063 -0.012283891 1.71 77 83 75 255
-0.15466711 -0.012262911 1.7070001 77 83 75 255
-0.14980727 -0.012249096 1.705 73 79 71 255
-0.14504293 -0.01224245 1.7040001 69 75 68 255
-0.14044821 -0.012250157 1.705 62 68 60 255
-0.13576783 -0.012250665 1.705 62 68 60 255
-0.13116376 -0.012258342 1.7060001 92 98 90 255
-0.12633127 -0.012244446 1.7040001 68 75 64 255
-0.12172336 -0.01225209 1.705 69 76 65 255
-0.11704086 -0.012252533 1.705 70 76 68 255
-0.11242375 -0.012260146 1.7060001 76 82 74 255
-0.10767437 -0.01225337 1.705 72 78 71 255
-0.10299043 -0.012253763 1.705 71 77 70 255
-0.09830606 -0.012254139 1.705 73 81 74 255
-0.093676195 -0.012261689 1.7060001 76 84 76 255
-0.088936083 -0.012254842 1.705 78 86 78 255
-0.084201105 -0.012247981 1.7040001 76 84 76 255
-0.079517946 -0.01224829 1.7040001 79 87 79 255
-0.074834421 -0.01224858 1.7040001 75 84 73 255
-0.070191748 -0.012256042 1.705 74 81 70 255
-0.065504864 -0.0122563 1.705 79 86 75 255
-0.060782023 -0.012249351 1.7040001 79 84 72 255
-0.055998567 -0.012228007 1.7010001 75 80 68 255
-0.051291715 -0.012221022 1.7 77 80 68 255
-0.046617556 -0.012221209 1.7 81 82 70 255
-0.04201721 -0.012242943 1.7030001 85 83 72 255
0.67591971 -0.014132708 1.9810001 29 31 21 255
0.68024737 -0.014110338 1.978 25 26 14 255
0.68247902 -0.014045185 1.9690001 22 25 11 255
0.68780601 -0.014044251 1.9690001 21 24 10 255
0.69242907 -0.014029071 1.9670001 21 24 10 255
0.69881493 -0.014049566 1.9700001 23 24 10 255
0.68520105 -0.013670725 1.9170001 19 22 10 255
0.69002783 -0.013662752 1.9160001 19 22 10 255
0.69884074 -0.013733232 1.9260001 18 21 9 255
0.70003158 -0.013653994 1.9150001 17 20 8 255
0.70742351 -0.013695985 1.9210001 20 23 11 255
0.72152567 -0.013866317 1.9450001 18 23 9 255
0.73202151 -0.013965362 1.9590001 11 19 4 255
0.74071181 -0.014028775 1.9680001 62 71 59 255
0.74452341 -0.013999538 1.9640001 124 133 122 255
0.7452594 -0.013913303 1.9520001 127 135 127 255
0.74631572 -0.013834227 1.9410001 133 141 133 255
0.74615145 -0.0137338 1.927 134 142 134 255
0.74357265 -0.013590643 1.9070001 140 148 140 255
0.74127895 -0.01345465 1.8880001 142 150 142 255
0.73848778 -0.013311566 1.868 141 149 141 255
0.73837548 -0.013218398 1.8550001 144 152 144 255
0.73498762 -0.013068257 1.8340001 143 151 144 255
0.70001632 -0.012362378 1.7350001 150 156 149 255
0.67466372 -0.011834698 1.6610001 43 47 39 255
0.66690195 -0.011620568 1.631 27 30 18 255
0.66638738 -0.011534718 1.6190001 26 29 15 255
0.66663748 -0.011463146 1.6090001 26 28 11 255
0.66558313 -0.011370227 1.5960001 21 25 8 255
0.66613853 -0.011305833 1.5870001 24 27 13 255
0.66706866 -0.01124859 1.5790001 23 26 12 255
0.66710621 -0.011177127 1.5690001 20 25 13 255
0.66666287 -0.011098566 1.5580001 32 35 23 255
0.67003655 -0.011084146 1.5560001 30 33 19 255
0.66993427 -0.011012764 1.5460001 29 32 18 255
0.67370343 -0.011005518 1.5450001 26 30 13 255
0.6765911 -0.010984054 1.5420001 20 24 7 255
0.68343753 -0.011026724 1.5480001 20 24 7 255
0.68676442 -0.011012435 1.5460001 26 30 13 255
0.69008213 -0.010998174 1.544 26 30 13 255
0.69294113 -0.010976817 1.5410001 22 26 9 255
0.69578546 -0.010955489 1.5380001 23 27 10 255
0.7027114 -0.010998298 1.544 22 28 11 255
0.71058774 -0.011055384 1.552 19 27 10 255
0.71528578 -0.011062638 1.5530001 8 18 3 255
0.71999115 -0.01106992 1.554 129 138 126 255
0.72284019 -0.011048743 1.5510001 155 165 154 255
0.72520608 -0.011020469 1.5470001 163 173 164 255
0.72566628 -0.01096373 1.539 165 173 166 255
0.72513658 -0.010892773 1.529 169 176 172 255
0.72455448 -0.010821844 1.5190001 170 177 173 255
0.7258389 -0.010779442 1.5130001 170 177 173 255
0.72757548 -0.010744195 1.508 173 181 174 255
0.72831672 -0.010694728 1.501 174 182 175 255
-1.0192361 -0.017798172 1.802 20 21 9 255
-1.024853 -0.017983144 1.8210001 17 17 7 255
-1.0208493 -0.018000284 1.8230001 18 18 8 255
-1.0051401 -0.017810177 1.8040001 18 18 10 255
-0.98732591 -0.017580722 1.7810001 19 17 7 255
-0.98950267 -0.017706716 1.794 22 18 7 255
-0.99490482 -0.017891973 1.8130001 37 27 10 255
-0.99201661 -0.017929245 1.817 55 41 24 255
-0.9929139 -0.018035652 1.8280001 73 54 32 255
-0.99051267 -0.018082917 1.8330001 82 62 38 255
-0.98701358 -0.018110517 1.8360001 88 68 42 255
-0.97655052 -0.018009966 1.8260001 86 72 48 255
-0.96561605 -0.017899647 1.8150001 76 75 53 255
-0.95580626 -0.017809143 1.8060001 41 32 11 255
-0.95078915 -0.017807471 1.8060001 50 40 23 255
-0.94577694 -0.017805865 1.8060001 58 46 29 255
-0.94337362 -0.01785362 1.8110001 46 32 12 255
-0.94042873 -0.017891575 1.8150001 41 27 7 255
-0.93849701 -0.017949307 1.8210001 52 40 21 255
-0.93192267 -0.017918389 1.8180001 63 49 29 255
-0.9279182 -0.017936818 1.8200001 53 39 16 255
-0.92339969 -0.017945455 1.8210001 78 58 34 255
-0.91686249 -0.017914739 1.8180001 95 73 47 255
-0.91034544 -0.017884087 1.8150001 101 77 49 255
-0.90434736 -0.017863352 1.8130001 91 67 39 255
-0.9023326 -0.017921502 1.8190001 91 68 38 255
-0.89880836 -0.017950146 1.8220001 90 66 38 255
-0.89428985 -0.017959146 1.8230001 97 73 45 255
-0.88879359 -0.017948499 1.8220001 101 77 49 255
-0.88330615 -0.017937912 1.8210001 99 76 46 255
-0.87782741 -0.01792738 1.8200001 97 74 44 255
-0.87187755 -0.017907057 1.8180001 93 70 40 255
-0.86641848 -0.017896637 1.817 91 70 40 255
-0.85954559 -0.017856726 1.8130001 86 67 38 255
-0.85505414 -0.017866114 1.8140001 84 65 36 255
-0.84915417 -0.017846009 1.812 80 65 36 255
-0.84606314 -0.017885048 1.8160001 79 66 39 255
-0.84063691 -0.017874891 1.8150001 71 59 32 255
-0.83521885 -0.017864788 1.8140001 63 52 29 255
-0.82889307 -0.017835034 1.8110001 52 43 22 255
-0.82349598 -0.017825024 1.8100001 45 40 19 255
-0.82036787 -0.017864306 1.8140001 37 34 14 255
-0.81811917 -0.017923327 1.8200001 34 32 14 255
-0.8144995 -0.017952854 1.8230001 32 30 12 255
-0.81130964 -0.017992271 1.8270001 35 33 15 255
-0.80898261 -0.018051429 1.8330001 38 35 19 255
-0.80881804 -0.018159874 1.8440001 31 28 14 255
-0.73831201 -0.018155899 1.8430001 155 160 148 255
-0.72854191 -0.018038373 1.8310001 170 174 157 255
-0.72278959 -0.018019391 1.8290001 136 140 112 255
-0.71940368 -0.018059555 1.8330001 121 126 95 255
-0.71755618 -0.018139167 1.8410001 124 127 95 255
-0.71334368 -0.018159693 1.8430001 121 124 92 255
-0.70912117 -0.018180257 1.845 122 123 91 255
-0.70374346 -0.018171286 1.8440001 121 124 92 255
-0.69912958 -0.01818205 1.845 122 125 93 255
-0.69112509 -0.018104151 1.8370001 159 163 137 255
-0.6801762 -0.017947422 1.8210001 139 145 120 255
-0.6648646 -0.017672427 1.7930001 170 177 155 255
-0.65117747 -0.017436853 1.7690001 172 181 160 255
-0.64017832 -0.01727028 1.7520001 165 176 155 255
-0.63217312 -0.017182576 1.743 171 180 159 255
-0.62529683 -0.017124461 1.7370001 162 171 150 255
-0.62023962 -0.017115654 1.7360001 170 180 157 255
-0.61376989 -0.017067432 1.7310001 167 177 154 255
-0.60803092 -0.017038945 1.728 162 172 149 255
-0.60195923 -0.017000614 1.7240001 161 171 148 255
-0.59625572 -0.016972158 1.7210001 152 164 139 255
-0.59125596 -0.016963443 1.72 157 169 144 255
-0.58762592 -0.016994199 1.723 72 81 52 255
-0.58330292 -0.01700525 1.7240001 78 85 54 255
-0.57897431 -0.017016318 1.725 144 151 120 255
-0.57397443 -0.017007673 1.7240001 148 153 122 255
-0.56931007 -0.017008912 1.7240001 149 154 123 255
-0.56530052 -0.017029896 1.7260001 144 149 118 255
-0.5616048 -0.01706077 1.7290001 146 151 120 255
-0.55757052 -0.017081792 1.7310001 144 149 118 255
-0.55352527 -0.017102834 1.733 141 146 115 255
-0.54946882 -0.017123891 1.7350001 145 152 121 255
-0.54571521 -0.017154833 1.738 141 146 115 255
-0.5422563 -0.017195664 1.7420001 141 148 117 255
-0.53815818 -0.017216772 1.7440001 140 147 118 255
-0.53374308 -0.01722802 1.7450001 136 143 114 255
-0.52932203 -0.017239282 1.7460001 137 144 113 255
-0.52579653 -0.017280178 1.7500001 137 146 117 255
-0.52165341 -0.01730134 1.7520001 140 147 116 255
-0.51690882 -0.017302763 1.7520001 140 147 116 255
-0.5118714 -0.017294314 1.751 139 146 115 255
-0.50741816 -0.017305635 1.7520001 141 148 117 255
-0.50181115 -0.017277442 1.7490001 140 147 116 255
-0.49735677 -0.017288776 1.7500001 133 140 109 255
-0.49233323 -0.017280355 1.7490001 117 124 93 255
-0.48842973 -0.017311463 1.7520001 125 134 105 255
-0.48340493 -0.017303055 1.751 125 134 105 255
-0.47893164 -0.017314414 1.7520001 129 138 109 255
-0.47391087 -0.017306011 1.751 135 144 115 255
-0.46916282 -0.017307499 1.751 133 143 117 255
-0.46414888 -0.017299104 1.7500001 132 142 116 255
-0.4591395 -0.01729071 1.7490001 127 137 111 255
-0.45439458 -0.017292202 1.7490001 128 138 112 255
-0.44990614 -0.017303588 1.7500001 129 139 113 255
-0.44490254 -0.017295195 1.7490001 134 144 118 255
-0.43914869 -0.017257137 1.7450001 137 147 121 255
-0.43366468 -0.017228959 1.7420001 139 149 123 255
-0.42844233 -0.01721067 1.7400001 138 151 124 255
-0.42371705 -0.01721216 1.7400001 139 151 126 255
-0.41899094 -0.017213648 1.7400001 140 150 124 255
-0.41331163 -0.017175561 1.7360001 138 148 122 255
-0.4078885 -0.01714736 1.733 144 154 128 255
-0.40248087 -0.017119152 1.7300001 139 149 123 255
-0.39754853 -0.017110728 1.7290001 136 146 120 255
-0.39216632 -0.017082505 1.7260001 132 142 116 255
-0.38702399 -0.017064171 1.7240001 133 143 118 255
-0.38233513 -0.017065626 1.7240001 140 150 125 255
-0.37786448 -0.017076978 1.725 150 160 135 255
-0.37252215 -0.017048724 1.7220001 158 170 147 255
-0.36740881 -0.017030358 1.72 144 156 133 255
-0.36188361 -0.01699218 1.7160001 128 140 117 255
-0.35700387 -0.016983699 1.715 109 121 96 255
-0.35253948 -0.016995016 1.7160001 131 141 115 255
-0.34847417 -0.017026139 1.7190001 131 140 111 255
-0.34479153 -0.017077068 1.7240001 105 112 80 255
-0.3410807 -0.017127998 1.7290001 104 111 79 255
-0.33792534 -0.017208647 1.7370001 101 109 74 255
-0.33510903 -0.017309116 1.7470001 76 82 47 255
-0.33185914 -0.017389776 1.7550001 81 86 54 255
-0.32781911 -0.017430799 1.7590001 78 83 51 255
-0.32357267 -0.017461907 1.7620001 76 81 50 255
-0.31876624 -0.017463278 1.7620001 77 81 53 255
-0.31395882 -0.017464636 1.7620001 80 86 61 255
-0.30844855 -0.017426332 1.7580001 49 54 32 255
-0.30313197 -0.017397925 1.7550001 25 27 7 255
-0.29698083 -0.017319929 1.7470001 35 37 19 255
-0.29103971 -0.017251823 1.7400001 33 35 18 255
-0.28562945 -0.017213441 1.7360001 33 35 18 255
-0.28088731 -0.017214704 1.7360001 34 37 23 255
-0.27646244 -0.017235789 1.738 38 41 27 255
-0.2720257 -0.01725686 1.7400001 38 43 29 255
-0.26726991 -0.017258083 1.7400001 29 34 22 255
-0.26190972 -0.017219618 1.7360001 47 54 43 255
-0.25745937 -0.017240647 1.738 77 84 73 255
-0.25241557 -0.017221984 1.7360001 46 52 44 255
-0.2468112 -0.017163619 1.7300001 113 119 112 255
-0.2402592 -0.017035775 1.7170001 97 103 96 255
-0.23446348 -0.016957507 1.7090001 89 95 88 255
-0.22951747 -0.016938755 1.7070001 85 91 84 255
-0.2247133 -0.016929906 1.7060001 83 89 82 255
-0.22004275 -0.016930962 1.7060001 73 79 72 255
-0.21537137 -0.016932001 1.7060001 56 62 54 255
-0.21069925 -0.016933024 1.7060001 39 45 37 255
-0.20590556 -0.0169241 1.705 64 70 62 255
-0.20123458 -0.016925085 1.705 52 58 50 255
-0.19633229 -0.016906196 1.7030001 98 104 96 255
-0.19166529 -0.016907142 1.7030001 86 92 84 255
-0.18666814 -0.016878283 1.7 51 57 49 255
-0.18211497 -0.01688912 1.7010001 48 54 46 255
-0.17724268 -0.016870148 1.6990001 89 95 87 255
-0.17258377 -0.016871015 1.6990001 94 100 92 255
-0.16802302 -0.016881786 1.7 80 86 78 255
-0.16336006 -0.016882613 1.7 66 72 64 255
-0.15869644 -0.01688342 1.7 69 75 68 255
-0.15385097 -0.016864341 1.6980001 72 78 70 255
-0.1491037 -0.016855169 1.697 71 77 69 255
-0.14453158 -0.016865844 1.6980001 63 69 62 255
-0.13987099 -0.016866563 1.6980001 58 64 56 255
-0.13513021 -0.016857328 1.697 85 91 83 255
-0.13047123 -0.016858002 1.697 87 93 85 255
-0.12573761 -0.016848722 1.6960001 65 71 63 255
-0.12108031 -0.016849356 1.6960001 67 74 63 255
-0.11642253 -0.016849965 1.6960001 72 78 70 255
-0.11183016 -0.016860485 1.697 70 76 68 255
-0.10723183 -0.016870985 1.6980001 72 78 70 255
-0.10256714 -0.016871527 1.6980001 74 80 73 255
-0.09784437 -0.016862109 1.697 83 91 83 255
-0.09312667 -0.016852668 1.6960001 81 89 81 255
-0.08841408 -0.016843202 1.6950001 75 84 73 255
-0.08365719 -0.016823776 1.6930001 73 82 71 255
-0.079050928 -0.016834136 1.6940001 73 82 71 255
-0.074351005 -0.016824599 1.6930001 73 80 69 255
-0.069615081 -0.016805099 1.6910001 74 79 68 255
-0.064813018 -0.016765699 1.687 76 79 67 255
-0.059997 -0.016716335 1.682 79 80 68 255
-0.055142373 -0.016647067 1.6750001 78 76 65 255
-0.050175138 -0.016528081 1.6630001 83 79 68 255
-0.045273669 -0.016409066 1.651 79 76 62 255
-0.040610693 -0.016359596 1.646 67 63 49 255
-0.036018893 -0.016329981 1.6430001 60 53 40 255
-0.031596813 -0.016379856 1.6480001 59 53 37 255
-0.02716352 -0.016439646 1.654 75 64 49 255
-0.022587724 -0.016419899 1.6520001 95 84 69 255
-0.01799006 -0.016370308 1.6470001 79 65 48 255
-0.013403473 -0.016300816 1.6400001 83 69 52 255
-0.0088553289 -0.016231298 1.6330001 73 59 40 255
-0.004367027 -0.016241271 1.6340001 69 55 36 255
0.00012733613 -0.016320799 1.6420001 67 53 33 255
0.0046741841 -0.016430121 1.6530001 63 48 28 255
0.67898941 -0.019627584 1.9900001 25 28 16 255
0.68196577 -0.019557199 1.983 23 26 14 255
0.68421096 -0.019467121 1.9740001 21 24 10 255
0.68850356 -0.019436244 1.9710001 22 25 11 255
0.69101983 -0.019356092 1.9630001 20 23 9 255
0.68888164 -0.019147798 1.9420002 19 22 8 255
0.68734467 -0.018959269 1.9230001 21 24 12 255
0.6925478 -0.018958103 1.9230001 20 23 11 255
0.69521129 -0.018887954 1.9160001 16 19 7 255
0.69893384 -0.01884741 1.9120001 18 21 9 255
0.70300347 -0.018816758 1.909 19 22 10 255
0.71521837 -0.019002972 1.9280001 16 21 7 255
0.73015231 -0.019258184 1.9540001 11 19 4 255
0.73845273 -0.019336002 1.9620001 53 62 50 255
0.74376434 -0.019335004 1.9620001 120 129 117 255
0.74449497 -0.019215783 1.95 126 136 125 255
0.74593043 -0.019116314 1.9400001 134 143 132 255
0.74576354 -0.018977471 1.9260001 136 145 134 255
0.74357194 -0.018789411 1.9070001 138 147 136 255
0.740493 -0.018581692 1.886 140 149 138 255
0.73848706 -0.018403577 1.868 143 152 141 255
0.73877287 -0.018284624 1.8560001 141 149 141 255
0.67181993 -0.01629282 1.654 10 15 4 255
0.66731036 -0.016075585 1.6320001 27 28 16 255
0.66597533 -0.015937196 1.618 22 25 11 255
0.66456544 -0.015798848 1.6040001 22 26 9 255
0.66349763 -0.015670387 1.5910001 23 27 10 255
0.6652987 -0.01561091 1.585 23 27 10 255
0.66664582 -0.01554162 1.5780001 24 27 13 255
0.67135781 -0.015551158 1.5790001 24 27 13 255
0.66923004 -0.015403151 1.5640001 31 34 20 255
0.67175889 -0.015363516 1.5600001 29 33 16 255
0.67253405 -0.015284525 1.552 29 33 16 255
0.67588359 -0.015264661 1.5500001 24 28 11 255
0.6774686 -0.015205441 1.544 22 26 9 255
0.68299592 -0.01523489 1.5470001 21 25 8 255
0.68543172 -0.015195441 1.5430001 24 28 11 255
0.69052911 -0.015215117 1.5450001 26 30 13 255
0.6915921 -0.0151462 1.5380001 24 28 11 255
0.69533312 -0.01513641 1.5370001 22 26 9 255
0.70180124 -0.015185746 1.5420001 20 26 9 255
0.71150362 -0.015304063 1.554 20 28 13 255
0.7152859 -0.015294395 1.5530001 7 16 4 255
0.71952814 -0.015294618 1.5530001 130 139 127 255
0.72097611 -0.015235789 1.5470001 157 167 158 255
0.72379994 -0.015206551 1.544 161 170 163 255
0.72425205 -0.015128108 1.536 156 164 157 255
0.72561121 -0.015069406 1.5300001 152 159 155 255
0.72598588 -0.014991046 1.5220001 144 151 148 255
0.72679883 -0.014922576 1.5150001 165 172 169 255
0.7285409 -0.014873847 1.5100001 171 178 174 255
0.7288025 -0.014795609 1.5020001 174 181 177 255
-1.0008477 -0.022099195 1.7520001 23 26 12 255
-1.0283009 -0.022814546 1.8090001 20 21 7 255
-1.0390358 -0.023164099 1.8370001 20 21 9 255
-1.02767 -0.023021944 1.8260001 19 19 9 255
-1.0180525 -0.022917757 1.8180001 19 19 9 255
-0.98566532 -0.022407321 1.7780001 20 16 5 255
-0.98674744 -0.022542981 1.789 25 22 8 255
-0.98941982 -0.022716507 1.8030001 40 30 13 255
-0.99092716 -0.022864887 1.8150001 58 44 27 255
-0.99291617 -0.02302593 1.8280001 72 56 33 255
-0.98889381 -0.023048487 1.83 85 65 41 255
-0.9821775 -0.023008168 1.8270001 85 67 41 255
-0.97387856 -0.022930171 1.8210001 86 70 46 255
-0.96508616 -0.022839699 1.8140001 84 71 48 255
-0.95580828 -0.022736743 1.8060001 86 72 52 255
-0.95026463 -0.022722013 1.8050001 62 48 29 255
-0.94577867 -0.022732552 1.8060001 58 44 25 255
-0.94337535 -0.022793518 1.8110001 49 36 13 255
-0.9399122 -0.022829389 1.8140001 42 29 6 255
-0.93849862 -0.022915676 1.8210001 42 29 6 255
-0.93192416 -0.022876207 1.8180001 50 34 10 255
-0.92639017 -0.022861984 1.817 67 49 23 255
-0.92086583 -0.02284785 1.8160001 105 81 53 255
-0.91585505 -0.022846375 1.8160001 108 84 56 255
-0.90984511 -0.022819823 1.8140001 97 71 42 255
-0.90384972 -0.022793351 1.812 91 66 34 255
-0.89985341 -0.022817275 1.8140001 88 65 33 255
-0.89683598 -0.022866422 1.8180001 91 68 36 255
-0.89183801 -0.022865338 1.8180001 94 71 39 255
-0.88684326 -0.022864323 1.8180001 94 71 39 255
-0.88185167 -0.022863382 1.8180001 95 72 40 255
-0.87686348 -0.022862514 1.8180001 93 70 38 255
-0.86995995 -0.022811418 1.8140001 92 71 41 255
-0.86403489 -0.022785539 1.812 88 66 38 255
-0.85812378 -0.022759734 1.8100001 83 64 35 255
-0.85364056 -0.02277172 1.8110001 79 62 33 255
-0.84868598 -0.022771198 1.8110001 83 68 39 255
-0.84466577 -0.022795888 1.8130001 73 60 31 255
-0.84017402 -0.022808069 1.8140001 67 55 28 255
-0.83475858 -0.022795165 1.8130001 63 50 26 255
-0.82889324 -0.022769753 1.8110001 54 43 20 255
-0.82349616 -0.022756975 1.8100001 45 38 15 255
-0.82127249 -0.022832269 1.8160001 45 38 15 255
-0.81946778 -0.022920193 1.8230001 44 39 18 255
-0.81762707 -0.023008177 1.83 40 37 16 255
-0.81441802 -0.023058498 1.8340001 41 37 20 255
-0.81251329 -0.023146598 1.8410001 41 37 20 255
-0.80925649 -0.023197036 1.845 44 40 24 255
-0.7495234 -0.023215454 1.8460001 152 158 140 255
-0.74088788 -0.023103064 1.8370001 160 166 148 255
-0.73310339 -0.023015866 1.83 173 179 153 255
-0.72774529 -0.023004167 1.8290001 122 128 93 255
-0.72357905 -0.023030244 1.8310001 121 126 84 255
-0.72097278 -0.023106679 1.8370001 118 121 79 255
-0.71833473 -0.023183158 1.8430001 117 120 78 255
-0.7137298 -0.023196789 1.8440001 116 121 71 255
-0.70796716 -0.023172714 1.8420001 115 121 67 255
-0.70145249 -0.023123514 1.8380001 114 119 70 255
-0.69382352 -0.023036603 1.8310001 129 133 97 255
-0.68247092 -0.0228239 1.8140001 161 165 139 255
-0.66747546 -0.022485381 1.7870001 185 192 171 255
-0.65336829 -0.022172023 1.7620001 176 185 164 255
-0.64234179 -0.021959336 1.7450001 156 165 144 255
-0.6336 -0.021822168 1.7340001 183 192 171 255
-0.62673151 -0.021747937 1.728 175 184 163 255
-0.61953592 -0.021661146 1.7210001 170 179 158 255
-0.61416477 -0.021637306 1.7190001 165 173 148 255
-0.60845006 -0.0216009 1.7160001 165 173 148 255
-0.60415918 -0.021614874 1.7170001 157 166 145 255
-0.59846634 -0.021578513 1.7140001 153 162 141 255
-0.59382921 -0.021579949 1.7140001 148 158 135 255
-0.58919215 -0.021581406 1.7140001 157 166 145 255
-0.58591938 -0.021633256 1.7180001 76 84 59 255
-0.5819481 -0.02165995 1.72 122 128 102 255
-0.57695919 -0.021648889 1.7190001 139 146 117 255
-0.57164252 -0.021625252 1.7170001 142 149 120 255
-0.5673272 -0.021639418 1.7180001 145 150 119 255
-0.56366158 -0.021678803 1.7210001 147 152 120 255
-0.55965447 -0.021705613 1.723 143 148 116 255
-0.5546701 -0.021694651 1.7220001 136 141 109 255
-0.55032974 -0.021708904 1.723 143 150 118 255
-0.54661697 -0.021748375 1.7260001 141 148 116 255
-0.54288775 -0.021787871 1.7290001 141 146 115 255
-0.53914189 -0.021827389 1.7320001 139 144 113 255
-0.53445375 -0.021829119 1.7320001 131 138 107 255
-0.53037691 -0.02185607 1.7340001 142 149 118 255
-0.52628887 -0.021883039 1.7360001 135 142 113 255
-0.52339131 -0.02196045 1.7420001 139 146 117 255
-0.51926982 -0.021987461 1.7440001 138 145 116 255
-0.515432 -0.02202709 1.7470001 140 147 118 255
-0.51070046 -0.022028912 1.7470001 141 148 119 255
-0.50625795 -0.022043353 1.748 141 148 117 255
-0.5015226 -0.022045197 1.748 138 145 114 255
-0.49707091 -0.022059662 1.7490001 138 145 116 255
-0.49233159 -0.022061523 1.7490001 114 123 94 255
-0.48759168 -0.022063393 1.7490001 122 131 102 255
-0.482575 -0.022052651 1.748 126 134 108 255
-0.47810981 -0.02206715 1.7490001 128 136 110 255
-0.4733679 -0.022069039 1.7490001 132 142 117 255
-0.46889317 -0.022083553 1.7500001 127 137 112 255
-0.46388191 -0.022072833 1.7490001 134 144 119 255
-0.4588753 -0.022062114 1.748 125 135 109 255
-0.45413309 -0.022064017 1.748 129 142 115 255
-0.44913313 -0.022053303 1.7470001 135 146 117 255
-0.44413775 -0.022042586 1.7460001 140 151 122 255
-0.43864363 -0.022006614 1.743 128 141 114 255
-0.43341401 -0.021983268 1.7410001 139 152 125 255
-0.42868686 -0.021985171 1.7410001 137 149 124 255
-0.42371535 -0.021974444 1.7400001 141 151 126 255
-0.41923001 -0.021988975 1.7410001 143 153 128 255
-0.4133099 -0.021927718 1.7360001 143 153 128 255
-0.40765154 -0.021879084 1.7320001 141 151 126 255
-0.40224656 -0.021843066 1.7290001 133 143 118 255
-0.39708704 -0.021819677 1.7270001 135 145 120 255
-0.39216462 -0.021808911 1.7260001 138 148 123 255
-0.38702232 -0.021785505 1.7240001 144 154 129 255
-0.3821117 -0.021774724 1.723 155 165 140 255
-0.37698665 -0.021751298 1.7210001 155 167 142 255
-0.37165517 -0.021715218 1.7180001 161 171 146 255
-0.36655271 -0.021691769 1.7160001 128 138 113 255
-0.36146027 -0.021668309 1.7140001 112 122 96 255
-0.35658592 -0.021657478 1.7130001 111 122 93 255
-0.35192153 -0.021659279 1.7130001 131 142 113 255
-0.34766164 -0.021686362 1.715 155 164 133 255
-0.34378996 -0.02173873 1.7190001 103 112 81 255
-0.34048727 -0.021829039 1.7260001 103 110 78 255
