ply
format ascii 1.0
comment PCL generated
element vertex 990
property float x
property float y
property float z
property uchar red
property uchar green
property uchar blue
property uchar alpha
element camera 0
property float view_px
property float view_py
property float view_pz
property float x_axisx
property float x_axisy
property float x_axisz
property float y_axisx
property float y_axisy
property float y_axisz
property float z_axisx
property float z_axisy
property float z_axisz
property float focal
property float scalex
property float scaley
property float centerx
property float centery
property int viewportx
property int viewporty
property float k1
property float k2
end_header
0.74263412 0.57082385 1.626 187 191 193 255
0.7407487 0.56598604 1.6120001 191 194 198 255
0.7401756 0.56220227 1.6010001 189 192 196 255
0.7386145 0.55771703 1.5880001 192 195 199 255
0.73979199 0.55533993 1.5810001 192 195 199 255
0.73810971 0.55085629 1.5680001 191 194 198 255
0.73825258 0.54777867 1.559 191 194 198 255
0.7378726 0.54435068 1.549 194 197 201 255
0.73696142 0.54057223 1.5380001 191 194 200 255
0.73599237 0.53679454 1.5270001 193 196 202 255
0.73593527 0.53372085 1.5180001 193 194 198 255
0.73680687 0.53135145 1.511 195 196 200 255
0.7376433 0.52898335 1.5040001 194 195 199 255
0.7588383 0.69032681 1.9870001 173 176 180 255
0.76084054 0.68724048 1.978 174 177 181 255
0.76085871 0.68241799 1.9640001 177 181 183 255
0.75690067 0.67412156 1.9400001 176 180 182 255
0.75713497 0.66964829 1.927 177 181 181 255
0.75769573 0.66552353 1.9150001 180 182 182 255
0.75779456 0.66105223 1.9020001 179 183 183 255
0.75621951 0.65519154 1.8850001 180 184 184 255
0.75334156 0.64828879 1.8650001 181 185 185 255
0.75360954 0.64416766 1.853 179 185 187 255
0.75463271 0.64074284 1.8430001 178 184 186 255
0.75519145 0.63697159 1.8320001 178 184 186 255
0.7544471 0.63215804 1.8180001 178 182 184 255
0.75279278 0.62664992 1.802 181 185 187 255
0.75315541 0.62288141 1.7910001 181 184 188 255
0.7530368 0.61876613 1.779 181 184 188 255
0.75370687 0.61534745 1.7690001 183 186 190 255
0.75218058 0.61019057 1.7540001 183 186 190 255
0.74971086 0.60433841 1.7370001 180 184 186 255
0.74758434 0.59883487 1.7210001 185 189 191 255
0.74755806 0.59507185 1.71 184 187 191 255
0.74835384 0.59200597 1.7010001 186 189 193 255
0.74733204 0.58754885 1.6880001 184 187 191 255
0.74802327 0.58448505 1.6790001 185 188 192 255
0.74732286 0.58037776 1.6670001 186 190 192 255
0.74565703 0.57557499 1.6530001 190 192 194 255
0.74437046 0.57112122 1.6400001 188 192 194 255
0.74484164 0.56806123 1.631 188 192 194 255
0.74204993 0.56256407 1.6150001 191 195 197 255
0.74009705 0.55776411 1.6010001 191 195 197 255
0.7376045 0.55261624 1.5860001 192 196 198 255
0.74064618 0.55165064 1.5830001 193 197 199 255
0.73943895 0.5475499 1.5710001 193 197 199 255
0.74006224 0.54484427 1.5630001 193 197 199 255
0.73921573 0.54109389 1.552 193 195 197 255
0.73831153 0.53734428 1.5410001 193 194 198 255
0.73638564 0.53289807 1.5280001 195 196 200 255
0.73536026 0.52914995 1.5170001 194 195 199 255
0.73573983 0.5264492 1.5090001 194 195 199 255
0.73558825 0.52340078 1.5000001 195 196 200 255
0.75879914 0.68487233 1.9870001 176 179 183 255
0.76156938 0.68249869 1.9800001 176 180 182 255
0.76081699 0.67702383 1.9640001 178 182 184 255
0.75880849 0.67051554 1.9450001 177 181 181 255
0.75787669 0.6650424 1.9290001 178 180 180 255
0.75804597 0.6606043 1.9160001 181 183 183 255
0.75734949 0.6554777 1.9010001 180 184 184 255
0.75456703 0.64862764 1.881 179 183 183 255
0.75329256 0.64315778 1.8650001 180 184 184 255
0.75274587 0.6383785 1.8510001 179 183 185 255
0.75294346 0.63428986 1.8390001 179 183 183 255
0.75348961 0.63054711 1.8280001 180 184 184 255
0.75231802 0.62542552 1.8130001 181 185 187 255
0.75023091 0.61961484 1.7960001 181 185 187 255
0.75267804 0.61760002 1.7900001 182 186 188 255
0.75213218 0.61317122 1.7770001 185 187 189 255
0.75407338 0.6108138 1.7700001 186 188 190 255
0.74997562 0.60362583 1.7490001 185 187 189 255
0.74705929 0.59747368 1.7310001 187 189 191 255
0.74578381 0.59270298 1.7170001 188 190 192 255
0.74661922 0.58965898 1.7080001 186 190 192 255
0.7478478 0.58696145 1.7 185 188 192 255
0.7463792 0.58219332 1.6860001 185 188 192 255
0.74661785 0.57880729 1.6760001 186 189 193 255
0.74590784 0.57473141 1.664 187 191 193 255
0.74558544 0.57100189 1.6530001 191 193 195 255
0.7442975 0.56658232 1.6400001 189 193 195 255
0.74431062 0.56320012 1.6300001 188 192 194 255
0.74197441 0.55809104 1.6150001 191 195 197 255
0.74002022 0.5533281 1.6010001 188 194 196 255
0.73845655 0.54891139 1.5880001 191 195 197 255
0.74103421 0.54760683 1.5840001 191 195 197 255
0.74171096 0.54492074 1.5760001 192 196 198 255
0.74139982 0.5415442 1.5660001 191 195 197 255
0.74151278 0.53851438 1.557 193 195 197 255
0.73966306 0.53410202 1.544 191 193 195 255
0.73918992 0.53072816 1.534 196 198 200 255
0.73672605 0.52597111 1.5200001 193 195 197 255
0.73760003 0.52363712 1.5130001 194 196 198 255
0.73794836 0.52095819 1.5050001 194 196 198 255
0.75823098 0.68382818 2 172 176 178 255
0.75914317 0.67976153 1.988 173 179 181 255
0.75960726 0.67535406 1.9750001 173 177 179 255
0.76116413 0.67197341 1.9650002 177 181 183 255
0.75876707 0.66517389 1.9450001 175 179 179 255
0.75704831 0.65905917 1.927 176 180 180 255
0.75641954 0.65397125 1.9120001 181 183 183 255
0.75491405 0.64820021 1.8950001 179 183 183 255
0.75452083 0.64345616 1.881 179 183 185 255
0.75324517 0.63802874 1.8650001 181 185 185 255
0.75351048 0.63397074 1.853 179 183 185 255
0.75534976 0.63128227 1.845 179 183 185 255
0.75467479 0.62654197 1.8310001 181 185 185 255
0.75351024 0.62146026 1.8160001 183 185 185 255
0.7510125 0.61535263 1.7980001 182 186 188 255
0.75262272 0.6126684 1.7900001 183 187 189 255
0.75334525 0.60930073 1.7800001 183 185 187 255
0.75401527 0.60593414 1.7700001 184 186 188 255
0.75077409 0.5994873 1.751 185 187 189 255
0.74699908 0.59269851 1.7310001 187 189 191 255
0.74485356 0.58727986 1.715 187 189 191 255
0.74611914 0.58460164 1.7070001 187 191 193 255
0.7477833 0.58226705 1.7 185 189 191 255
0.74808401 0.57890612 1.6900001 185 189 191 255
0.74699616 0.5745185 1.677 188 192 194 255
0.74628752 0.57047421 1.6650001 186 190 192 255
0.74551558 0.56643087 1.6530001 191 193 195 255
0.74468011 0.5623883 1.641 189 193 195 255
0.7419551 0.55697566 1.6250001 188 192 194 255
0.73960376 0.55190623 1.6100001 190 194 196 255
0.73809648 0.5475229 1.5970001 191 195 197 255
0.73838007 0.54451191 1.5880001 192 196 198 255
0.74048823 0.54287374 1.5830001 192 196 198 255
0.74163121 0.54055107 1.5760001 191 195 197 255
0.7413187 0.53720045 1.5660001 193 195 197 255
0.74095398 0.53385085 1.5560001 193 195 197 255
0.73862112 0.52912956 1.5420001 194 196 198 255
0.73910445 0.52646798 1.534 192 194 196 255
0.73663932 0.52174801 1.5200001 191 195 197 255
0.73848647 0.5201183 1.5150001 192 196 198 255
0.73834866 0.51711655 1.506 195 197 199 255
0.73964381 0.51514614 1.5000001 193 196 200 255
0.75681585 0.67227274 1.9820001 172 178 180 255
0.75687748 0.66756016 1.9680001 176 180 182 255
0.75957578 0.66522306 1.9610001 175 179 179 255
0.75833702 0.65949482 1.9440001 175 179 179 255
0.75700712 0.65376735 1.927 176 180 180 255
0.75558603 0.64804065 1.9100001 178 182 182 255
0.75526887 0.64333278 1.8960001 179 181 183 255
0.75287163 0.63692909 1.8770001 179 181 183 255
0.75239134 0.63222283 1.863 184 186 188 255
0.75102347 0.62683874 1.8470001 182 184 186 255
0.75284487 0.62417072 1.8390001 182 184 186 255
0.75050336 0.61810952 1.8210001 183 185 187 255
0.75013983 0.61374629 1.8080001 182 184 186 255
0.74803656 0.60802603 1.7910001 183 185 187 255
0.75172818 0.60705966 1.7880001 186 188 190 255
0.75202048 0.60337842 1.7770001 185 187 189 255
0.75353283 0.60071695 1.7690001 186 188 190 255
0.75114518 0.59500009 1.7520001 185 187 189 255
0.74823493 0.58894426 1.7340001 188 190 192 255
0.74696511 0.58424765 1.72 186 188 190 255
0.74693191 0.58057094 1.7090001 185 189 191 255
0.74860013 0.57825416 1.702 185 189 191 255
0.74846244 0.5745796 1.6910001 187 191 193 255
0.74648517 0.56954658 1.6760001 188 192 194 255
0.74577242 0.56553382 1.664 187 191 193 255
0.74409437 0.56084222 1.6500001 189 193 195 255
0.74279553 0.55649108 1.6370001 189 193 195 255
0.73960167 0.55078089 1.6200001 188 192 194 255
0.73723495 0.54575098 1.605 191 195 197 255
0.73756099 0.54276216 1.5960001 192 196 198 255
0.73784047 0.53977442 1.5870001 191 195 197 255
0.73994416 0.53814834 1.582 190 194 194 255
0.74108273 0.53584331 1.575 191 195 195 255
0.74029255 0.5321784 1.5640001 191 195 195 255
0.73896843 0.52817404 1.552 193 195 195 255
0.73710209 0.52383006 1.539 194 196 196 255
0.73902076 0.52221 1.534 190 194 194 255
0.73849267 0.51888907 1.524 194 198 198 255
0.74034941 0.5172717 1.5190001 192 196 196 255
0.73973113 0.51395285 1.5090001 194 198 200 255
0.73955393 0.51097554 1.5000001 193 197 199 255
0.75487179 0.66515511 1.9770001 174 180 182 255
0.75338018 0.65913355 1.9590001 173 180 179 255
0.75605243 0.65681416 1.9520001 172 179 178 255
0.7559579 0.6521405 1.9380001 179 183 183 255
0.75657445 0.64814079 1.9260001 176 180 180 255
0.75633621 0.64346904 1.9120001 180 184 184 255
0.75522673 0.63812512 1.8960001 181 183 185 255
0.7528283 0.6317721 1.8770001 182 184 186 255
0.75234687 0.62710297 1.863 182 184 186 255
0.75260413 0.62310797 1.8510001 182 184 186 255
0.75279772 0.61911398 1.8390001 183 185 187 255
0.7504552 0.61310089 1.8210001 181 185 187 255
0.7500903 0.60877192 1.8080001 184 186 188 255
0.74923879 0.6041072 1.794 186 188 190 255
0.75083518 0.60146391 1.7860001 186 188 190 255
0.75027436 0.59713781 1.7730001 185 187 189 255
0.75049627 0.59348625 1.7620001 184 186 186 255
0.74894547 0.58848822 1.7470001 189 191 191 255
0.74645174 0.5828172 1.7300001 187 189 189 255
0.74560386 0.57849449 1.7170001 188 190 192 255
0.74687201 0.57585734 1.7090001 185 189 191 255
0.74765921 0.57288432 1.7 185 189 191 255
0.74751455 0.56923848 1.6890001 180 184 186 255
0.74642128 0.56491941 1.6760001 189 193 195 255
0.74660349 0.56161243 1.6660001 188 192 194 255
0.74538064 0.55729502 1.6530001 189 193 195 255
0.74408895 0.55297846 1.6400001 189 193 195 255
0.74044567 0.54697639 1.6220001 192 196 198 255
0.73900211 0.54266113 1.6090001 190 194 196 255
0.73887581 0.53935844 1.5990001 191 195 195 255
0.73962694 0.53673136 1.5910001 190 194 194 255
0.74033719 0.53410554 1.5830001 189 193 193 255
0.74006552 0.53080589 1.5730001 190 194 194 255
0.73832178 0.52649468 1.5600001 191 195 195 255
0.73746121 0.52285922 1.549 192 194 194 255
0.73606402 0.51888698 1.5370001 194 196 196 255
0.73893881 0.51795429 1.534 193 197 199 255
0.73889381 0.51499707 1.5250001 191 195 195 255
0.74172628 0.51406741 1.5220001 193 197 197 255
0.74013466 0.51009905 1.5100001 192 196 198 255
0.7399587 0.50714499 1.501 192 196 198 255
0.75812972 0.66737765 2 174 180 182 255
0.75522017 0.66006863 1.978 173 179 181 255
0.75373012 0.65409517 1.96 174 181 180 255
0.75485456 0.65045869 1.9490001 178 182 182 255
0.75436068 0.64548838 1.9340001 178 182 182 255
0.75535768 0.64185387 1.9230001 178 182 182 255
0.75352776 0.63588393 1.9050001 179 183 183 255
0.75279611 0.63091618 1.8900001 178 182 182 255
0.75118226 0.62528169 1.8730001 181 183 183 255
0.75149614 0.62131709 1.8610001 182 184 186 255
0.74890059 0.61501646 1.8420001 180 184 186 255
0.74865878 0.61071992 1.8290001 181 185 187 255
0.74628752 0.60475463 1.8110001 183 187 189 255
0.74838299 0.60246354 1.8040001 182 186 188 255
0.74835438 0.59850371 1.7920001 183 187 189 255
0.74826223 0.59454483 1.7800001 185 187 189 255
0.74726033 0.58991879 1.766 186 188 188 255
0.74703568 0.58596182 1.7540001 188 190 190 255
0.74589032 0.58133751 1.7400001 187 189 189 255
0.74553329 0.57738233 1.728 188 190 190 255
0.7468496 0.57476461 1.72 187 189 191 255
0.7476877 0.57181394 1.7110001 184 188 190 255
0.74803925 0.56853014 1.7010001 183 187 189 255
0.74701089 0.56424457 1.6880001 184 188 190 255
0.74635881 0.56029403 1.6760001 189 193 195 255
0.7460916 0.55667877 1.6650001 189 193 195 255
0.74396294 0.55172688 1.6500001 190 194 196 255
0.74402255 0.54844779 1.6400001 191 195 197 255
0.74357349 0.54483521 1.6290001 190 194 196 255
0.74260741 0.54088897 1.6170001 189 193 195 255
0.74296397 0.53794718 1.608 190 194 196 255
0.74048501 0.53299892 1.5930001 191 195 195 255
0.74073172 0.5300591 1.5840001 191 195 195 255
0.73999095 0.52645081 1.5730001 193 197 197 255
0.73919243 0.52284342 1.562 192 196 196 255
0.73833621 0.51923692 1.5510001 191 195 195 255
0.73742211 0.5156312 1.5400001 191 195 195 255
0.73934031 0.51403558 1.5350001 191 195 197 255
0.73978102 0.51143652 1.5270001 193 197 199 255
0.74261731 0.5105136 1.524 192 196 198 255
0.74103004 0.5065769 1.5120001 192 196 198 255
0.74036521 0.50331116 1.5020001 193 197 199 255
0.7528972 0.65266162 1.9720001 176 182 184 255
0.7521587 0.64739811 1.9560001 174 181 180 255
0.75443274 0.64478344 1.9480001 180 184 184 255
0.75276476 0.63885975 1.9300001 178 182 182 255
0.7513929 0.63326794 1.9130001 178 183 180 255
0.75111639 0.62866998 1.899 179 184 181 255
0.75156194 0.62473512 1.8870001 179 183 183 255
0.75234491 0.62113249 1.876 182 184 184 255
0.75145441 0.61620629 1.8610001 180 184 184 255
0.74967086 0.61061871 1.8440001 181 185 187 255
0.7494334 0.60635656 1.8310001 182 186 188 255
0.74830264 0.60143286 1.8160001 183 187 189 255
0.74875122 0.59783494 1.8050001 184 188 190 255
0.74830657 0.59357554 1.7920001 186 190 192 255
0.74779284 0.58931702 1.779 186 190 190 255
0.74636382 0.58439672 1.7640001 186 190 190 255
0.74485475 0.57947725 1.7490001 185 189 189 255
0.7445516 0.57555264 1.7370001 187 189 189 255
0.74461627 0.57196027 1.7260001 187 191 191 255
0.74549156 0.56903177 1.7170001 188 190 192 255
0.74588299 0.56577283 1.7070001 188 192 194 255
0.74578238 0.5621835 1.6960001 187 191 193 255
0.74562383 0.55859506 1.6850001 190 194 196 255
0.74496216 0.55467606 1.6730001 190 194 196 255
0.74423712 0.55075788 1.6610001 189 193 195 255
0.74435037 0.54750383 1.651 190 194 196 255
0.74441141 0.54425079 1.641 190 194 196 255
0.74442023 0.54099876 1.631 191 195 197 255
0.74345839 0.53708422 1.6190001 192 194 196 255
0.74243319 0.53317052 1.6070001 191 195 197 255
0.73995024 0.52826208 1.5920001 191 195 197 255
0.73925745 0.52468169 1.5810001 191 195 197 255
0.73850697 0.52110213 1.5700001 192 196 196 255
0.73911828 0.51851928 1.562 191 195 197 255
0.73968852 0.51593757 1.554 192 196 196 255
0.73878157 0.51236087 1.5430001 191 195 195 255
0.74070644 0.51077753 1.5380001 193 195 197 255
0.73970079 0.50720268 1.5270001 192 196 198 255
0.74156082 0.50562191 1.5220001 192 196 198 255
0.73996669 0.50171679 1.5100001 192 196 198 255
0.74077338 0.49947384 1.503 192 196 198 255
0.74904859 0.64397615 1.9620001 176 180 182 255
0.75020421 0.6403963 1.9510001 178 182 182 255
0.75130135 0.63681734 1.9400001 178 182 182 255
0.75390041 0.6345526 1.9330001 177 181 181 255
0.75017917 0.62703639 1.9100001 180 184 184 255
0.7483111 0.62116224 1.8920001 181 184 181 255
0.74873626 0.61725897 1.8800001 181 185 185 255
0.75070161 0.61466998 1.8720001 182 186 186 255
0.7506066 0.61044031 1.8590001 183 187 187 255
0.74922287 0.60522634 1.8430001 183 187 189 255
0.74857211 0.60067016 1.8290001 182 186 188 255
0.74743479 0.59578639 1.8140001 183 187 187 255
0.74704689 0.59156024 1.8010001 183 187 189 255
0.74826008 0.58864897 1.7920001 186 190 190 255
0.74816549 0.58475333 1.7800001 186 190 190 255
0.74589193 0.57921588 1.7630001 185 189 189 255
0.74565643 0.57532197 1.751 185 189 189 255
0.74578625 0.57175761 1.7400001 186 190 190 255
0.74672067 0.56885141 1.7310001 187 191 191 255
0.7445693 0.56364578 1.715 186 190 192 255
0.74276924 0.5587694 1.7 188 192 194 255
0.74352723 0.55586612 1.6910001 190 194 196 255
0.74512351 0.55362147 1.6840001 188 192 194 255
0.74445766 0.549734 1.6720001 188 192 194 255
0.74417663 0.54617625 1.6610001 190 194 196 255
0.74248528 0.54163283 1.6470001 190 194 196 255
0.74344093 0.53906345 1.6390001 190 194 196 255
0.74298644 0.53550845 1.628 191 195 197 255
0.74339241 0.53261238 1.6190001 191 193 195 255
0.74190396 0.5284012 1.6060001 189 193 195 255
0.73988187 0.52386177 1.5920001 190 194 196 255
0.73918772 0.52031016 1.5810001 192 196 198 255
0.73890615 0.51708853 1.5710001 191 195 197 255
0.7399919 0.5148555 1.5640001 191 195 197 255
0.74009037 0.51196516 1.5550001 191 195 197 255
0.74109989 0.50973445 1.5480001 192 196 196 255
0.74159241 0.50717556 1.5400001 193 195 195 255
0.74107552 0.50395912 1.5300001 195 197 197 255
0.74050641 0.50074345 1.5200001 194 196 198 255
0.7393952 0.49719927 1.5090001 191 195 197 255
0.74069035 0.49530354 1.503 193 197 199 255
0.7459439 0.6314702 1.9400001 175 182 181 255
0.74933326 0.62987316 1.9350001 180 184 184 255
0.75074732 0.62664962 1.9250001 179 184 181 255
0.74739581 0.61952066 1.9030001 180 185 182 255
0.74590296 0.61402005 1.886 181 184 181 255
0.7455138 0.60949707 1.8720001 180 184 184 255
0.7486589 0.60790539 1.8670001 181 185 185 255
0.7481451 0.60338444 1.853 182 186 186 255
0.74958938 0.60049254 1.8440001 182 186 186 255
0.7493493 0.59629905 1.8310001 183 187 187 255
0.74780428 0.59112942 1.8150001 185 189 189 255
0.74617362 0.58596057 1.7990001 182 186 188 255
0.74779749 0.5833984 1.7910001 184 188 190 255
0.74811918 0.57986009 1.7800001 185 189 189 255
0.74669063 0.5750196 1.7650001 184 188 188 255
0.74560773 0.57050574 1.751 186 190 190 255
0.74659342 0.56762195 1.7420001 186 190 190 255
0.74580663 0.56343567 1.7290001 185 189 191 255
0.74234617 0.55729485 1.71 189 193 195 255
0.74096805 0.5527842 1.6960001 189 193 195 255
0.74127388 0.54957813 1.6860001 188 192 192 255
0.74241239 0.54702508 1.6780001 188 192 192 255
0.74306428 0.54414713 1.669 191 195 195 255
0.74322158 0.54094416 1.659 190 194 194 255
0.74242508 0.53709012 1.6470001 188 192 192 255
0.74201858 0.53356296 1.636 190 194 194 255
0.74155444 0.53003663 1.6250001 191 195 197 255
0.74195063 0.52716368 1.6160001 189 193 195 255
0.74137634 0.52363932 1.605 191 195 197 255
0.74027961 0.51978952 1.5930001 190 194 196 255
0.73958695 0.51626682 1.582 191 195 195 255
0.73977721 0.51339781 1.5730001 192 196 198 255
0.74039394 0.51085615 1.5650001 191 195 195 255
0.74096966 0.50831562 1.557 193 195 195 255
0.74246192 0.50642931 1.5510001 193 195 195 255
0.74296141 0.50389111 1.5430001 194 196 196 255
0.74196708 0.50037414 1.5320001 194 196 196 255
0.74042803 0.4965314 1.5200001 192 194 196 255
0.7398054 0.49334273 1.5100001 193 197 199 255
0.74060893 0.49113524 1.503 192 196 198 255
0.74659216 0.62231243 1.9280001 179 183 183 255
0.74798578 0.61911494 1.9180001 179 184 181 255
0.74422121 0.61172205 1.8950001 179 184 181 255
0.74191433 0.60562104 1.876 180 185 182 255
0.74269128 0.60210359 1.8650001 181 185 185 255
0.74621671 0.60084701 1.8610001 182 186 186 255
0.74689651 0.59733176 1.8500001 185 189 189 255
0.74792457 0.59414023 1.84 185 189 189 255
0.74562615 0.58836645 1.8220001 183 187 187 255
0.74446714 0.58356214 1.807 183 187 187 255
0.74364287 0.57908177 1.7930001 185 189 189 255
0.74608386 0.57718611 1.7870001 185 189 189 255
0.74555266 0.57303047 1.774 186 190 192 255
0.7436834 0.56790668 1.7580001 187 191 193 255
0.74385732 0.564399 1.7470001 187 191 193 255
0.74611616 0.56250769 1.7410001 188 192 194 255
0.74532545 0.55835575 1.728 186 190 192 255
0.74316353 0.55323529 1.7120001 187 191 193 255
0.7413528 0.54843861 1.697 189 193 195 255
0.74078089 0.54461235 1.6850001 190 194 194 255
0.74103028 0.54143333 1.6750001 188 192 192 255
0.74167269 0.53857875 1.6660001 190 194 194 255
0.74316412 0.53637165 1.659 188 192 192 255
0.74146479 0.53190249 1.6450001 188 192 192 255
0.7410515 0.52840412 1.6340001 190 194 194 255
0.74194932 0.52587688 1.626 190 194 194 255
0.74372423 0.52399772 1.6200001 190 194 196 255
0.74500728 0.52179629 1.613 190 194 196 255
0.74346685 0.51765484 1.6 191 195 197 255
0.74139017 0.51319063 1.5860001 190 194 194 255
0.74017942 0.50937426 1.5740001 190 194 194 255
0.74079746 0.50685322 1.5660001 191 195 195 255
0.74185032 0.50465703 1.559 193 195 195 255
0.7438252 0.50310946 1.554 193 195 195 255
0.74288738 0.49962062 1.5430001 193 195 195 255
0.74237603 0.49645638 1.5330001 193 195 195 255
0.74035126 0.49232134 1.5200001 191 195 197 255
0.74168676 0.49045449 1.5140001 192 196 198 255
0.74151468 0.48761705 1.5050001 191 195 197 255
0.74588668 0.62084395 1.9400001 176 183 182 255
0.74346524 0.61447132 1.9200001 181 186 183 255
0.74171591 0.6087395 1.9020001 179 184 181 255
0.73987001 0.60300845 1.8840001 179 184 181 255
0.73950917 0.59855866 1.8700001 180 185 182 255
0.74026823 0.59506989 1.8590001 182 186 186 255
0.74322677 0.58937603 1.8410001 183 187 187 255
0.74382252 0.58589041 1.83 184 188 188 255
0.74313235 0.58144528 1.8160001 184 188 188 255
0.7415238 0.56147444 1.7530001 188 192 194 255
0.74168271 0.55799544 1.7420001 186 190 192 255
0.74181175 0.54756433 1.7090001 188 194 196 255
0.73897052 0.5386923 1.6810001 188 194 196 255
0.74206311 0.53431046 1.6670001 189 193 193 255
0.74310797 0.53180081 1.659 189 193 193 255
0.74185824 0.52768934 1.646 188 192 192 255
0.74099296 0.52389926 1.6340001 188 192 192 255
0.74188936 0.52139264 1.626 189 193 193 255
0.74274462 0.51888716 1.618 190 194 194 255
0.7440207 0.51670355 1.6110001 191 195 195 255
0.74154431 0.5119549 1.5960001 190 194 194 255
0.73992252 0.50784844 1.5830001 187 191 191 255
0.74058288 0.50534689 1.575 189 193 193 255
0.74214834 0.50348836 1.5690001 190 194 194 255
0.74368399 0.50163102 1.5630001 194 196 196 255
0.74423271 0.49913302 1.5550001 192 194 194 255
0.74329621 0.49567303 1.544 192 194 194 255
0.74181783 0.4918927 1.5320001 190 194 196 255
0.74076313 0.48843426 1.521 192 196 198 255
0.74161005 0.48626134 1.5140001 194 198 200 255
0.74094391 0.48312595 1.5040001 192 196 198 255
0.73983997 0.59784734 1.8840001 178 185 182 255
0.7410323 0.59060955 1.8610001 182 187 184 255
0.74134785 0.57896668 1.8240001 186 190 190 255
0.74145842 0.57519346 1.812 185 189 189 255
0.74138933 0.51971412 1.6350001 190 194 194 255
0.7422871 0.51722813 1.6270001 189 193 193 255
0.7431438 0.51474327 1.6190001 190 194 194 255
0.74008799 0.5065968 1.5930001 189 193 193 255
0.73892409 0.50284266 1.5810001 190 194 194 255
0.73910725 0.50004357 1.572 191 195 195 255
0.74113578 0.49851805 1.567 193 195 195 255
0.74123704 0.49572122 1.5580001 194 196 196 255
0.74224877 0.49356177 1.5510001 189 193 193 255
0.74081838 0.48981217 1.539 190 194 194 255
0.74077731 0.48701829 1.5300001 190 194 194 255
0.74020267 0.48390695 1.5200001 192 196 198 255
0.74202484 0.48238862 1.5150001 191 197 199 255
0.74086738 0.47896078 1.5040001 189 196 195 255
0.73994899 0.51116884 1.6220001 189 193 193 255
0.74079037 0.50870442 1.6140001 190 195 192 255
0.73863339 0.50125688 1.59 190 195 192 255
0.7383945 0.49816486 1.58 190 194 194 255
0.73951393 0.49601987 1.5730001 190 194 194 255
0.74012482 0.49356058 1.5650001 194 196 196 255
0.73974335 0.4904716 1.5550001 190 192 192 255
0.7402668 0.48801437 1.5470001 190 194 194 255
0.74074924 0.48555827 1.539 190 194 194 255
0.74070674 0.4827877 1.5300001 191 195 195 255
0.74110454 0.48033372 1.5220001 193 197 199 255
0.7399922 0.47693381 1.511 190 197 196 255
0.73882234 0.47353479 1.5000001 194 198 198 255
0.7408058 0.50732547 1.6240001 189 193 193 255
0.74020302 0.49505705 1.5840001 191 195 195 255
0.73992181 0.49199232 1.5740001 191 195 195 255
0.73864257 0.48830321 1.562 192 196 196 255
0.7377758 0.48492762 1.5510001 190 194 194 255
0.73780811 0.48217815 1.5420001 190 194 194 255
0.73779392 0.47942972 1.5330001 191 195 195 255
0.74015355 0.47824612 1.529 191 195 195 255
0.74054712 0.47581267 1.521 190 194 194 255
0.74041015 0.47306743 1.5120001 191 195 195 255
0.73983932 0.50223422 1.6220001 190 195 192 255
0.7401436 0.49068972 1.5840001 190 194 194 255
0.74033111 0.48796093 1.575 189 193 193 255
0.73905355 0.48430359 1.5630001 192 196 196 255
0.73818815 0.48095688 1.552 189 193 193 255
0.73726511 0.47761104 1.5410001 191 195 195 255
0.73772794 0.47519591 1.5330001 190 194 194 255
0.74008596 0.47402191 1.529 191 195 195 255
0.74047816 0.47160906 1.521 190 194 194 255
0.74033976 0.46888715 1.5120001 193 197 197 255
0.73867762 0.46523577 1.5000001 191 195 195 255
0.7396183 0.48601693 1.5830001 190 194 194 255
0.73933172 0.48300448 1.5730001 189 193 193 255
0.73852009 0.47968584 1.562 191 195 195 255
0.73860192 0.47698233 1.5530001 190 194 194 255
0.73815882 0.47397259 1.5430001 191 196 193 255
0.73862576 0.47157818 1.5350001 191 196 193 255
0.74001986 0.46979928 1.529 191 196 193 255
0.73943716 0.46679252 1.5190001 190 195 192 255
0.74076056 0.46501601 1.5130001 192 196 196 255
0.73959237 0.46170366 1.5020001 191 195 195 255
0.74011213 0.4906199 1.613 188 195 192 255
0.73654664 0.48251307 1.5860001 191 196 193 255
0.73675859 0.47982991 1.577 191 195 195 255
0.73739398 0.47745204 1.5690001 191 195 195 255
0.73846102 0.47537956 1.562 190 194 194 255
0.7394926 0.47330818 1.5550001 190 195 192 255
0.74048877 0.47123793 1.5480001 190 195 192 255
0.74048728 0.46855995 1.539 191 196 193 255
0.73995531 0.46557844 1.529 190 195 192 255
0.73937118 0.46259773 1.5190001 191 195 195 255
0.73971403 0.46022716 1.511 190 194 194 255
0.74001604 0.45785761 1.503 191 195 195 255
0.73623633 0.47518507 1.5760001 191 196 193 255
0.73780745 0.47343093 1.5700001 190 195 192 255
0.7384032 0.47107482 1.562 188 195 192 255
0.73990893 0.46932304 1.5560001 188 195 191 255
0.74138486 0.46757242 1.5500001 190 197 193 255
0.74090648 0.46461624 1.5400001 188 193 190 255
0.740376 0.46166092 1.5300001 190 195 192 255
0.73930663 0.45840466 1.5190001 191 196 193 255
0.73769015 0.45484746 1.5070001 191 196 193 255
0.7382977 0.47497585 1.59 188 193 190 255
0.73758405 0.47174221 1.5790001 189 194 191 255
0.73869216 0.46970454 1.572 188 193 190 255
0.73881954 0.46707049 1.5630001 188 195 192 255
0.74080205 0.46563274 1.5580001 187 194 190 255
0.74132562 0.46329957 1.5500001 187 194 190 255
0.74036479 0.46007061 1.539 186 193 190 255
0.73983026 0.45714149 1.529 189 194 191 255
0.7397303 0.45451218 1.5200001 189 194 191 255
0.73909432 0.45158485 1.5100001 189 194 191 255
0.73889846 0.44895744 1.501 191 196 193 255
0.73917502 0.4711929 1.5920001 189 194 191 255
0.74033397 0.46917236 1.585 189 193 193 255
0.7405178 0.46656084 1.5760001 189 194 191 255
0.74018228 0.46365422 1.5660001 190 195 192 255
0.74074543 0.46134073 1.5580001 189 194 191 255
0.7422241 0.45962057 1.552 187 194 190 255
0.74174875 0.45671687 1.5420001 190 195 192 255
0.74073756 0.45351779 1.531 191 196 193 255
0.73918194 0.45002326 1.5190001 188 195 192 255
0.73903137 0.44741839 1.5100001 188 195 192 255
0.73883414 0.44481438 1.501 190 194 194 255
0.74005347 0.46740034 1.5940001 188 192 192 255
0.7404651 0.46222332 1.5760001 190 195 192 255
0.73965573 0.45904958 1.5650001 189 194 191 255
0.74116558 0.45734349 1.559 190 195 192 255
0.74168932 0.45505181 1.5510001 188 195 192 255
0.74169087 0.45246771 1.5420001 189 194 191 255
0.74019468 0.44900414 1.5300001 188 193 190 255
0.73960829 0.44612837 1.5200001 182 189 186 255
0.74043787 0.44413403 1.5130001 185 192 189 255
0.74074 0.44184721 1.5050001 190 194 194 255
0.74032605 0.46873188 1.6140001 189 193 193 255
0.73972994 0.46558362 1.603 188 192 192 255
0.73907602 0.4624362 1.5920001 189 193 193 255
0.74041378 0.45788717 1.5760001 187 194 191 255
0.74007577 0.45503306 1.5660001 189 194 191 255
0.74111158 0.4530516 1.559 189 194 191 255
0.7421121 0.45107126 1.552 190 195 192 255
0.74307722 0.44909203 1.5450001 191 196 193 255
0.74207187 0.44595101 1.534 188 192 192 255
0.74052233 0.44252011 1.5220001 186 193 192 255
0.73988813 0.43967149 1.5120001 187 194 193 255
0.739694 0.43711448 1.503 188 194 196 255
0.74119806 0.4648729 1.6160001 184 191 190 255
0.74060637 0.46175373 1.605 187 194 193 255
0.74042112 0.4589231 1.595 187 194 193 255
0.73971653 0.45580566 1.5840001 187 194 193 255
0.74036348 0.45355242 1.5760001 188 195 192 255
0.73955172 0.45043671 1.5650001 191 196 193 255
0.74105883 0.44876111 1.559 189 194 191 255
0.7411018 0.44622302 1.5500001 187 192 189 255
0.74205989 0.4442617 1.5430001 189 194 191 255
0.74056423 0.4408617 1.531 188 192 192 255
0.74143761 0.43890238 1.524 191 195 195 255
0.73982912 0.43550396 1.5120001 190 194 194 255
0.73963368 0.43297046 1.503 190 194 196 255
0.74115402 0.46043432 1.6160001 185 192 189 255
0.74148387 0.45791408 1.6070001 185 190 187 255
0.73944622 0.45396987 1.5930001 188 193 190 255
0.74013573 0.45173645 1.585 186 193 190 255
0.74078435 0.44950402 1.577 186 193 190 255
0.74091923 0.44698754 1.5680001 188 195 191 255
0.73958158 0.44361672 1.5560001 186 193 189 255
0.7391367 0.44081685 1.5460001 177 184 181 255
0.73960143 0.43858823 1.5380001 186 191 188 255
0.73857427 0.435505 1.5270001 188 193 190 255
0.7394352 0.4335635 1.5200001 189 193 193 255
0.73781437 0.43019673 1.508 187 191 191 255
0.73973513 0.45515046 1.613 185 192 189 255
0.7405169 0.4529359 1.605 176 183 180 255
0.73986506 0.44987562 1.5940001 188 193 190 255
0.73992527 0.44211155 1.5660001 186 193 189 255
0.73858082 0.43877241 1.554 186 193 189 255
0.73717314 0.4354341 1.5420001 182 189 185 255
0.7385872 0.43379092 1.536 187 194 190 255
0.73706955 0.43045416 1.524 185 192 189 255
0.73889363 0.4290956 1.5190001 189 194 191 255
0.7377581 0.42604303 1.508 186 191 188 255
0.73853308 0.42412159 1.501 189 193 193 255
0.74001253 0.44824934 1.6040001 183 190 187 255
0.74028504 0.44577709 1.595 186 193 190 255
0.74051082 0.44330579 1.5860001 186 193 190 255
0.74082243 0.43836612 1.5680001 185 192 188 255
0.73995769 0.43533847 1.557 185 192 188 255
0.73664516 0.43091345 1.5410001 185 192 188 255
0.73757422 0.42900589 1.534 186 193 189 255
0.73604995 0.4257009 1.5220001 184 191 188 255
0.73786706 0.4243547 1.5170001 187 192 189 255
0.73721397 0.42161092 1.5070001 185 190 187 255
0.73798478 0.41970742 1.5000001 186 190 190 255
0.73766404 0.44246262 1.5990001 184 191 188 255
0.73884976 0.44056734 1.5920001 186 193 189 255
0.739066 0.43811956 1.5830001 187 194 190 255
0.74158382 0.43705666 1.5790001 185 192 188 255
0.74077576 0.43405724 1.5680001 185 192 188 255
0.74038517 0.43133554 1.5580001 183 190 186 255
0.73707438 0.42695335 1.5420001 183 190 186 255
0.73896652 0.42561769 1.5370001 184 191 187 255
0.73890024 0.42317548 1.5280001 184 191 188 255
0.74073279 0.4218421 1.5230001 187 192 189 255
0.73862785 0.41829377 1.5100001 186 191 188 255
0.73842174 0.41585419 1.501 187 192 189 255
0.73716217 0.43780041 1.598 185 192 189 255
0.73880786 0.43619719 1.5920001 185 192 188 255
0.73855609 0.43349901 1.582 184 191 187 255
0.74106985 0.43244597 1.5780001 182 189 185 255
0.73931313 0.42892745 1.5650001 186 193 189 255
0.73938823 0.42650607 1.5560001 184 191 187 255
0.73798269 0.42326316 1.544 185 192 188 255
0.73987919 0.42194018 1.539 185 192 188 255
0.73933363 0.41924733 1.529 184 191 188 255
0.73922235 0.41682965 1.5200001 186 191 188 255
0.73759699 0.41358998 1.508 186 191 188 255
0.73787606 0.41144821 1.5000001 185 190 187 255
0.73830312 0.43155688 1.5910001 185 192 188 255
0.73898101 0.42942756 1.5830001 182 189 185 255
0.74149626 0.42838445 1.5790001 186 193 189 255
0.73879653 0.42435792 1.5640001 183 190 186 255
0.73886752 0.42196003 1.5550001 184 191 187 255
0.73841417 0.41929176 1.5450001 184 191 187 255
0.7403121 0.41798142 1.5400001 184 191 187 255
0.74073511 0.41585779 1.5320001 183 190 186 255
0.74014467 0.41319224 1.5220001 185 190 187 255
0.73999119 0.41079909 1.5130001 186 191 187 255
0.73979104 0.40840673 1.5040001 186 191 188 255
0.73894024 0.42508331 1.5830001 183 190 186 255
0.74051499 0.42351288 1.577 183 190 186 255
0.74017042 0.42086929 1.567 186 193 189 255
0.74024868 0.41849515 1.5580001 184 191 187 255
0.74075824 0.41639057 1.5500001 184 191 187 255
0.74026537 0.41374961 1.5400001 185 192 188 255
0.73972028 0.41110948 1.5300001 184 191 187 255
0.73766428 0.407664 1.5170001 183 190 187 255
0.73847377 0.40583175 1.5100001 183 190 187 255
0.73826408 0.40346289 1.501 186 191 188 255
0.74094367 0.41945094 1.5780001 185 192 188 255
0.74060065 0.41683373 1.5680001 186 191 187 255
0.74020541 0.41421735 1.5580001 183 190 186 255
0.73975807 0.41160184 1.5480001 181 188 185 255
0.74021971 0.40951899 1.5400001 183 190 186 255
0.74064046 0.40743715 1.5320001 183 190 186 255
0.73810279 0.40376034 1.5180001 183 190 187 255
0.73793566 0.40141416 1.5090001 183 190 187 255
0.73902559 0.41406918 1.5740001 183 190 186 255
0.73961496 0.41200441 1.5660001 186 191 187 255
0.73873806 0.40915129 1.5550001 183 188 184 255
0.73923689 0.40708834 1.5470001 182 189 185 255
0.73873341 0.40450001 1.5370001 181 188 184 255
0.7391445 0.40243894 1.529 183 190 186 255
0.73708367 0.3990626 1.516 182 189 186 255
0.7373988 0.39700323 1.508 182 189 186 255
0.74047059 0.41540393 1.5960001 183 190 187 255
0.73929083 0.41231713 1.5840001 183 190 186 255
0.73898679 0.40975174 1.5740001 185 190 186 255
0.73863053 0.40718722 1.5640001 184 189 185 255
0.7367968 0.40384239 1.5510001 183 188 184 255
0.73728341 0.40180025 1.5430001 180 187 183 255
0.736287 0.39897773 1.5320001 182 189 185 255
0.73764986 0.39745831 1.526 183 190 186 255
0.73801053 0.39541897 1.5180001 181 188 184 255
0.739308 0.39390159 1.5120001 182 189 185 255
0.73910046 0.39160359 1.503 182 189 186 255
0.74136275 0.4115442 1.598 181 188 184 255
0.74018753 0.40848932 1.5860001 182 189 185 255
0.73941845 0.40569282 1.575 183 190 186 255
0.74000835 0.40366992 1.567 179 186 182 255
0.738657 0.40061748 1.5550001 183 190 186 255
0.73819798 0.39808103 1.5450001 180 187 183 255
0.73672551 0.39503008 1.5330001 180 187 183 255
0.73760659 0.39326838 1.526 180 188 181 255
0.73845214 0.39150766 1.5190001 183 191 184 255
0.73926234 0.38974795 1.5120001 181 188 184 255
0.7395454 0.38773137 1.5040001 181 188 184 255
0.7408641 0.40691006 1.5970001 181 188 184 255
0.74108511 0.40465155 1.5880001 180 187 183 255
0.74125946 0.40239397 1.5790001 184 189 185 255
0.74044269 0.39962754 1.5680001 181 188 184 255
0.739568 0.39686182 1.557 181 188 184 255
0.73959124 0.39460677 1.5480001 181 189 182 255
0.73860663 0.39184275 1.5370001 183 191 184 255
0.73804772 0.38933444 1.5270001 181 189 182 255
0.73792267 0.38708189 1.5180001 181 189 182 255
0.73823994 0.38508531 1.5100001 182 189 185 255
0.73802447 0.38283449 1.501 181 188 185 255
0.74058372 0.40004763 1.5870001 182 189 185 255
0.7416929 0.39831781 1.58 181 188 184 255
0.74135011 0.39583275 1.5700001 182 189 185 255
0.74095488 0.3933484 1.5600001 182 189 185 255
0.74048859 0.3886345 1.5410001 181 189 182 255
0.73897302 0.38564828 1.529 183 191 184 255
0.73739421 0.38266274 1.5170001 183 190 186 255
0.73721862 0.38043469 1.508 182 189 185 255
0.73884159 0.39249167 1.5740001 181 188 184 255
0.73942542 0.3905316 1.5660001 179 186 182 255
0.73996794 0.38857245 1.5580001 181 188 184 255
0.74044931 0.38440749 1.5410001 181 188 184 255
0.73941606 0.38170263 1.5300001 181 188 184 255
0.73735297 0.37849954 1.5170001 181 188 184 255
0.73766512 0.37654471 1.5090001 182 189 185 255
0.73739958 0.3874391 1.5710001 184 189 185 255
0.73891824 0.38599324 1.5650001 181 188 184 255
0.73803216 0.38331506 1.554 182 187 183 255
0.73852152 0.38137773 1.5460001 181 186 182 255
0.73848921 0.37919459 1.5370001 179 186 182 255
0.73937678 0.37750578 1.5300001 181 188 184 255
0.73779875 0.37458408 1.5180001 179 186 182 255
0.73713493 0.37215665 1.508 180 187 183 255
0.73740226 0.37022364 1.5000001 183 190 187 255
0.73656023 0.38721827 1.5880001 181 186 182 255
0.7353524 0.38432297 1.5760001 180 187 183 255
0.73689723 0.38289157 1.5700001 183 188 184 255
0.73841202 0.38146126 1.5640001 182 187 184 255
0.73799711 0.37905619 1.554 178 185 182 255
0.7384854 0.37713987 1.5460001 180 185 181 255
0.73845196 0.37498039 1.5370001 180 187 183 255
0.73933846 0.37330982 1.5300001 180 187 183 255
0.73824537 0.37066409 1.5190001 181 188 184 255
0.73807216 0.36850718 1.5100001 182 189 185 255
0.73883551 0.36683923 1.503 181 188 184 255
0.73653036 0.38287076 1.5880001 181 186 182 255
0.7353214 0.38000736 1.5760001 178 185 181 255
0.73780388 0.37907386 1.572 180 187 183 255
0.73932314 0.37765908 1.5660001 181 188 184 255
0.73938763 0.37552175 1.557 179 186 183 255
0.73892784 0.37314403 1.5470001 182 187 184 255
0.73841572 0.37076712 1.5370001 179 186 182 255
0.73833472 0.36863229 1.5280001 179 186 182 255
0.73869306 0.36673954 1.5200001 181 188 184 255
0.73901027 0.36484766 1.5120001 181 188 184 255
0.74076122 0.36368066 1.5070001 180 187 183 255
0.73762423 0.37688452 1.5810001 179 186 183 255
0.73918068 0.37548438 1.575 179 186 182 255
0.73929101 0.37336996 1.5660001 179 186 182 255
0.74125379 0.37221014 1.5610001 178 185 182 255
0.74080414 0.36985904 1.5510001 181 186 183 255
0.74030209 0.36750868 1.5410001 178 185 182 255
0.73974788 0.36515909 1.531 180 187 183 255
0.74108541 0.36376452 1.5250001 179 186 182 255
0.73994917 0.36117804 1.5140001 181 188 184 255
0.73973846 0.35906953 1.5050001 181 188 184 255
0.7411108 0.37653428 1.598 178 185 182 255
0.73946112 0.37349948 1.585 180 187 184 255
0.73961973 0.37140796 1.5760001 178 185 182 255
0.73973161 0.36931732 1.567 179 186 183 255
0.74027163 0.36746323 1.559 179 186 183 255
0.74077064 0.36561003 1.5510001 180 187 184 255
0.73978716 0.3630504 1.5400001 175 182 179 255
0.74019551 0.36119887 1.5320001 177 184 181 255
0.74007696 0.35911241 1.5230001 180 187 183 255
0.73942298 0.35679096 1.5130001 181 188 184 255
0.73920834 0.35470611 1.5040001 180 187 183 255
0.74201065 0.37262747 1.6 178 185 182 255
0.74083215 0.36986035 1.5880001 179 186 183 255
0.74005949 0.36732683 1.577 179 186 183 255
0.73922914 0.36479416 1.5660001 179 186 183 255
0.73976535 0.36296105 1.5580001 179 186 183 255
0.73930526 0.36066288 1.5480001 178 185 182 255
0.73879296 0.35836548 1.5380001 177 184 181 255
0.73871154 0.35630187 1.529 179 186 182 255
0.73955536 0.35470521 1.5220001 179 186 182 255
0.73987496 0.35287634 1.5140001 180 187 183 255
0.73867917 0.35034907 1.503 178 185 181 255
0.74105644 0.36778983 1.598 179 186 183 255
0.74033797 0.36528489 1.5870001 178 185 182 255
0.73909229 0.36255044 1.575 178 185 182 255
0.73825544 0.36004695 1.5640001 180 187 184 255
0.73878515 0.35823491 1.5560001 178 185 182 255
0.738796 0.35619345 1.5470001 177 184 181 255
0.73731935 0.35346204 1.5350001 179 186 183 255
0.73722851 0.3514221 1.526 178 185 181 255
0.73806304 0.34984371 1.5190001 179 186 182 255
0.73886192 0.34826612 1.5120001 181 188 184 255
0.73864245 0.34622875 1.503 180 188 181 255
0.73937804 0.36048812 1.585 179 186 183 255
0.73906451 0.35824057 1.575 180 187 184 255
0.73822671 0.35576642 1.5640001 181 188 185 255
0.73970491 0.35443041 1.5580001 176 183 179 255
0.73828775 0.35173026 1.5460001 178 185 181 255
0.73728758 0.34925833 1.5350001 178 185 181 255
0.73671275 0.3470147 1.5250001 179 186 182 255
0.7380293 0.34568208 1.5190001 176 183 179 255
0.73833847 0.34389523 1.511 180 187 183 255
0.73713249 0.3414264 1.5000001 179 187 180 255
0.73809898 0.35348204 1.5730001 178 185 181 255
0.73772663 0.35126182 1.5630001 179 186 182 255
0.73920107 0.3499414 1.557 178 185 181 255
0.73825783 0.34749809 1.5460001 178 185 181 255
0.73869759 0.3457298 1.5380001 178 185 181 255
0.73909628 0.3439624 1.5300001 178 185 181 255
0.7384823 0.34174618 1.5200001 178 185 181 255
0.73830456 0.33975551 1.511 179 186 182 255
0.73606145 0.35026363 1.5780001 178 186 179 255
0.73760355 0.34895706 1.572 179 186 182 255
0.73864347 0.34742942 1.5650001 179 186 182 255
0.74012238 0.34612471 1.559 177 184 180 255
0.74013877 0.34415475 1.5500001 177 184 180 255
0.73962808 0.34196356 1.5400001 178 185 181 255
0.73954833 0.33999518 1.531 178 185 181 255
0.73845023 0.33758339 1.5200001 177 184 180 255
0.73924875 0.33606079 1.5130001 179 186 182 255
0.73617065 0.3439998 1.5690001 177 184 180 255
0.73720121 0.34249046 1.562 178 185 181 255
0.73819613 0.34098205 1.5550001 178 185 181 255
0.73963284 0.33969375 1.549 180 187 183 255
0.73911852 0.33752909 1.539 177 184 180 255
0.73903501 0.33558455 1.5300001 175 182 178 255
0.73841906 0.33342138 1.5200001 178 185 181 255
0.73872799 0.33169773 1.5120001 179 186 183 255
0.73787904 0.34249979 1.582 178 185 181 255
0.73802269 0.34057513 1.5730001 178 185 181 255
0.73811948 0.33865121 1.5640001 178 185 181 255
0.73816949 0.3367281 1.5550001 178 185 181 255
0.73865038 0.33502233 1.5470001 177 184 180 255
0.73812956 0.33288422 1.5370001 176 183 179 255
0.73803955 0.33096346 1.5280001 177 184 180 255
0.73790282 0.32904345 1.5190001 180 187 184 255
0.73771954 0.32712424 1.5100001 179 186 183 255
0.74035406 0.34537801 1.6160001 175 182 178 255
0.73752952 0.33606026 1.572 178 185 181 255
0.73667884 0.33373266 1.5610001 176 183 179 255
0.73766905 0.332261 1.554 177 184 180 255
0.73910105 0.33100396 1.5480001 176 183 179 255
0.73954254 0.32932016 1.5400001 178 185 181 255
0.73897696 0.32720944 1.5300001 177 184 180 255
0.73787326 0.32488555 1.5190001 180 187 184 255
0.73768908 0.32299018 1.5100001 180 187 183 255
0.73797548 0.33197364 1.5730001 176 183 179 255
0.73807049 0.3300975 1.5640001 177 184 180 255
0.73811865 0.32822213 1.5550001 178 185 181 255
0.7395525 0.3269808 1.549 177 184 180 255
0.73999578 0.32531813 1.5410001 177 184 180 255
0.738949 0.3230229 1.5300001 178 185 181 255
0.73735887 0.32051724 1.5180001 180 187 184 255
0.73668224 0.31843445 1.508 177 184 180 255
0.73795289 0.32767373 1.5730001 177 184 181 255
0.73951823 0.32459509 1.5580001 177 184 181 255
0.74095941 0.3233695 1.552 176 183 179 255
0.74044967 0.3213113 1.5420001 177 184 180 255
0.73892194 0.31883705 1.5300001 176 183 179 255
0.73684514 0.31615499 1.5170001 177 184 180 255
0.73714197 0.31451571 1.5090001 178 185 181 255
0.73739767 0.31287718 1.501 177 184 180 255
0.73793107 0.32337448 1.5730001 176 183 180 255
0.73896807 0.32195735 1.5660001 175 182 179 255
0.73949456 0.32033542 1.5580001 175 182 179 255
0.74093485 0.31912553 1.552 177 184 180 255
0.73946387 0.31668267 1.5400001 174 181 177 255
0.73841262 0.31444612 1.529 175 182 178 255
0.73778933 0.3124159 1.5190001 178 185 181 255
0.73760229 0.31059209 1.5100001 177 184 180 255
0.73736864 0.30876902 1.501 178 186 179 255
0.73963618 0.32169217 1.5860001 176 183 180 255
0.73790991 0.3190757 1.5730001 176 183 180 255
0.73941779 0.31787989 1.567 176 183 180 255
0.74042082 0.31648201 1.5600001 175 182 179 255
0.74043357 0.31467924 1.5510001 175 182 178 255
0.73943913 0.31247136 1.5400001 177 184 180 255
0.73886985 0.31046706 1.5300001 176 183 179 255
0.73873419 0.30866644 1.521 179 186 182 255
0.73904026 0.30706954 1.5130001 177 184 180 255
0.73734033 0.30466145 1.501 177 185 178 255
0.73821741 0.31675875 1.5830001 174 181 177 255
0.73788929 0.31477746 1.5730001 175 182 178 255
0.73939639 0.31359741 1.567 175 182 178 255
0.73992389 0.31201786 1.559 175 182 178 255
0.73945552 0.31003883 1.549 176 183 179 255
0.73941511 0.30826065 1.5400001 177 184 180 255
0.73932785 0.30648321 1.531 177 184 180 255
0.7391941 0.30470651 1.5220001 175 182 178 255
0.73803669 0.30253008 1.511 175 182 178 255
0.73847497 0.31438965 1.5930001 175 182 178 255
0.73773205 0.31223696 1.582 174 181 177 255
0.73880756 0.31087449 1.575 176 183 179 255
0.73890376 0.30911806 1.5660001 176 183 179 255
0.73847854 0.30716494 1.5560001 173 180 176 255
0.73752356 0.30501506 1.5450001 178 185 181 255
0.73795128 0.30345818 1.5370001 176 183 179 255
0.73882079 0.30209953 1.5300001 177 184 180 255
0.73722631 0.29975429 1.5180001 176 183 179 255
0.73703384 0.29800215 1.5090001 175 182 178 255
0.73545671 0.310606 1.5960001 173 181 174 255
0.73613954 0.30906588 1.5880001 175 182 178 255
0.73724729 0.30772111 1.5810001 172 181 176 255
0.73785013 0.3061825 1.5730001 174 183 178 255
0.73746812 0.30425534 1.5630001 175 184 179 255
0.73703378 0.30232888 1.5530001 174 182 179 255
0.73702449 0.30059776 1.544 177 184 180 255
0.73792869 0.29925677 1.5370001 176 183 179 255
0.73783147 0.29752713 1.5280001 176 183 180 255
0.73671633 0.29540876 1.5170001 177 184 181 255
0.73652023 0.29368049 1.508 177 184 181 255
0.73676878 0.29214776 1.5000001 177 184 180 255
0.73658609 0.30492121 1.5890001 174 182 175 255
0.73676312 0.30321118 1.58 173 182 177 255
0.73736238 0.30169383 1.572 173 181 178 255
0.73839229 0.30036914 1.5650001 175 183 180 255
0.73748803 0.29827744 1.554 173 181 178 255
0.73843533 0.29695421 1.5470001 176 183 180 255
0.73790669 0.29505587 1.5370001 173 180 177 255
0.73732579 0.2931582 1.5270001 176 183 180 255
0.73669273 0.2912612 1.5170001 174 181 178 255
0.73698413 0.28974888 1.5090001 175 182 179 255
0.73723453 0.2882373 1.501 177 184 181 255
0.73680735 0.30245823 1.5990001 174 181 177 255
0.7361061 0.30039319 1.5880001 175 182 178 255
0.7383734 0.29609409 1.5650001 173 181 178 255
0.73936659 0.29478872 1.5580001 172 180 179 255
0.73984683 0.29329482 1.5500001 175 183 180 255
0.74028569 0.29180166 1.5420001 175 182 179 255
0.73875213 0.28955224 1.5300001 176 183 180 255
0.73812658 0.28768197 1.5200001 175 182 179 255
0.73744863 0.28581235 1.5100001 175 182 179 255
0.73720992 0.28413272 1.501 175 182 179 255
0.73743647 0.30012929 1.6100001 173 180 176 255
0.73771387 0.29846591 1.6010001 171 178 174 255
0.73835516 0.29181951 1.5650001 172 180 177 255
0.73934746 0.29053262 1.5580001 174 182 181 255
0.74030417 0.28924653 1.5510001 173 181 180 255
0.74026489 0.28758806 1.5420001 173 180 177 255
0.73921335 0.28555733 1.531 175 182 179 255
0.73761857 0.28334069 1.5190001 174 181 178 255
0.73644871 0.28131121 1.508 177 184 181 255
0.73718584 0.28002858 1.501 176 183 182 255
0.73718089 0.29919937 1.6290001 169 176 173 255
0.73696464 0.2955513 1.6090001 171 178 175 255
0.73769933 0.29409567 1.6010001 171 178 175 255
0.73700202 0.29208964 1.59 174 181 178 255
0.73739386 0.28717792 1.5630001 174 182 179 255
0.73932892 0.28627706 1.5580001 174 182 179 255
0.73837554 0.28427437 1.5470001 176 183 180 255
0.73832458 0.28263992 1.5380001 174 181 178 255
0.73774403 0.28082237 1.5280001 176 183 179 255
0.73808241 0.27937302 1.5200001 174 181 177 255
0.73642623 0.27718917 1.508 175 182 178 255
0.73765355 0.27610886 1.5020001 175 182 178 255
0.73603535 0.29079822 1.6070001 173 180 177 255
0.73768526 0.28972581 1.6010001 171 178 175 255
0.73884135 0.28847319 1.5940001 173 180 177 255
0.73856264 0.28667834 1.5840001 173 180 176 255
0.73823172 0.28488415 1.5740001 174 181 178 255
0.73784846 0.28309062 1.5640001 174 182 179 255
0.73883641 0.28184083 1.557 173 181 178 255
0.73692501 0.27950558 1.544 174 181 178 255
0.73686486 0.27789506 1.5350001 172 179 176 255
0.73724091 0.27646631 1.5270001 176 183 179 255
0.73854685 0.27540034 1.521 174 181 177 255
0.7373811 0.27342978 1.5100001 174 181 177 255
0.7376309 0.27200308 1.5020001 175 182 178 255
0.73767179 0.28535628 1.6010001 170 177 176 255
0.73929054 0.28430051 1.595 174 181 178 255
0.73901385 0.28253245 1.585 172 179 175 255
0.73821592 0.28058681 1.5740001 172 179 176 255
0.73783189 0.27882004 1.5640001 171 178 174 255
0.738819 0.27758878 1.557 173 180 177 255
0.73595238 0.27493188 1.5420001 173 180 177 255
