ply
format ascii 1.0
comment PCL generated
element vertex 974
property float x
property float y
property float z
property uchar red
property uchar green
property uchar blue
property uchar alpha
element camera 0
property float view_px
property float view_py
property float view_pz
property float x_axisx
property float x_axisy
property float x_axisz
property float y_axisx
property float y_axisy
property float y_axisz
property float z_axisx
property float z_axisy
property float z_axisz
property float focal
property float scalex
property float scaley
property float centerx
property float centery
property int viewportx
property int viewporty
property float k1
property float k2
end_header
0.73575896 -0.35333821 1.5680001 191 196 202 255
0.73820502 -0.35246402 1.5640001 192 197 203 255
0.73873293 -0.35068929 1.5560001 192 197 203 255
0.73921967 -0.34891543 1.5480001 191 196 202 255
0.73726368 -0.3460153 1.5350001 190 195 201 255
0.73813742 -0.34446847 1.5280001 190 195 201 255
0.73703218 -0.34202066 1.5170001 192 197 204 255
0.73831224 -0.34070092 1.511 193 198 205 255
0.73759681 -0.33848011 1.501 194 199 206 255
0.72839743 -0.39285991 1.7240001 182 187 193 255
0.7280156 -0.39013743 1.7120001 183 188 194 255
0.72885406 -0.38809937 1.7030001 183 188 194 255
0.7305069 -0.386518 1.6960001 183 188 194 255
0.73168993 -0.38470957 1.6880001 183 188 194 255
0.7319591 -0.38244614 1.6780001 182 188 191 255
0.73041964 -0.37927178 1.664 182 187 193 255
0.73013091 -0.376782 1.6530001 184 189 195 255
0.73022848 -0.37452093 1.6430001 185 190 196 255
0.7316153 -0.37294456 1.636 188 193 199 255
0.73251617 -0.37114108 1.628 188 193 199 255
0.73428094 -0.36979446 1.6220001 188 193 199 255
0.73555982 -0.36822072 1.6150001 189 194 200 255
0.73588645 -0.36619183 1.6060001 190 195 201 255
0.73524421 -0.36370769 1.595 190 195 201 255
0.73547167 -0.36168042 1.5860001 190 195 201 255
0.7333197 -0.35851365 1.572 191 196 202 255
0.73531675 -0.35740024 1.567 190 195 201 255
0.73634505 -0.35583156 1.5600001 192 197 203 255
0.73828727 -0.35472009 1.5550001 192 197 203 255
0.73733962 -0.35224071 1.544 193 198 204 255
0.73681438 -0.34999019 1.534 190 195 201 255
0.7367202 -0.34796867 1.5250001 193 198 204 255
0.73609346 -0.34571975 1.5150001 192 197 204 255
0.7378577 -0.34461263 1.5100001 194 199 206 255
0.73812336 -0.34282181 1.5020001 194 199 206 255
0.72843981 -0.39251769 1.702 182 187 193 255
0.72922921 -0.39045659 1.6930001 181 186 192 255
0.73127204 -0.38908818 1.687 183 188 194 255
0.73241174 -0.38725942 1.6790001 183 188 194 255
0.73175389 -0.38450882 1.6670001 184 189 195 255
0.73103261 -0.38175908 1.6550001 184 189 195 255
0.73024774 -0.37901005 1.6430001 186 191 197 255
0.73163545 -0.37741527 1.636 187 192 198 255
0.73298717 -0.37582135 1.6290001 188 193 199 255
0.734303 -0.37422833 1.6220001 190 195 201 255
0.73558283 -0.3726362 1.6150001 190 195 202 255
0.73591048 -0.37058342 1.6060001 189 194 201 255
0.73619115 -0.36853155 1.5970001 190 195 201 255
0.73596132 -0.36624971 1.5870001 191 196 202 255
0.73427969 -0.36327624 1.5740001 192 197 203 255
0.73534459 -0.36168832 1.567 191 196 202 255
0.73495787 -0.35940883 1.557 192 197 203 255
0.7359432 -0.35782272 1.5500001 193 198 204 255
0.73593783 -0.35577571 1.5410001 191 196 202 255
0.73588562 -0.35372952 1.5320001 191 196 202 255
0.73626989 -0.35191503 1.524 193 198 204 255
0.73515552 -0.34940866 1.5130001 192 197 203 255
0.73642659 -0.34805769 1.5070001 195 200 206 255
0.72676611 -0.39878368 1.7090001 183 189 192 255
0.72717023 -0.39646447 1.6990001 182 188 191 255
0.72666013 -0.39367926 1.687 182 187 193 255
0.7282539 -0.39206174 1.6800001 184 189 195 255
0.73068398 -0.39091191 1.6750001 184 189 195 255
0.73264992 -0.38952953 1.669 183 188 194 255
0.73193502 -0.38674769 1.6570001 183 188 194 255
0.731601 -0.38420001 1.646 186 191 197 255
0.73255074 -0.38235345 1.6380001 187 192 198 255
0.73345906 -0.38050777 1.6300001 190 195 201 255
0.73477846 -0.37889633 1.623 190 195 201 255
0.73515117 -0.37681887 1.6140001 190 195 201 255
0.73456049 -0.37427533 1.603 190 195 201 255
0.73345101 -0.37149906 1.5910001 188 193 199 255
0.73366922 -0.36942402 1.582 190 195 202 255
0.73197466 -0.36641574 1.5690001 191 196 203 255
0.73396546 -0.36527655 1.5640001 191 196 202 255
0.73404342 -0.363204 1.5550001 191 196 202 255
0.73549896 -0.36183307 1.549 192 197 203 255
0.73405904 -0.35906145 1.5370001 192 197 203 255
0.73495758 -0.35745868 1.5300001 191 196 202 255
0.73533744 -0.35562313 1.5220001 193 198 204 255
0.73616201 -0.35402212 1.5150001 193 198 204 255
0.73548502 -0.35172093 1.5050001 193 198 204 255
0.72592968 -0.40297726 1.7070001 182 188 191 255
0.72675723 -0.40086746 1.6980001 183 189 192 255
0.72581452 -0.3978141 1.6850001 183 188 194 255
0.72827077 -0.39665031 1.6800001 184 189 195 255
0.7307018 -0.39548749 1.6750001 184 189 195 255
0.73266876 -0.39408946 1.669 185 190 196 255
0.73107129 -0.39080328 1.6550001 186 191 197 255
0.73206615 -0.38893473 1.6470001 185 190 196 255
0.73346692 -0.3873032 1.6400001 187 192 198 255
0.73528159 -0.38590875 1.6340001 189 194 200 255
0.73525482 -0.38357046 1.6240001 189 194 200 255
0.73517585 -0.38123304 1.6140001 189 194 200 255
0.73412788 -0.37842396 1.6020001 190 195 201 255
0.73393846 -0.37608808 1.5920001 191 196 202 255
0.7336967 -0.37375301 1.582 191 196 203 255
0.73340261 -0.37141874 1.572 191 196 203 255
0.73399496 -0.36955792 1.5640001 190 195 202 255
0.73454595 -0.36769789 1.5560001 192 197 204 255
0.73410606 -0.36536613 1.5460001 192 197 204 255
0.73409152 -0.36327147 1.5370001 194 199 206 255
0.73499113 -0.36165038 1.5300001 192 197 203 255
0.73682141 -0.36050302 1.5250001 192 197 203 255
0.7371695 -0.35864735 1.5170001 194 199 205 255
0.73601037 -0.35608327 1.506 193 198 204 255
0.72679496 -0.40811571 1.7090001 184 187 191 255
0.7267729 -0.40550438 1.6980001 183 186 190 255
0.72540033 -0.40217739 1.6840001 185 188 192 255
0.72698778 -0.40052301 1.677 183 189 192 255
0.72984791 -0.39958605 1.6730001 186 191 197 255
0.73181033 -0.39817235 1.6670001 185 190 196 255
0.73065001 -0.39508748 1.654 184 189 195 255
0.73030967 -0.39248115 1.6430001 187 192 198 255
0.73125309 -0.39059231 1.6350001 186 191 197 255
0.733055 -0.38918212 1.6290001 187 192 198 255
0.73437381 -0.38753399 1.6220001 190 195 201 255
0.73337919 -0.3846921 1.6100001 190 195 202 255
0.73369592 -0.38256776 1.6010001 192 197 204 255
0.73304367 -0.37996641 1.59 190 195 202 255
0.73372495 -0.37808272 1.582 192 197 204 255
0.73389852 -0.37596098 1.5730001 192 197 204 255
0.73449457 -0.37407908 1.5650001 191 196 203 255
0.73504937 -0.37219805 1.557 191 196 203 255
0.73556292 -0.37031791 1.549 192 197 204 255
0.73555779 -0.36819956 1.5400001 192 197 204 255
0.73646677 -0.36656028 1.5330001 193 198 204 255
0.73782337 -0.36516103 1.5270001 191 196 202 255
0.73817807 -0.36328447 1.5190001 193 198 204 255
0.73653674 -0.36045203 1.5070001 196 199 205 255
0.72921365 -0.42504406 1.7600001 183 188 194 255
0.72944432 -0.42240009 1.7490001 185 190 196 255
0.72846371 -0.41639018 1.7240001 184 189 195 255
0.72936207 -0.41423175 1.715 186 189 195 255
0.72978544 -0.41183272 1.705 186 189 193 255
0.72843301 -0.40846831 1.6910001 187 190 196 255
0.7291736 -0.40631244 1.682 184 189 195 255
0.73030341 -0.40439904 1.674 185 190 196 255
0.73270857 -0.40321127 1.669 186 191 197 255
0.73111296 -0.39985004 1.6550001 186 191 197 255
0.73033172 -0.39697281 1.6430001 187 192 198 255
0.73038167 -0.39457962 1.6330001 188 193 199 255
0.73127908 -0.39267054 1.6250001 190 195 201 255
0.73213512 -0.39076233 1.6170001 190 195 201 255
0.73112762 -0.38788828 1.605 190 195 202 255
0.7323482 -0.3862235 1.598 191 196 203 255
0.73399389 -0.38480136 1.5920001 193 198 205 255
0.73560941 -0.38338014 1.5860001 191 196 203 255
0.73486185 -0.38075122 1.575 192 197 204 255
0.73452574 -0.37836474 1.5650001 192 197 204 255
0.73602581 -0.3769463 1.559 193 198 205 255
0.7365461 -0.37504518 1.5510001 191 196 203 255
0.73702514 -0.37314495 1.5430001 193 198 205 255
0.73698264 -0.37100378 1.534 193 198 204 255
0.73737675 -0.36910528 1.526 194 199 205 255
0.73724371 -0.3669658 1.5170001 193 198 204 255
0.73706412 -0.36482713 1.508 196 199 205 255
0.72728986 -0.4315452 1.7670001 185 190 196 255
0.72674012 -0.42838258 1.7540001 186 191 197 255
0.7302289 -0.41940418 1.7170001 186 189 195 255
0.73108673 -0.41722283 1.7080001 187 190 196 255
0.72931266 -0.41357663 1.6930001 184 189 195 255
0.72919267 -0.41090837 1.682 182 187 193 255
0.72945088 -0.40848523 1.6720001 186 191 197 255
0.73185158 -0.40728453 1.6670001 185 190 196 255
0.73157668 -0.4046188 1.6560001 186 191 197 255
0.73124373 -0.40195391 1.6450001 186 191 197 255
0.72995824 -0.39880109 1.6320001 187 192 198 255
0.7304039 -0.3966265 1.623 188 193 199 255
0.73216105 -0.39518601 1.6170001 189 194 200 255
0.73069894 -0.39203557 1.6040001 191 196 203 255
0.73191786 -0.39035249 1.5970001 192 197 204 255
0.73263973 -0.38842586 1.5890001 190 195 202 255
0.73424798 -0.386989 1.5830001 192 197 204 255
0.7330265 -0.38408628 1.5710001 192 197 204 255
0.73361915 -0.3821623 1.5630001 194 197 204 255
0.73605901 -0.38121724 1.559 196 199 206 255
0.73753011 -0.37978423 1.5530001 195 198 205 255
0.73706049 -0.37737393 1.5430001 193 198 205 255
0.73557758 -0.37447521 1.531 195 200 206 255
0.73548126 -0.37231109 1.5220001 195 198 204 255
0.73582423 -0.37039244 1.5140001 193 196 202 255
0.73612612 -0.36847463 1.506 194 199 205 255
0.73023486 -0.44104809 1.7860001 188 191 195 255
0.72812521 -0.43686202 1.7690001 184 190 193 255
0.73051304 -0.41624603 1.6850001 187 192 198 255
0.73034418 -0.41354927 1.674 187 192 198 255
0.73187339 -0.41184166 1.6670001 187 192 198 255
0.73132479 -0.40400624 1.6350001 189 194 200 255
0.73177975 -0.4018079 1.626 188 193 199 255
0.73173493 -0.39936337 1.6160001 193 198 204 255
0.73118222 -0.39667249 1.605 192 197 203 255
0.73148823 -0.39447674 1.5960001 192 197 204 255
0.73266959 -0.39277628 1.5890001 192 197 204 255
0.73427892 -0.39132389 1.5830001 193 198 204 255
0.73352504 -0.38863641 1.572 192 197 203 255
0.73412156 -0.38669145 1.5640001 193 196 202 255
0.73750961 -0.38623095 1.562 194 197 203 255
0.73804027 -0.38428786 1.554 195 198 204 255
0.73709673 -0.38160384 1.5430001 196 199 205 255
0.7356149 -0.37867317 1.531 191 196 202 255
0.73648602 -0.37698004 1.524 194 199 205 255
0.73683566 -0.37504044 1.516 193 198 204 255
0.73665547 -0.37285438 1.5070001 196 201 207 255
0.73080206 -0.41837525 1.6750001 185 190 196 255
0.73057878 -0.4156501 1.664 184 189 195 255
0.73118132 -0.41342545 1.6550001 186 191 197 255
0.73262572 -0.41170126 1.6480001 186 191 197 255
0.73090309 -0.40822917 1.6340001 188 193 199 255
0.7318064 -0.40625691 1.626 189 194 200 255
0.73130977 -0.40353599 1.6150001 190 195 201 255
0.73121083 -0.40106577 1.605 192 197 203 255
0.73197627 -0.39909619 1.5970001 191 196 202 255
0.73316133 -0.39737737 1.59 192 197 203 255
0.7338469 -0.39540964 1.582 192 197 203 255
0.73262453 -0.39244291 1.5700001 194 197 203 255
0.73415542 -0.39097691 1.5640001 195 198 204 255
0.73707265 -0.39026189 1.5610001 195 198 204 255
0.73712659 -0.38804778 1.552 194 197 203 255
0.73570079 -0.38508442 1.5400001 194 199 205 255
0.73565316 -0.38287202 1.531 192 197 203 255
0.73749197 -0.38166085 1.526 193 198 204 255
0.7378484 -0.37970045 1.5180001 195 200 206 255
0.73669708 -0.37699038 1.5070001 193 198 204 255
0.72979838 -0.4475303 1.7730001 184 189 195 255
0.73133969 -0.4455255 1.7650001 184 189 195 255
0.73082453 -0.42295498 1.6750001 185 190 196 255
0.72972411 -0.41969547 1.6620001 185 190 196 255
0.73164749 -0.41820464 1.6560001 187 192 198 255
0.73265117 -0.41620961 1.6480001 186 191 197 255
0.73182416 -0.41320521 1.636 188 193 199 255
0.73093367 -0.41020164 1.6240001 190 195 201 255
0.72997969 -0.40719879 1.6120001 193 196 202 255
0.73124027 -0.40545985 1.605 194 197 203 255
0.73338181 -0.40422717 1.6 194 197 203 255
0.73503751 -0.40274292 1.5940001 196 199 205 255
0.73527122 -0.40050149 1.585 193 198 204 255
0.73452491 -0.39775565 1.5740001 194 197 203 255
0.73653734 -0.39652696 1.5690001 195 198 204 255
0.73852527 -0.39529929 1.5640001 195 198 204 255
0.73858869 -0.39306161 1.5550001 196 199 205 255
0.73717219 -0.39006636 1.5430001 195 198 204 255
0.73617285 -0.38732466 1.5320001 193 198 204 255
0.73801577 -0.38610083 1.5270001 194 199 205 255
0.73740375 -0.38361371 1.5170001 195 200 206 255
0.73722845 -0.38138026 1.508 196 201 207 255
0.73052639 -0.44983524 1.7630001 184 189 195 255
0.72868448 -0.44576892 1.7470001 185 190 196 255
0.73018742 -0.42449656 1.6630001 185 190 196 255
0.73123091 -0.42247954 1.6550001 189 194 200 255
0.73223287 -0.42046344 1.6470001 188 193 199 255
0.73095673 -0.41717175 1.6340001 190 195 201 255
0.73051184 -0.41439149 1.623 188 193 199 255
0.73046178 -0.41186735 1.613 192 197 203 255
0.73172629 -0.41011024 1.6060001 192 195 201 255
0.73295504 -0.40835404 1.5990001 194 197 203 255
0.73414779 -0.40659878 1.5920001 193 198 204 255
0.73437715 -0.40433371 1.5830001 193 198 204 255
0.7331596 -0.40130314 1.5710001 194 199 205 255
0.73516488 -0.40006158 1.5660001 192 197 203 255
0.73620123 -0.39831012 1.559 193 198 204 255
0.73720187 -0.39655969 1.552 192 197 203 255
0.73577809 -0.39353245 1.5400001 194 199 205 255
0.73573261 -0.39127263 1.531 193 198 204 255
0.73515719 -0.38875815 1.521 194 199 205 255
0.73550189 -0.3867557 1.5130001 194 199 205 255
0.73580539 -0.38475412 1.5050001 198 201 207 255
0.729828 -0.45721319 1.7730001 188 191 197 255
0.72929937 -0.45387679 1.7600001 184 189 195 255
0.72947174 -0.43952855 1.7040001 183 188 194 255
0.72812206 -0.43593919 1.6900001 184 189 195 255
0.72973317 -0.43415642 1.6830001 185 190 196 255
0.73098493 -0.42164427 1.6340001 188 193 199 255
0.73144132 -0.41935092 1.6250001 190 195 201 255
0.7323035 -0.4173165 1.6170001 189 194 200 255
0.73266888 -0.415025 1.608 192 197 203 255
0.7329874 -0.41273439 1.5990001 192 197 203 255
0.73372018 -0.41070274 1.5910001 194 199 205 255
0.73441178 -0.40867209 1.5830001 194 199 205 255
0.73366189 -0.40586776 1.572 194 199 205 255
0.73473227 -0.40409714 1.5650001 193 198 204 255
0.7352947 -0.40206924 1.557 194 199 205 255
0.73629093 -0.4003005 1.5500001 193 198 204 255
0.73438478 -0.39698303 1.5370001 195 198 204 255
0.73337084 -0.39418286 1.526 196 199 205 255
0.73278272 -0.39164183 1.516 194 197 203 255
0.7336008 -0.38987666 1.5090001 196 199 205 255
0.73536116 -0.38862932 1.5040001 196 199 205 255
0.72997075 -0.45609614 1.7500001 186 191 197 255
0.72973287 -0.45298734 1.738 185 190 196 255
0.72900873 -0.44961876 1.725 186 191 197 255
0.72967178 -0.42533532 1.631 188 193 199 255
0.73147142 -0.42380062 1.6250001 188 193 199 255
0.73278767 -0.42200604 1.618 192 197 203 255
0.73361248 -0.41995168 1.6100001 191 196 202 255
0.7334792 -0.41737649 1.6 191 196 202 255
0.73329347 -0.41480219 1.59 193 198 204 255
0.73305541 -0.41222873 1.58 192 197 203 255
0.73229837 -0.40939522 1.5690001 192 197 203 255
0.73336148 -0.40760624 1.562 194 197 203 255
0.73344451 -0.40529639 1.5530001 194 197 203 255
0.73395568 -0.4032484 1.5450001 195 198 204 255
0.73299241 -0.40041822 1.534 193 196 202 255
0.73245186 -0.39784986 1.524 192 195 201 255
0.73185921 -0.39528239 1.5140001 196 199 205 255
0.73315895 -0.39376014 1.508 196 199 205 255
0.73442894 -0.39223894 1.5020001 195 198 202 255
0.72738636 -0.45040482 1.71 183 189 192 255
0.72925436 -0.42953792 1.6300001 190 193 197 255
0.73150247 -0.42825124 1.6250001 190 193 197 255
0.73372573 -0.42696559 1.6200001 192 197 203 255
0.73410141 -0.42462668 1.6110001 190 195 201 255
0.73351353 -0.42176148 1.6 191 196 202 255
0.73332888 -0.41916072 1.59 191 196 202 255
0.73262799 -0.41629723 1.5790001 192 197 203 255
0.73326951 -0.41422555 1.5710001 191 196 202 255
0.73386979 -0.41215479 1.5630001 194 197 203 255
0.73395663 -0.40982121 1.554 193 196 202 255
0.73352164 -0.40722489 1.544 194 197 203 255
0.73255664 -0.40436557 1.5330001 194 197 203 255
0.73249501 -0.40203461 1.524 195 198 204 255
0.73287034 -0.39996839 1.516 194 197 203 255
0.73417699 -0.39843082 1.5100001 196 199 205 255
0.73398668 -0.39610261 1.501 198 201 205 255
0.72839034 -0.43346959 1.628 192 195 199 255
0.7301839 -0.43190387 1.6220001 191 194 198 255
0.73375881 -0.43140429 1.6200001 191 194 198 255
0.73550284 -0.42984071 1.6140001 190 195 201 255
0.73400736 -0.42641371 1.6010001 190 195 201 255
0.73382652 -0.42378664 1.5910001 192 197 203 255
0.73266554 -0.42062762 1.5790001 194 197 203 255
0.73424172 -0.4190678 1.5730001 195 198 204 255
0.73437911 -0.41670978 1.5640001 194 197 203 255
0.73352528 -0.41381973 1.5530001 193 196 202 255
0.73308861 -0.41119692 1.5430001 193 196 202 255
0.7330777 -0.40884149 1.534 194 197 203 255
0.73494267 -0.40755311 1.529 195 198 204 255
0.73388273 -0.40466645 1.5180001 196 199 205 255
0.73373741 -0.40231368 1.5090001 196 199 205 255
0.72870791 -0.45763084 1.702 187 190 194 255
0.73113489 -0.45338047 1.6860001 187 190 194 255
0.72871888 -0.44351554 1.649 190 193 197 255
0.72882044 -0.44085652 1.6390001 189 192 196 255
0.72931701 -0.43846735 1.6300001 189 192 196 255
0.730667 -0.43661714 1.623 191 194 198 255
0.73334002 -0.43557504 1.6190001 192 195 199 255
0.73417103 -0.43345785 1.6110001 191 194 200 255
0.73358518 -0.43053436 1.6 188 191 195 255
0.73294151 -0.42761174 1.5890001 192 195 199 255
0.73224002 -0.42468992 1.5780001 194 197 201 255
0.73288101 -0.42257634 1.5700001 194 197 203 255
0.73301136 -0.42019463 1.5610001 194 197 203 255
0.73356724 -0.41808298 1.5530001 195 198 204 255
0.73360682 -0.41570306 1.544 196 199 205 255
0.7345556 -0.41386253 1.5370001 195 198 202 255
0.73643029 -0.41256166 1.5320001 196 199 203 255
0.7353797 -0.40964594 1.521 195 198 204 255
0.7332989 -0.40619227 1.508 196 199 205 255
0.72690541 -0.47629386 1.7540001 188 191 195 255
0.72671324 -0.47305632 1.7420001 186 189 193 255
0.73039937 -0.46041244 1.6950001 190 191 195 255
0.73159599 -0.45826679 1.687 188 191 195 255
0.73275101 -0.45612213 1.6790001 189 192 196 255
0.73035109 -0.45180497 1.6630001 191 194 198 255
0.72963339 -0.44857523 1.651 190 193 197 255
0.72885203 -0.44534636 1.6390001 190 193 197 255
0.73024464 -0.443477 1.6320001 189 195 198 255
0.73070097 -0.4410651 1.623 192 195 199 255
0.7324692 -0.43946952 1.6170001 193 196 200 255
0.7332958 -0.43733138 1.6090001 193 196 200 255
0.73224711 -0.43410692 1.5970001 192 195 199 255
0.73205745 -0.43142691 1.5870001 190 193 197 255
0.73042333 -0.42793211 1.5740001 194 197 203 255
0.73198807 -0.42634141 1.5680001 195 198 204 255
0.73211396 -0.42393595 1.559 191 194 200 255
0.73361027 -0.42234731 1.5530001 196 197 201 255
0.73412627 -0.42021579 1.5450001 197 198 202 255
0.73507905 -0.41835719 1.5380001 196 197 201 255
0.73647702 -0.41677165 1.5320001 198 199 203 255
0.73494411 -0.41355485 1.5200001 197 198 202 255
0.73334777 -0.41033864 1.508 196 199 203 255
0.7281698 -0.48191205 1.7570001 186 189 193 255
0.72840393 -0.47891685 1.7460001 188 191 195 255
0.72945601 -0.46151334 1.682 190 191 195 255
0.73147124 -0.45989639 1.6760001 191 192 196 255
0.72799534 -0.44928834 1.6370001 189 192 196 255
0.73027849 -0.44794971 1.6320001 189 195 197 255
0.73073584 -0.44551414 1.623 193 197 199 255
0.73159933 -0.4433541 1.6150001 192 196 198 255
0.73105425 -0.44037136 1.6040001 192 195 199 255
0.7318269 -0.4382132 1.5960001 193 196 200 255
0.73117429 -0.43523222 1.585 192 195 199 255
0.72999978 -0.43197742 1.5730001 191 194 200 255
0.73109615 -0.43009663 1.5660001 192 195 201 255
0.73215687 -0.42821687 1.559 194 197 201 255
0.73318201 -0.42633814 1.552 197 198 202 255
0.73417163 -0.42446044 1.5450001 197 198 202 255
0.73512566 -0.42258382 1.5380001 197 198 202 255
0.73556334 -0.42043331 1.5300001 196 197 201 255
0.73499304 -0.41773421 1.5200001 198 199 203 255
0.73534316 -0.41558564 1.5120001 195 198 202 255
0.73369586 -0.41233853 1.5000001 197 200 204 255
0.72819167 -0.48671639 1.7570001 185 188 192 255
0.72884417 -0.48396909 1.7470001 187 190 194 255
0.72948533 -0.46611905 1.682 189 190 194 255
0.73106533 -0.4642095 1.6750001 190 191 195 255
0.7303133 -0.45242348 1.6320001 191 195 197 255
0.73167241 -0.45051879 1.6250001 191 195 197 255
0.73163646 -0.44778332 1.6150001 191 195 197 255
0.73063666 -0.44449419 1.603 193 197 199 255
0.73049062 -0.44176048 1.5930001 195 196 200 255
0.73029214 -0.43902764 1.5830001 193 196 200 255
0.72911316 -0.43574095 1.5710001 194 197 201 255
0.73067206 -0.43411943 1.5650001 193 196 200 255
0.73173124 -0.43222147 1.5580001 194 197 201 255
0.73180997 -0.42976978 1.549 192 195 199 255
0.73231721 -0.42759639 1.5410001 198 199 203 255
0.73326135 -0.42570147 1.534 198 199 203 255
0.73465079 -0.42408526 1.5280001 197 198 202 255
0.73601037 -0.42247 1.5220001 197 198 202 255
0.73782647 -0.42113355 1.5170001 197 199 201 255
0.73619413 -0.41785476 1.5050001 195 198 202 255
0.72891438 -0.46739861 1.6700001 190 192 194 255
0.73034918 -0.45689821 1.6320001 191 195 197 255
0.73170936 -0.4549754 1.6250001 191 195 197 255
0.73076856 -0.45165357 1.613 193 195 197 255
0.730676 -0.44889262 1.603 195 197 199 255
0.73098963 -0.44641265 1.5940001 195 197 199 255
0.73079509 -0.44365349 1.5840001 196 198 200 255
0.72961992 -0.44033495 1.572 195 198 202 255
0.73024911 -0.43813786 1.5640001 194 197 201 255
0.73224604 -0.43678209 1.559 193 196 200 255
0.73185623 -0.43402657 1.549 193 196 200 255
0.73188955 -0.43155223 1.5400001 195 196 200 255
0.73187608 -0.4290787 1.531 195 196 200 255
0.73325843 -0.42744702 1.5250001 198 200 202 255
0.73557818 -0.42637706 1.521 196 198 200 255
0.73690647 -0.42474768 1.5150001 196 199 203 255
0.73624808 -0.42199779 1.5050001 198 201 205 255
0.72851026 -0.47169191 1.669 192 194 196 255
0.72872216 -0.46889904 1.659 192 194 196 255
0.72898889 -0.46331617 1.6390001 190 194 196 255
0.73038614 -0.46137416 1.6320001 190 194 196 255
0.73129719 -0.45915046 1.6240001 192 196 198 255
0.73080772 -0.45607951 1.613 194 196 198 255
0.7311722 -0.45357507 1.6040001 194 196 198 255
0.73103118 -0.45078868 1.5940001 193 195 197 255
0.73083776 -0.44800317 1.5840001 196 198 200 255
0.73152035 -0.44578427 1.5760001 195 197 199 255
0.73122793 -0.44300061 1.5660001 198 200 202 255
0.7327621 -0.44134951 1.5600001 195 199 201 255
0.73095882 -0.4377189 1.5470001 195 198 202 255
0.73098767 -0.43522087 1.5380001 197 199 201 255
0.73144794 -0.43300673 1.5300001 197 199 201 255
0.7328288 -0.43135968 1.524 198 200 202 255
0.73514718 -0.43027997 1.5200001 198 200 202 255
0.73452818 -0.42750278 1.5100001 196 197 201 255
0.73483545 -0.4252927 1.5020001 198 199 203 255
0.73068559 -0.47177029 1.6530001 191 193 195 255
0.73124957 -0.46923837 1.6440001 189 193 195 255
0.72997653 -0.46556571 1.631 192 196 198 255
0.73043579 -0.46303573 1.6220001 192 196 198 255
0.73130119 -0.46079215 1.6140001 193 197 199 255
0.73349309 -0.4594062 1.6090001 194 196 198 255
0.73290831 -0.45630801 1.598 194 196 198 255
0.73226589 -0.45321077 1.5870001 193 195 197 255
0.73295808 -0.45097116 1.5790001 196 198 200 255
0.73220813 -0.44787565 1.5680001 196 198 198 255
0.73280966 -0.44563794 1.5600001 195 197 197 255
0.73147988 -0.44225842 1.5480001 196 198 198 255
0.73151273 -0.43973684 1.539 196 198 198 255
0.73149896 -0.43721622 1.5300001 198 200 202 255
0.73191941 -0.43498239 1.5220001 197 199 201 255
0.73326617 -0.43332109 1.516 196 198 200 255
0.73263723 -0.43051746 1.506 196 198 200 255
0.729671 -0.47857216 1.6610001 191 193 195 255
0.73072249 -0.47630394 1.6530001 190 194 196 255
0.730398 -0.47317216 1.6420001 189 193 195 255
0.72867286 -0.46917665 1.628 187 191 193 255
0.73047602 -0.46748763 1.6220001 190 194 196 255
0.73307997 -0.46353638 1.608 191 195 197 255
0.73203498 -0.46012089 1.5960001 194 196 198 255
0.73184943 -0.45728284 1.5860001 195 197 199 255
0.73346853 -0.45559907 1.58 196 198 200 255
0.73365653 -0.45305133 1.5710001 196 198 198 255
0.73379797 -0.45050448 1.562 196 198 198 255
0.73200232 -0.44680482 1.549 195 197 197 255
0.73156381 -0.44397131 1.539 197 199 199 255
0.73202938 -0.44171566 1.531 196 198 200 255
0.73197299 -0.43917248 1.5220001 198 200 202 255
0.73428857 -0.43807313 1.5180001 197 199 201 255
0.73366642 -0.43524331 1.508 196 198 200 255
0.730147 -0.4834187 1.6620001 189 193 193 255
0.73031831 -0.48054785 1.6520001 189 193 193 255
0.72910249 -0.47680512 1.6390001 189 193 193 255
0.72781771 -0.4730632 1.626 190 194 194 255
0.73175609 -0.46708032 1.605 191 195 197 255
0.73162133 -0.46421504 1.595 195 197 199 255
0.73189574 -0.46164179 1.5860001 193 195 197 255
0.73351616 -0.45994273 1.58 193 195 195 255
0.7337054 -0.45737144 1.5710001 197 199 199 255
0.73384792 -0.45480108 1.562 196 198 198 255
0.73347127 -0.45194048 1.552 196 198 198 255
0.7330423 -0.44908077 1.5420001 194 198 198 255
0.73399574 -0.44709581 1.5350001 197 199 201 255
0.73395175 -0.44452921 1.526 198 200 202 255
0.73579609 -0.44312891 1.521 198 200 202 255
0.7346971 -0.43998164 1.5100001 197 199 201 255
0.72780806 -0.48042291 1.636 187 191 191 255
0.72997731 -0.47031531 1.6010001 191 195 197 255
0.7321263 -0.4688926 1.5960001 193 195 197 255
0.73332763 -0.46688342 1.5890001 193 195 197 255
0.73449337 -0.46487534 1.582 193 195 195 255
0.7356236 -0.46286836 1.575 194 196 196 255
0.73436904 -0.45939291 1.5630001 193 197 197 255
0.73446894 -0.45680001 1.554 191 195 195 255
0.7326206 -0.45303223 1.5410001 194 198 198 255
0.73405081 -0.45132318 1.5350001 196 198 200 255
0.73448896 -0.44902718 1.5270001 196 198 200 255
0.73585385 -0.44732037 1.521 198 200 202 255
0.73475605 -0.4441441 1.5100001 198 200 202 255
0.72920805 -0.47704157 1.6090001 191 195 195 255
0.73230332 -0.47619826 1.6060001 190 194 194 255
0.73446751 -0.47476313 1.6010001 193 195 195 255
0.734761 -0.47214299 1.5920001 194 196 196 255
0.73361486 -0.46863398 1.58 194 196 196 255
0.73427373 -0.46631229 1.572 193 195 195 255
0.73301196 -0.46280497 1.5600001 195 197 197 255
0.73357749 -0.46048522 1.552 197 199 199 255
0.73172462 -0.45668277 1.539 193 197 199 255
0.73554188 -0.45644239 1.5380001 195 197 199 255
0.73502773 -0.45353213 1.5280001 198 199 203 255
0.73639673 -0.45181015 1.5220001 197 199 201 255
0.73481631 -0.44830805 1.5100001 196 198 200 255
0.73513007 -0.44599432 1.5020001 197 199 201 255
0.72715414 -0.50120932 1.6760001 189 193 193 255
0.7265439 -0.49765933 1.664 189 193 193 255
0.7280671 -0.49560574 1.6570001 189 193 193 255
0.72929734 -0.48441017 1.6190001 186 191 188 255
0.73016059 -0.48206255 1.6110001 188 193 190 255
0.73189467 -0.48031443 1.605 191 195 195 255
0.73451626 -0.47916609 1.6010001 194 196 196 255
0.73388791 -0.47592381 1.59 193 195 195 255
0.73320186 -0.47268239 1.5790001 196 198 198 255
0.73385918 -0.47033992 1.5710001 193 197 197 255
0.73353565 -0.46739969 1.5610001 196 198 198 255
0.73410529 -0.46505922 1.5530001 197 199 199 255
0.73225623 -0.46122229 1.5400001 192 196 196 255
0.73368645 -0.45948282 1.534 195 199 201 255
0.73220026 -0.4559471 1.5220001 198 199 203 255
0.73500556 -0.45510858 1.5190001 198 200 202 255
0.73487788 -0.45247352 1.5100001 197 199 201 255
0.73617196 -0.45073849 1.5040001 198 200 202 255
0.72387207 -0.52668208 1.7460001 186 191 188 255
0.72736192 -0.51565391 1.7090001 186 191 188 255
0.73159581 -0.49037004 1.6240001 190 195 192 255
0.73111445 -0.4870958 1.613 189 194 191 255
0.73239952 -0.48503056 1.6060001 190 195 192 255
0.73273122 -0.4823623 1.5970001 191 195 195 255
0.73255455 -0.47939298 1.5870001 189 193 193 255
0.73232555 -0.47642455 1.577 191 195 195 255
0.73251146 -0.47375914 1.5680001 194 199 196 255
0.73265082 -0.4710947 1.559 192 197 194 255
0.73416167 -0.46933794 1.5530001 196 198 198 255
0.73374045 -0.46637335 1.5430001 194 196 196 255
0.73422372 -0.46401417 1.5350001 193 197 197 255
0.73274153 -0.4604468 1.5230001 197 199 201 255
0.73458338 -0.45899662 1.5180001 195 199 201 255
0.73445415 -0.45633811 1.5090001 194 198 200 255
0.73574692 -0.45458791 1.503 194 198 200 255
0.72887003 -0.4990072 1.6380001 189 194 191 255
0.72982681 -0.49661604 1.6300001 191 196 193 255
0.73074228 -0.49422592 1.6220001 189 194 191 255
0.73025662 -0.49092269 1.6110001 189 193 193 255
0.73016912 -0.48792505 1.6010001 190 194 194 255
0.73094708 -0.48553798 1.5930001 190 194 194 255
0.73168379 -0.48315194 1.585 191 195 195 255
0.7314505 -0.4801572 1.575 179 183 183 255
0.73116499 -0.47716337 1.5650001 193 198 195 255
0.73176718 -0.47478038 1.557 194 199 196 255
0.7323283 -0.47239834 1.549 194 198 198 255
0.73332387 -0.4703224 1.5420001 194 198 198 255
0.73189229 -0.46672237 1.5300001 193 197 197 255
0.73232192 -0.46434334 1.5220001 193 197 199 255
0.73271048 -0.46196535 1.5140001 194 198 200 255
0.73354506 -0.45989367 1.5070001 195 199 201 255
0.72987413 -0.50109792 1.6300001 189 194 191 255
0.73079097 -0.49868706 1.6220001 190 195 192 255
0.73166645 -0.49627733 1.6140001 191 195 195 255
0.73113245 -0.49294609 1.603 191 195 195 255
0.73145837 -0.49023077 1.5940001 191 195 195 255
0.73127586 -0.48720887 1.5840001 190 195 192 255
0.73150551 -0.48449555 1.575 190 195 192 255
0.73028678 -0.48086023 1.5630001 190 195 192 255
0.73135471 -0.47876409 1.5560001 193 198 195 255
0.73238724 -0.47666913 1.549 194 199 196 255
0.73481107 -0.47549856 1.5450001 195 199 199 255
0.73386741 -0.4721747 1.534 194 198 198 255
0.73382843 -0.46946737 1.5250001 194 198 198 255
0.73229086 -0.46583733 1.5130001 194 198 198 255
0.73215038 -0.46313179 1.5040001 193 197 197 255
0.73017412 -0.51199818 1.651 187 192 189 255
0.72992283 -0.50558138 1.6300001 189 194 191 255
0.72993982 -0.50252938 1.6200001 190 195 192 255
0.73035765 -0.49978858 1.6110001 191 195 195 255
0.72981662 -0.49642831 1.6 189 193 193 255
0.72967649 -0.49337912 1.59 191 196 193 255
0.72994578 -0.4906413 1.5810001 189 194 191 255
0.73016846 -0.48790437 1.572 190 195 192 255
0.73034436 -0.48516846 1.5630001 192 196 196 255
0.73188382 -0.48336488 1.557 192 196 196 255
0.73292041 -0.48125201 1.5500001 192 196 196 255
0.734873 -0.47976133 1.5450001 193 197 197 255
0.73393059 -0.47640854 1.534 195 199 199 255
0.73389292 -0.47367787 1.5250001 192 196 196 255
0.7318725 -0.46970546 1.5120001 191 195 195 255
0.73270422 -0.46759784 1.5050001 193 197 197 255
0.72908968 -0.50636208 1.618 187 192 189 255
0.72950333 -0.50359786 1.6090001 191 195 195 255
0.72895801 -0.50020856 1.598 190 194 194 255
0.72954041 -0.49468485 1.58 190 195 192 255
0.7292971 -0.49161139 1.5700001 190 195 192 255
0.73087066 -0.48979145 1.5640001 191 195 195 255
0.73429471 -0.48922563 1.562 192 196 196 255
0.73676544 -0.48803475 1.5580001 192 196 196 255
0.73636335 -0.48496565 1.5480001 192 196 196 255
0.73590916 -0.48189744 1.5380001 192 196 196 255
0.7349214 -0.47851673 1.5270001 192 196 196 255
0.7343601 -0.47545025 1.5170001 193 197 197 255
0.73374665 -0.4723846 1.5070001 193 197 197 255
0.72914225 -0.51081687 1.618 188 192 192 255
0.72955716 -0.50802916 1.6090001 189 193 193 255
0.72992533 -0.50524241 1.6 188 193 190 255
0.72978795 -0.502141 1.59 190 195 192 255
0.7300598 -0.49935621 1.5810001 189 194 191 255
0.72982055 -0.49625659 1.5710001 190 195 192 255
0.73233306 -0.49505341 1.567 191 196 193 255
0.7338866 -0.49321976 1.5610001 190 195 192 255
0.73588318 -0.49170333 1.5560001 191 195 195 255
0.73500103 -0.48829189 1.5450001 194 196 196 255
0.73453981 -0.48519742 1.5350001 192 196 196 255
0.73402625 -0.48210379 1.5250001 192 196 196 255
0.73442894 -0.47964343 1.5170001 192 196 196 255
0.73430365 -0.47686782 1.508 191 195 195 255
0.728733 -0.51808542 1.6270001 190 194 194 255
0.72874534 -0.51495475 1.6170001 187 191 191 255
0.73142618 -0.51373613 1.613 190 192 192 255
0.73180687 -0.51092613 1.6040001 190 193 190 255
0.73122269 -0.50748003 1.5930001 190 195 192 255
0.73196614 -0.50499058 1.585 189 194 191 255
0.73173934 -0.50186497 1.575 189 194 191 255
0.73379713 -0.50033367 1.5700001 190 195 192 255
0.73395008 -0.49752891 1.5610001 191 196 193 255
0.73500216 -0.49536255 1.554 192 197 194 255
0.73506737 -0.49255979 1.5450001 193 195 195 255
0.7350859 -0.48975796 1.536 191 195 195 255
0.73409522 -0.48631936 1.5250001 190 194 194 255
0.73353094 -0.48320058 1.5150001 191 195 195 255
0.73340154 -0.48040158 1.506 193 197 197 255
0.72948718 -0.52952534 1.649 188 192 192 255
0.72827566 -0.52540326 1.636 188 192 192 255
0.72923481 -0.52288789 1.628 189 193 193 255
0.7306034 -0.52069479 1.6210001 188 193 190 255
0.73329675 -0.51946664 1.6170001 190 192 192 255
0.73277748 -0.51599085 1.6060001 189 193 193 255
0.73220015 -0.5125159 1.595 189 194 191 255
0.73156506 -0.50904185 1.5840001 189 193 193 255
0.73273069 -0.5068543 1.577 189 193 193 255
0.73292583 -0.50402498 1.5680001 192 197 194 255
0.73213404 -0.50055373 1.557 193 196 193 255
0.73223048 -0.49772632 1.5480001 191 195 195 255
0.73370767 -0.49586469 1.5420001 189 193 193 255
0.73515511 -0.49400422 1.536 191 195 195 255
0.73416567 -0.49053678 1.5250001 192 196 196 255
0.73263431 -0.4867484 1.5130001 191 195 195 255
0.73201352 -0.48360416 1.503 192 196 196 255
0.72998232 -0.53439009 1.6500001 187 192 189 255
0.72788447 -0.52958584 1.6350001 186 190 190 255
0.72929007 -0.52737367 1.628 188 193 190 255
0.72975868 -0.52451479 1.6190001 189 194 191 255
0.73244798 -0.52327698 1.6150001 189 193 193 255
0.73146808 -0.51944816 1.603 188 193 190 255
0.73252332 -0.50803125 1.567 190 195 192 255
0.7317301 -0.50453109 1.5560001 191 196 193 255
0.7327711 -0.50232881 1.549 190 195 192 255
0.73377681 -0.50012779 1.5420001 192 197 194 255
0.7352258 -0.49825236 1.536 190 195 192 255
0.73520058 -0.4954049 1.5270001 192 197 194 255
0.735129 -0.49255842 1.5180001 195 198 195 255
0.73354948 -0.48873934 1.506 193 195 195 255
0.73296124 -0.52805835 1.6160001 190 195 192 255
0.732898 -0.5248515 1.6060001 189 194 191 255
0.73053563 -0.51392907 1.572 190 195 192 255
0.73025215 -0.51072592 1.562 189 194 191 255
0.73038691 -0.50785071 1.5530001 191 196 193 255
0.73094791 -0.50530344 1.5450001 191 196 193 255
0.73194391 -0.50308448 1.5380001 188 193 190 255
0.73386198 -0.50152099 1.5330001 189 194 191 255
0.73479277 -0.49930441 1.526 192 197 194 255
0.7361728 -0.49741632 1.5200001 193 196 193 255
0.73460013 -0.49356565 1.508 194 196 196 255
0.73045594 -0.51214486 1.5530001 190 195 192 255
0.73101848 -0.5095771 1.5450001 191 196 193 255
0.73106408 -0.50668055 1.536 192 197 194 255
0.73249936 -0.50477481 1.5300001 191 196 193 255
0.73294181 -0.50221032 1.5220001 192 195 192 255
0.73528075 -0.50096709 1.5180001 192 195 192 255
0.73467827 -0.49774489 1.508 193 196 193 255
0.73500359 -0.49518383 1.5000001 193 196 193 255
0.73085684 -0.51969546 1.5630001 191 196 193 255
0.73052669 -0.51644099 1.5530001 190 195 192 255
0.73014432 -0.51318753 1.5430001 190 195 192 255
0.7320897 -0.51159817 1.5380001 191 196 192 255
0.73257464 -0.5090121 1.5300001 191 196 192 255
0.73398167 -0.50709254 1.524 194 197 194 255
0.73439026 -0.50450879 1.516 192 195 192 255
0.73427081 -0.50159329 1.5070001 195 198 195 255
0.73106945 -0.52107441 1.554 189 194 191 255
0.73116446 -0.51813024 1.5450001 190 195 192 255
0.73311716 -0.51652879 1.5400001 190 195 192 255
0.73313022 -0.51358682 1.531 190 195 191 255
0.73406011 -0.5113169 1.524 191 196 193 255
0.73398578 -0.50837713 1.5150001 193 196 193 255
0.73435229 -0.5057739 1.5070001 192 197 194 255
0.73053253 -0.52800763 1.562 189 194 191 255
0.7306729 -0.52503914 1.5530001 191 196 193 255
0.73076659 -0.52207166 1.544 189 194 191 255
0.73319417 -0.52079606 1.5400001 190 195 192 255
0.73320878 -0.51783091 1.531 190 195 191 255
0.73462188 -0.51588154 1.5250001 193 198 195 255
0.73503643 -0.51325685 1.5170001 191 196 193 255
0.73638475 -0.5113101 1.511 191 196 193 255
0.73181313 -0.53634816 1.5740001 188 193 190 255
0.73247761 -0.53369629 1.5660001 190 195 192 255
0.73310113 -0.53104556 1.5580001 189 194 191 255
0.73321033 -0.52805507 1.549 190 195 191 255
0.73517752 -0.52642941 1.544 190 195 191 255
0.73376793 -0.52241814 1.5320001 191 196 192 255
0.73374021 -0.5194307 1.5230001 192 197 194 255
0.73415071 -0.51678544 1.5150001 191 196 193 255
0.73598242 -0.51516479 1.5100001 191 196 193 255
0.73533916 -0.51183951 1.5000001 191 196 193 255
0.73142266 -0.54036373 1.5730001 188 193 190 255
0.73442471 -0.5394091 1.5700001 191 196 193 255
0.73518288 -0.53372461 1.5530001 188 193 189 255
0.73478198 -0.53036833 1.5430001 187 192 188 255
0.73432893 -0.527013 1.5330001 192 197 193 255
0.73286009 -0.52297097 1.521 189 194 191 255
0.73326653 -0.52030516 1.5130001 192 197 194 255
0.73509431 -0.51867223 1.508 192 197 194 255
0.73542738 -0.51600879 1.5000001 194 197 194 255
0.72755724 -0.54499239 1.5740001 188 193 190 255
0.73149872 -0.54472208 1.5730001 188 193 190 255
0.73590612 -0.54480004 1.5730001 189 194 190 255
0.73763108 -0.53976494 1.5580001 190 195 191 255
0.73724562 -0.53638297 1.5480001 190 195 191 255
0.73537087 -0.53196222 1.5350001 189 194 190 255
0.73294526 -0.52719551 1.521 190 195 191 255
0.73286843 -0.52416253 1.5120001 190 195 192 255
0.73372024 -0.52182406 1.5050001 192 195 192 255
0.7355175 -0.5201804 1.5000001 191 194 191 255
0.72717094 -0.54900509 1.5730001 189 194 191 255
0.7354247 -0.53928411 1.544 190 195 191 255
0.73354006 -0.53482878 1.531 189 194 190 255
0.7320683 -0.53072357 1.5190001 191 194 190 255
0.73392642 -0.52906507 1.5140001 192 195 192 255
0.73429799 -0.52635956 1.506 192 195 192 255
0.7299841 -0.54895228 1.5600001 189 194 190 255
0.73295069 -0.54797912 1.557 188 193 189 255
0.73543084 -0.54665565 1.5530001 189 194 190 255
0.73551065 -0.54357344 1.544 189 194 190 255
0.73362732 -0.5390839 1.531 189 194 190 255
0.73360288 -0.53600359 1.5220001 191 196 192 255
0.73595619 -0.53468549 1.5180001 190 195 192 255
0.7358529 -0.53160751 1.5090001 190 195 192 255
0.73053473 -0.5536378 1.5610001 189 194 190 255
0.73068112 -0.55052978 1.552 188 193 189 255
0.73172814 -0.54813242 1.5450001 189 194 190 255
0.73321635 -0.54609108 1.539 189 194 190 255
0.73323721 -0.54298651 1.5300001 190 195 192 255
0.73465765 -0.54094779 1.524 189 194 191 255
0.73556381 -0.53855556 1.5170001 190 195 191 255
0.73497158 -0.53509921 1.5070001 191 196 193 255
0.7320233 -0.55904597 1.5640001 188 193 189 255
0.72982532 -0.55412745 1.5500001 189 194 190 255
0.73086846 -0.55171233 1.5430001 190 195 191 255
0.73378223 -0.55072898 1.5400001 187 192 189 255
0.73428673 -0.54795897 1.5320001 187 192 189 255
0.73523253 -0.54554784 1.5250001 190 195 191 255
0.73420328 -0.54170674 1.5140001 191 196 192 255
0.73506743 -0.53929794 1.5070001 189 194 190 255
0.73351395 -0.56447327 1.567 186 193 189 255
0.73132581 -0.55951792 1.5530001 185 192 188 255
0.73237908 -0.55708534 1.5460001 189 194 190 255
0.73482656 -0.55573529 1.5420001 188 193 190 255
0.73485893 -0.55258453 1.5330001 189 194 190 255
0.73532706 -0.54979539 1.5250001 190 195 191 255
0.73526937 -0.54664671 1.516 189 194 190 255
0.7356531 -0.54385984 1.508 189 194 190 255
0.73648661 -0.54143482 1.501 191 196 192 255
0.73219794 -0.56774175 1.5640001 185 192 188 255
0.73141551 -0.5638383 1.5530001 184 189 185 255
0.73199666 -0.56102502 1.5450001 188 193 189 255
0.73444325 -0.55966562 1.5410001 189 194 190 255
0.73447442 -0.55649167 1.5320001 189 194 190 255
0.73494136 -0.55368209 1.524 188 193 189 255
0.73439741 -0.55014694 1.5140001 190 195 191 255
0.73526502 -0.54770303 1.5070001 189 194 190 255
0.73658818 -0.54562384 1.501 189 194 190 255
0.73103607 -0.56779522 1.552 181 188 184 255
0.73358512 -0.563227 1.539 188 193 189 255
0.73457122 -0.56076193 1.5320001 185 192 188 255
0.73600441 -0.55866414 1.526 188 193 189 255
0.73595279 -0.55546939 1.5170001 189 194 190 255
0.73634273 -0.55264187 1.5090001 189 194 190 255
0.73669177 -0.54981548 1.501 189 194 191 255
0.73320538 -0.56714857 1.5380001 185 192 188 255
0.73371089 -0.56429714 1.5300001 187 195 188 255
0.734658 -0.56181562 1.5230001 189 194 190 255
0.73411423 -0.55822855 1.5130001 189 194 190 255
0.73595864 -0.55648756 1.508 188 193 189 255
0.73275632 -0.57431191 1.5460001 187 192 188 255
0.73473477 -0.57255358 1.5410001 188 193 189 255
0.73429108 -0.56893861 1.531 188 193 189 255
0.73572522 -0.56681144 1.5250001 189 194 190 255
0.73567408 -0.56357038 1.516 189 194 190 255
0.73752886 -0.56181765 1.511 189 194 191 255
0.73739612 -0.55857903 1.5020001 189 194 191 255
0.73380357 -0.57937366 1.5480001 187 192 188 255
0.7353127 -0.5772292 1.5420001 188 193 189 255
0.73439384 -0.57321405 1.531 187 192 188 255
0.73438227 -0.56994867 1.5220001 188 193 189 255
0.73286825 -0.56556082 1.5100001 188 193 189 255
0.73421979 -0.56342107 1.5040001 187 192 188 255
0.73652405 -0.56203234 1.5000001 189 194 191 255
0.73295683 -0.58294117 1.5460001 187 192 188 255
0.73541594 -0.58153611 1.5420001 185 190 186 255
0.73593789 -0.57862389 1.534 187 192 188 255
0.73545396 -0.5749585 1.524 188 193 189 255
0.73394698 -0.57053924 1.5120001 186 191 187 255
0.7343297 -0.56763023 1.5040001 165 170 166 255
0.73701066 -0.58036238 1.5270001 188 194 187 255
0.73648459 -0.57667208 1.5170001 187 193 186 255
0.73492998 -0.57222241 1.5050001 167 172 168 255
0.73474461 -0.59978873 1.5680001 184 190 183 255
0.7376045 -0.58502024 1.5280001 186 192 185 255
0.73902524 -0.58283603 1.5220001 186 192 185 255
0.73699778 -0.57797217 1.5090001 183 191 184 255
0.73735744 -0.57502431 1.501 187 194 190 255
0.73484904 -0.60417062 1.5680001 184 190 183 255
0.73626947 -0.58814406 1.5250001 184 192 185 255
0.737198 -0.58555925 1.5180001 186 194 187 255
0.73760313 -0.58259016 1.5100001 185 192 188 255
0.73747599 -0.57923615 1.501 184 192 185 255
0.73590189 -0.592031 1.524 184 192 185 255
0.73682958 -0.58942884 1.5170001 186 194 187 255
0.73625648 -0.58566213 1.5070001 186 194 187 255
0.73808837 -0.58383977 1.5020001 183 191 184 255
0.73698533 -0.59708935 1.526 185 193 186 255
0.73646319 -0.59329593 1.516 184 192 185 255
0.73588902 -0.58950335 1.506 186 193 189 255
0.73722863 -0.58727771 1.5000001 185 193 186 255
0.73855436 -0.60255629 1.529 187 193 186 255
0.73804247 -0.59873724 1.5190001 184 192 185 255
0.73601234 -0.59373641 1.506 184 190 183 255
0.73784554 -0.59189051 1.501 184 192 185 255
0.73865485 -0.61030149 1.5380001 182 190 183 255
0.73771065 -0.60605884 1.5270001 183 191 184 255
0.7391386 -0.60380179 1.521 184 192 185 255
0.73831862 -0.61075258 1.5280001 184 192 185 255
0.73957884 -0.60154313 1.5040001 184 192 185 255
0.73746204 -0.61774278 1.5350001 183 191 184 255
0.73747927 -0.61424774 1.526 184 192 185 255
0.74085301 -0.61357212 1.524 183 191 184 255
0.73981953 -0.60927451 1.5130001 183 191 184 255
0.73971182 -0.6057831 1.5040001 184 192 185 255
0.73418051 -0.62274665 1.5370001 180 188 181 255
0.73614812 -0.620848 1.5320001 182 189 185 255
0.73809212 -0.61895126 1.5270001 184 192 185 255
0.73904002 -0.61624533 1.5200001 183 191 184 255
0.73848587 -0.61232436 1.5100001 183 191 184 255
0.73917413 -0.62053269 1.5200001 184 192 185 255
0.73911095 -0.61699426 1.511 184 192 185 255
0.73900127 -0.6134569 1.5020001 182 189 185 255
0.73979706 -0.62523454 1.521 182 190 183 255
0.73973858 -0.62167335 1.5120001 184 189 185 255
0.73914164 -0.61770207 1.5020001 183 190 186 255
0.73977679 -0.622365 1.503 186 191 187 255
0.73790491 -0.65281343 1.5150001 182 187 183 255
0.73980278 -0.65081608 1.5100001 182 187 183 255
0.74216998 -0.64925164 1.506 184 190 183 255
0.74331838 -0.65440828 1.508 185 191 184 255
0.7441892 -0.65153557 1.501 183 188 184 255
0.7415961 -0.66072494 1.5130001 181 187 180 255
0.74447018 -0.65958077 1.5100001 182 187 183 255
0.74386132 -0.65538049 1.5000001 183 188 184 255
0.74470377 -0.66767675 1.5190001 180 186 179 255
0.7466116 -0.66564828 1.5140001 181 186 182 255
0.74502432 -0.66054344 1.5020001 182 187 183 255
0.74440241 -0.67538166 1.5270001 173 179 172 255
0.74781585 -0.67466754 1.5250001 179 185 178 255
0.74777049 -0.67085838 1.516 183 188 184 255
0.74619067 -0.66572243 1.5040001 182 187 183 255
0.74736065 -0.67091763 1.506 180 186 179 255
0.74474663 -0.68410784 1.5270001 180 186 179 255
0.7480377 -0.69167483 1.524 181 187 180 255
0.74947947 -0.6891371 1.5180001 181 186 182 255
0.74724185 -0.69513625 1.5220001 182 187 183 255
0.74966812 -0.69349796 1.5180001 181 186 182 255
0.74959344 -0.68957704 1.5090001 180 185 182 255
0.74449623 -0.70069987 1.5250001 181 186 182 255
0.74743086 -0.69951051 1.5220001 180 185 181 255
0.74936604 -0.69740427 1.5170001 182 187 183 255
0.75127828 -0.6953001 1.5120001 180 185 182 255
0.7393018 -0.72033238 1.5600001 176 184 177 255
0.75047421 -0.71460217 1.5460001 181 186 182 255
0.74859208 -0.70878351 1.5330001 180 185 181 255
0.74664074 -0.70296502 1.5200001 180 185 181 255
0.74857295 -0.70084745 1.5150001 179 184 180 255
0.75346422 -0.70150846 1.516 180 185 181 255
0.75336844 -0.69754457 1.5070001 181 186 182 255
0.73971218 -0.72927147 1.5700001 173 181 174 255
0.74232626 -0.72759438 1.5660001 176 184 177 255
0.74444598 -0.72545493 1.5610001 174 182 175 255
0.74523711 -0.71792752 1.544 178 185 181 255
0.7492094 -0.71765405 1.5430001 179 184 180 255
0.74732047 -0.71180099 1.5300001 180 185 181 255
0.74585354 -0.70641339 1.5180001 179 184 180 255
0.74679422 -0.70335352 1.511 178 183 179 255
0.75316906 -0.70541722 1.5150001 178 183 179 255
0.75257266 -0.70096493 1.5050001 180 185 181 255
0.74391782 -0.74649686 1.598 172 180 173 255
0.74241161 -0.74060386 1.585 171 179 172 255
0.74415582 -0.72947294 1.5600001 174 181 177 255
0.74481243 -0.72592127 1.552 178 185 181 255
0.74253196 -0.71956384 1.5380001 176 183 179 255
0.74503309 -0.71788609 1.534 179 184 180 255
0.74507427 -0.71387023 1.5250001 177 182 178 255
0.74556065 -0.71032375 1.5170001 176 181 177 255
0.74798417 -0.70865226 1.5130001 175 180 176 255
0.75237978 -0.70885718 1.5130001 180 185 181 255
0.75227988 -0.70484787 1.5040001 179 184 180 255
0.73722833 -0.81661427 1.743 162 170 163 255
0.73897713 -0.74591094 1.5870001 171 179 172 255
0.74212623 -0.74468392 1.5840001 171 179 172 255
0.74530029 -0.73490226 1.562 174 181 177 255
0.74404496 -0.72944868 1.5500001 175 182 178 255
0.74031162 -0.72164178 1.5330001 175 182 178 255
0.74182963 -0.71901357 1.5270001 179 184 180 255
0.74429631 -0.71732932 1.5230001 179 184 180 255
0.75313658 -0.72177213 1.5320001 177 182 178 255
0.75165057 -0.71632439 1.5200001 180 185 181 255
0.75209081 -0.71276259 1.5120001 177 182 178 255
0.75048947 -0.70731604 1.5000001 179 184 180 255
0.7383408 -0.82801574 1.7570001 162 170 163 255
0.73847628 -0.81748366 1.7340001 162 169 165 255
0.74201417 -0.75784993 1.603 169 176 172 255
0.74102354 -0.75236064 1.5910001 171 179 172 255
0.74371845 -0.75065577 1.5870001 172 180 173 255
0.74358493 -0.73750836 1.5580001 175 182 178 255
0.74472088 -0.73439062 1.5510001 172 179 176 255
0.74340677 -0.72890633 1.539 175 182 178 255
0.74737465 -0.72863382 1.5380001 178 183 179 255
0.75036496 -0.72741681 1.5350001 178 183 179 255
0.75186878 -0.7247805 1.529 177 182 178 255
0.74889213 -0.7178787 1.5140001 178 183 179 255
0.74931741 -0.71429646 1.506 178 183 179 255
0.74092221 -0.83032644 1.751 159 166 162 255
0.74266458 -0.76750177 1.6140001 168 175 171 255
0.74544048 -0.76578581 1.6100001 170 177 173 255
0.74540353 -0.76121753 1.6 169 176 172 255
0.74531472 -0.75665033 1.59 172 179 175 255
0.74894685 -0.7558921 1.5880001 173 180 176 255
0.74972624 -0.75228012 1.58 171 178 174 255
