ply
format ascii 1.0
comment PCL generated
element vertex 998
property float x
property float y
property float z
property uchar red
property uchar green
property uchar blue
property uchar alpha
element camera 0
property float view_px
property float view_py
property float view_pz
property float x_axisx
property float x_axisy
property float x_axisz
property float y_axisx
property float y_axisy
property float y_axisz
property float z_axisx
property float z_axisy
property float z_axisz
property float focal
property float scalex
property float scaley
property float centerx
property float centery
property int viewportx
property int viewporty
property float k1
property float k2
end_header
-0.18378268 0.23259835 1.5600001 164 175 146 255
-0.17928459 0.23231159 1.5580001 166 177 148 255
-0.17502147 0.2323228 1.5580001 160 171 142 255
-0.17053862 0.23203556 1.5560001 155 166 135 255
-0.16627985 0.23204632 1.5560001 162 173 142 255
-0.1619164 0.23190773 1.5550001 160 171 140 255
-0.15765928 0.23191799 1.5550001 160 171 140 255
-0.15310566 0.23148061 1.552 154 165 134 255
-0.1488557 0.2314904 1.552 162 170 144 255
-0.1446984 0.23164913 1.5530001 189 188 164 255
-0.14062554 0.23195677 1.5550001 32 27 6 255
-0.13654123 0.23226421 1.557 62 48 29 255
-0.13202073 0.2318255 1.554 74 57 37 255
-0.12776285 0.23183407 1.554 85 64 44 255
-0.12342503 0.23169321 1.5530001 83 62 42 255
-0.11901553 0.2314029 1.5510001 88 67 47 255
-0.11461657 0.23111224 1.549 93 72 52 255
-0.11008564 0.23052296 1.5450001 97 76 56 255
-0.10585029 0.23053016 1.5450001 98 76 58 255
-0.10148302 0.23023869 1.5430001 94 72 54 255
-0.097189389 0.23009615 1.5420001 91 69 51 255
-0.092900887 0.22995338 1.5410001 91 69 51 255
-0.08855997 0.22966102 1.539 93 73 55 255
-0.084284507 0.22951764 1.5380001 89 70 50 255
-0.079910107 0.22907555 1.5350001 89 70 50 255
-0.075699806 0.22908083 1.5350001 87 68 48 255
-0.071442656 0.2289366 1.534 90 71 51 255
-0.067278385 0.22909056 1.5350001 98 79 59 255
-0.063108377 0.22924425 1.536 83 61 43 255
-0.05893264 0.2293977 1.5370001 76 54 36 255
-0.054751191 0.22955082 1.5380001 77 56 36 255
-0.050596915 0.22985296 1.5400001 71 52 32 255
-0.046521798 0.23060255 1.5450001 72 53 33 255
-0.042336971 0.23090415 1.5470001 73 54 34 255
-0.038116384 0.23105618 1.5480001 68 51 31 255
-0.033846404 0.23090938 1.5470001 67 50 31 255
-0.029677454 0.23150863 1.5510001 62 45 26 255
-0.025486439 0.23210758 1.5550001 57 42 23 255
-0.021273373 0.23270626 1.559 56 40 24 255
-0.017038267 0.23330466 1.5630001 59 43 27 255
-0.012813766 0.23449983 1.5710001 61 45 29 255
-0.0085669514 0.23629178 1.5830001 67 53 36 255
-0.0042649028 0.23868053 1.5990001 68 56 39 255
0.44657919 0.25558272 1.72 69 77 70 255
0.45045954 0.25511888 1.7170001 66 74 67 255
0.45405808 0.25450656 1.7130001 74 82 75 255
0.45763439 0.25389445 1.7090001 77 83 76 255
0.46118844 0.25328243 1.705 76 82 75 255
0.46553999 0.25311628 1.7040001 75 81 74 255
0.47016147 0.25309876 1.7040001 70 76 69 255
0.47478253 0.25308132 1.7040001 69 77 70 255
0.47855917 0.25261846 1.7010001 71 79 72 255
0.48203507 0.25200728 1.697 70 78 70 255
0.48606241 0.25169331 1.6950001 76 84 76 255
0.48949963 0.25108257 1.6910001 76 84 76 255
0.49408352 0.25106588 1.6910001 76 84 76 255
0.49778241 0.250604 1.6880001 80 88 81 255
0.50205994 0.25043917 1.687 76 84 77 255
0.5048303 0.2495324 1.6810001 71 79 72 255
0.50817376 0.24892272 1.677 67 75 68 255
0.51149541 0.24831329 1.6730001 72 80 73 255
0.51633751 0.24844621 1.674 77 85 78 255
0.72219372 0.27270412 1.84 157 165 158 255
0.7216596 0.27062351 1.8260001 164 172 164 255
0.72025472 0.26824704 1.8100001 164 172 164 255
0.71956533 0.26616758 1.7960001 173 181 173 255
0.72041458 0.26468152 1.7860001 174 183 172 255
0.71674383 0.26156586 1.7650001 65 74 63 255
0.71214253 0.25815442 1.7420001 4 13 2 255
0.71153271 0.2562255 1.7290001 13 22 10 255
0.71665311 0.25637189 1.7300001 14 23 11 255
0.71635973 0.25459227 1.7180001 16 26 11 255
0.72019953 0.2542952 1.7160001 16 26 11 255
0.71896088 0.25222033 1.702 14 24 9 255
0.72189909 0.25162801 1.6980001 12 22 7 255
0.72267795 0.25029531 1.6890001 124 133 122 255
0.72470105 0.24940771 1.6830001 147 157 148 255
0.72495991 0.24792793 1.6730001 132 143 136 255
0.72560221 0.2465969 1.664 135 146 139 255
0.72663605 0.24541469 1.6560001 141 151 148 255
0.72806954 0.24438122 1.649 148 156 153 255
0.72902268 0.24320015 1.641 154 162 161 255
0.7281462 0.24142687 1.6290001 158 166 165 255
0.72720611 0.23965412 1.6170001 159 167 164 255
0.72574997 0.23773369 1.6040001 164 174 171 255
0.72832179 0.23714779 1.6 164 174 171 255
0.72904229 0.2359696 1.5920001 168 178 175 255
0.73018181 0.23494023 1.585 170 180 177 255
0.73082197 0.23376323 1.577 171 181 180 255
0.73235303 0.2328833 1.5710001 172 182 181 255
0.73385364 0.23200396 1.5650001 178 186 185 255
0.7343806 0.23082873 1.557 176 184 183 255
0.73534054 0.22980234 1.5500001 176 184 183 255
0.73435616 0.22818352 1.539 180 187 186 255
0.73523355 0.22715832 1.5320001 181 188 187 255
0.73559248 0.22598539 1.524 183 190 189 255
0.7359103 0.2248131 1.516 182 189 188 255
0.73472226 0.22319648 1.5050001 184 191 190 255
-0.74085242 0.24570143 1.6890001 203 208 197 255
-0.72795856 0.24293441 1.6700001 194 201 190 255
-0.72080165 0.24205913 1.664 188 198 183 255
-0.71281832 0.24089351 1.6560001 183 193 178 255
-0.70787454 0.24074677 1.6550001 175 185 168 255
-0.70208782 0.24030963 1.6520001 176 186 169 255
-0.6963191 0.23987305 1.649 174 185 166 255
-0.69056839 0.23943701 1.646 169 180 161 255
-0.68525231 0.23914699 1.6440001 167 178 159 255
-0.68119079 0.23929389 1.6450001 172 183 164 255
-0.676714 0.23929583 1.6450001 174 185 166 255
-0.67182976 0.23915277 1.6440001 170 181 162 255
-0.66614038 0.23871927 1.641 163 174 155 255
-0.66087186 0.23843175 1.6390001 159 170 151 255
-0.65601581 0.23829016 1.6380001 161 172 153 255
-0.65116638 0.238149 1.6370001 158 167 148 255
-0.64592832 0.23786283 1.6350001 153 164 145 255
-0.64109451 0.23772258 1.6340001 136 145 126 255
-0.6366567 0.23772822 1.6340001 161 170 149 255
-0.6326068 0.23787981 1.6350001 163 171 146 255
-0.62816811 0.23788628 1.6350001 158 166 141 255
-0.62373036 0.23789322 1.6350001 172 182 157 255
-0.61929321 0.23790054 1.6350001 164 174 149 255
-0.6148569 0.23790824 1.6350001 146 156 131 255
-0.61116791 0.23820737 1.6370001 144 154 129 255
-0.6067276 0.23821586 1.6370001 156 166 140 255
-0.60265571 0.23837022 1.6380001 156 165 136 255
-0.59857899 0.23852497 1.6390001 160 169 140 255
-0.59449732 0.23868006 1.6400001 161 170 141 255
-0.59077054 0.23898107 1.6420001 160 169 138 255
-0.58631921 0.23899132 1.6420001 159 168 137 255
-0.58257705 0.23929302 1.6440001 146 155 124 255
-0.57812107 0.23930395 1.6440001 169 178 147 255
-0.57401443 0.23946075 1.6450001 142 153 124 255
-0.56886399 0.23918115 1.6430001 181 192 163 255
-0.56509864 0.23948413 1.6450001 180 188 162 255
-0.56098193 0.23964182 1.646 162 170 144 255
-0.55753618 0.24009103 1.649 172 181 152 255
-0.55306822 0.24010375 1.649 157 164 133 255
-0.54893291 0.2402623 1.6500001 151 158 127 255
-0.54413247 0.24012992 1.649 160 169 140 255
-0.53999197 0.24028903 1.6500001 186 196 170 255
-0.53552151 0.24030273 1.6500001 165 175 150 255
-0.53105104 0.24031666 1.6500001 164 174 149 255
-0.52562314 0.23989385 1.6470001 168 178 152 255
-0.52021146 0.23947121 1.6440001 159 169 143 255
-0.51544338 0.23934008 1.6430001 168 178 152 255
-0.51130259 0.23950046 1.6440001 163 173 147 255
-0.50623137 0.23922403 1.6420001 167 177 152 255
-0.50147641 0.23909339 1.641 163 173 148 255
-0.49642369 0.23881724 1.6390001 168 180 155 255
-0.49198207 0.23883265 1.6390001 175 185 160 255
-0.48754013 0.23884824 1.6390001 162 172 147 255
-0.48250836 0.23857246 1.6370001 178 188 162 255
-0.4780713 0.23858832 1.6370001 173 181 155 255
-0.47276592 0.23816705 1.6340001 168 177 148 255
-0.46718979 0.23760006 1.6300001 170 179 150 255
-0.46135122 0.23688738 1.6250001 161 172 143 255
-0.45638284 0.23661202 1.623 149 158 127 255
-0.45170346 0.23648256 1.6220001 139 148 117 255
-0.44730484 0.236499 1.6220001 145 154 123 255
-0.44263268 0.2363697 1.6210001 138 147 116 255
-0.43850631 0.23653212 1.6220001 140 147 116 255
-0.43464148 0.23684046 1.6240001 146 153 122 255
-0.4305006 0.23700312 1.6250001 137 144 113 255
-0.42635363 0.23716582 1.626 138 145 114 255
-0.42220074 0.23732863 1.6270001 142 151 122 255
-0.41804191 0.2374915 1.628 155 162 133 255
-0.4138771 0.23765448 1.6290001 167 176 147 255
-0.40970629 0.23781747 1.6300001 125 134 105 255
-0.40528086 0.23783462 1.6300001 128 137 106 255
-0.4008548 0.23785181 1.6300001 145 154 123 255
-0.39667132 0.23801495 1.631 156 165 134 255
-0.39296281 0.23847002 1.6340001 161 172 141 255
-0.38923737 0.23892514 1.6370001 138 149 118 255
-0.38384956 0.23835859 1.6330001 167 177 151 255
-0.3789475 0.23808388 1.631 124 134 109 255
-0.37382603 0.23766316 1.628 163 175 152 255
-0.36917403 0.23753434 1.6270001 176 188 163 255
-0.36407843 0.23711348 1.6240001 158 170 147 255
-0.35921988 0.23683855 1.6220001 156 166 141 255
-0.35480902 0.23685557 1.6220001 137 147 121 255
-0.35018146 0.23672651 1.6210001 165 175 149 255
-0.34534532 0.23645136 1.6190001 151 161 135 255
-0.34051931 0.23617607 1.6170001 140 150 125 255
-0.33591136 0.23604678 1.6160001 139 149 126 255
-0.33130819 0.23591743 1.6150001 158 170 147 255
-0.32650727 0.23564185 1.613 168 178 153 255
-0.32131714 0.235074 1.6090001 164 176 151 255
-0.31614801 0.23450598 1.605 152 164 139 255
-0.31119427 0.23408389 1.6020001 150 163 136 255
-0.30663913 0.23395389 1.6010001 167 177 151 255
-0.30208871 0.23382381 1.6 156 169 142 255
-0.29735696 0.23354746 1.598 154 166 141 255
-0.29281873 0.23341709 1.5970001 152 164 139 255
-0.28810459 0.23314045 1.595 160 172 149 255
-0.28322276 0.2327175 1.5920001 145 157 134 255
-0.27835646 0.23229429 1.5890001 149 161 138 255
-0.27367833 0.23201714 1.5870001 137 147 122 255
-0.26934981 0.23203227 1.5870001 147 157 132 255
-0.26518756 0.23219341 1.5880001 139 149 124 255
-0.26085484 0.23220822 1.5880001 140 150 127 255
-0.25619838 0.23193045 1.5860001 148 158 135 255
-0.25139326 0.2315062 1.5830001 180 190 167 255
-0.24644776 0.23093551 1.5790001 141 151 128 255
-0.2418301 0.23065712 1.577 133 145 120 255
-0.23752387 0.23067106 1.577 138 150 125 255
-0.23351273 0.23097739 1.5790001 118 130 107 255
-0.22905456 0.23084472 1.5780001 176 188 165 255
-0.2246011 0.23071186 1.577 144 156 131 255
-0.21987309 0.2302862 1.5740001 136 148 123 255
-0.21543472 0.23015293 1.5730001 143 155 130 255
-0.21100113 0.23001942 1.572 151 164 137 255
-0.20670389 0.23003207 1.572 126 138 113 255
-0.20227721 0.22989818 1.5710001 170 180 154 255
-0.19772935 0.22961771 1.5690001 169 179 153 255
-0.19319177 0.22933701 1.567 167 177 151 255
-0.18866456 0.22905608 1.5650001 167 177 152 255
-0.18414763 0.22877489 1.5630001 169 179 153 255
-0.17975615 0.22863986 1.562 167 178 149 255
-0.17536955 0.2285046 1.5610001 167 178 149 255
-0.17087823 0.2282227 1.559 161 172 141 255
-0.16639729 0.22794054 1.557 162 173 142 255
-0.16192675 0.22765814 1.5550001 160 171 140 255
-0.15766938 0.22766829 1.5550001 161 174 145 255
-0.15321417 0.22738539 1.5530001 160 171 140 255
-0.14896123 0.22739507 1.5530001 168 176 150 255
-0.1449873 0.22784381 1.5560001 179 178 154 255
-0.14090601 0.22814587 1.5580001 40 35 14 255
-0.13672553 0.22830129 1.559 71 56 36 255
-0.13211434 0.22772424 1.5550001 80 61 41 255
-0.12777123 0.22758627 1.554 90 67 47 255
-0.12343317 0.22744802 1.5530001 85 62 42 255
-0.11902338 0.22716303 1.5510001 91 70 50 255
-0.11469816 0.22702427 1.5500001 99 77 59 255
-0.11009294 0.2262993 1.5450001 103 81 63 255
-0.1056518 0.22586702 1.5420001 102 80 62 255
-0.10135826 0.22572741 1.5410001 101 79 61 255
-0.097069837 0.22558749 1.5400001 104 82 64 255
-0.092846833 0.22559382 1.5400001 98 76 58 255
-0.088450827 0.22516038 1.5370001 98 78 60 255
-0.084180571 0.22501963 1.536 90 71 51 255
-0.079811372 0.22458567 1.5330001 89 70 50 255
-0.075606287 0.22459088 1.5330001 86 67 47 255
-0.071494065 0.22488882 1.5350001 83 64 44 255
-0.067326777 0.22503999 1.536 77 58 38 255
-0.063153751 0.22519092 1.5370001 79 58 38 255
-0.058936652 0.22519505 1.5370001 75 54 34 255
-0.054754928 0.2253454 1.5380001 74 53 33 255
-0.050501797 0.22520244 1.5370001 73 54 34 255
-0.04637441 0.22564527 1.5400001 72 53 31 255
-0.042175654 0.22579481 1.5410001 73 54 32 255
-0.037971243 0.22594407 1.5420001 68 51 31 255
-0.033739317 0.22594649 1.5420001 65 48 28 255
-0.029564673 0.22638825 1.5450001 65 50 30 255
-0.025422625 0.22726929 1.5510001 69 54 35 255
-0.021220244 0.22785699 1.5550001 68 54 37 255
-0.017017633 0.22873752 1.5610001 60 46 29 255
-0.012790175 0.22976427 1.5680001 54 38 22 255
-0.0085404785 0.2312303 1.5780001 59 45 28 255
-0.0042438558 0.2331357 1.5910001 70 55 40 255
0.4045631 0.25105637 1.72 85 93 85 255
0.40923613 0.25103819 1.72 82 90 82 255
0.41414917 0.25116596 1.7210001 81 89 81 255
0.4180935 0.25070998 1.7180001 76 84 76 255
0.42275912 0.25069186 1.7180001 74 82 74 255
0.42767289 0.25081965 1.7190001 68 76 69 255
0.43259147 0.25094745 1.72 66 74 67 255
0.43751481 0.2510753 1.7210001 61 69 61 255
0.44218612 0.25105727 1.7210001 68 76 69 255
0.44659722 0.25089344 1.72 70 78 71 255
0.45047748 0.25043795 1.7170001 67 75 67 255
0.45381084 0.24969089 1.7120001 70 78 71 255
0.45818767 0.24952736 1.7110001 70 78 71 255
0.46201754 0.24907227 1.7080001 67 73 66 255
0.46665031 0.24905477 1.7080001 70 76 69 255
0.47073069 0.24874578 1.7060001 70 76 69 255
0.47479984 0.24843694 1.7040001 72 78 71 255
0.47857636 0.24798243 1.7010001 69 77 70 255
0.48205206 0.24738231 1.697 68 76 68 255
0.48607928 0.24707396 1.6950001 69 77 69 255
0.48980573 0.24662 1.692 75 83 76 255
0.4941 0.24645773 1.6910001 71 79 72 255
0.49809369 0.2461499 1.6890001 74 82 75 255
0.50177848 0.24569653 1.6860001 78 86 79 255
0.50454587 0.24480622 1.6800001 78 86 79 255
0.50758344 0.2440619 1.6750001 81 89 82 255
0.51151097 0.24375492 1.6730001 78 86 79 255
0.51511902 0.24330249 1.6700001 75 82 78 255
0.51964408 0.24328737 1.6700001 76 83 79 255
0.52385515 0.24312671 1.669 76 84 77 255
0.53059334 0.24413162 1.6760001 68 76 69 255
0.59215689 0.25083888 1.723 113 121 114 255
0.59613329 0.2505354 1.7210001 133 141 134 255
0.71692729 0.27529481 1.8920001 156 164 157 255
0.713745 0.27018604 1.8570001 155 163 156 255
0.705239 0.26508644 1.8220001 165 173 166 255
0.69810301 0.26056954 1.7910001 172 180 173 255
0.69786483 0.25867209 1.7780001 19 28 17 255
0.7007187 0.25793904 1.7730001 5 14 3 255
0.69916916 0.25560617 1.7570001 11 20 8 255
0.70113981 0.25458321 1.7500001 12 21 9 255
0.70105678 0.25283346 1.738 16 25 13 255
0.6984731 0.25021136 1.72 32 41 29 255
0.69456643 0.24715346 1.6990001 32 41 29 255
0.69589674 0.24598722 1.6910001 21 29 14 255
0.70298445 0.24685808 1.697 26 34 19 255
0.70510256 0.24598388 1.6910001 26 34 19 255
0.71096677 0.24641937 1.6940001 25 33 16 255
0.71135736 0.24496436 1.6840001 27 35 18 255
0.71764708 0.24554642 1.6880001 29 37 20 255
0.72053736 0.24496534 1.6840001 19 29 14 255
0.72512984 0.24496667 1.6840001 8 19 6 255
0.7258243 0.24365941 1.6750001 121 131 122 255
0.7273435 0.24264361 1.6680001 135 146 139 255
0.72838759 0.24148293 1.6600001 134 145 140 255
0.72939008 0.24032284 1.6520001 143 151 148 255
0.73035067 0.23916328 1.6440001 151 159 156 255
0.73126972 0.23800434 1.636 152 160 157 255
0.73169738 0.23670049 1.6270001 155 163 160 255
0.72981566 0.23466976 1.613 158 168 165 255
0.72968036 0.23322153 1.603 160 170 167 255
0.72995049 0.23191938 1.5940001 165 175 172 255
0.73201627 0.23119976 1.5890001 165 175 172 255
0.73359352 0.23033519 1.5830001 166 176 175 255
0.73420805 0.22918028 1.575 170 180 179 255
0.73478127 0.22802593 1.567 172 182 181 255
0.73484141 0.22672664 1.5580001 173 183 182 255
0.7348547 0.2254279 1.549 177 184 186 255
0.73434401 0.22398417 1.539 181 188 187 255
0.73618048 0.22326872 1.534 180 187 186 255
0.73606169 0.22197169 1.5250001 182 189 188 255
0.73638159 0.22082078 1.5170001 182 189 188 255
0.73519576 0.21923372 1.506 184 191 188 255
0.73640692 0.2183751 1.5000001 185 192 189 255
-0.74634492 0.24138694 1.6910001 214 218 210 255
-0.73339236 0.23867127 1.6720001 199 206 195 255
-0.72446865 0.23724101 1.6620001 192 199 187 255
-0.71733427 0.23638237 1.6560001 183 193 176 255
-0.71109509 0.23580973 1.6520001 182 192 175 255
-0.70659041 0.23580866 1.6520001 177 188 169 255
-0.7012375 0.23552263 1.6500001 176 186 169 255
-0.6958971 0.23523715 1.6480001 176 187 168 255
-0.68973005 0.23466673 1.6440001 181 192 173 255
-0.68441987 0.23438232 1.6420001 177 188 169 255
-0.67953616 0.23424113 1.641 177 188 169 255
-0.6750707 0.23424321 1.641 174 185 166 255
-0.67019784 0.23410302 1.6400001 172 181 162 255
-0.66492587 0.23382059 1.6380001 177 186 165 255
-0.66006905 0.23368132 1.6370001 175 184 165 255
-0.6552189 0.23354253 1.636 169 178 159 255
-0.65117091 0.23368971 1.6370001 157 166 147 255
-0.64593333 0.23340909 1.6350001 156 165 146 255
-0.64188462 0.23355713 1.636 150 159 140 255
-0.63744187 0.23356286 1.636 155 162 141 255
-0.63338703 0.23371181 1.6370001 129 137 111 255
-0.62894326 0.23371835 1.6370001 149 157 131 255
-0.62450039 0.23372529 1.6370001 135 143 117 255
-0.62043709 0.23387547 1.6380001 147 155 129 255
-0.61599296 0.23388319 1.6380001 156 164 138 255
-0.61117619 0.23374853 1.6370001 148 156 130 255
-0.60636556 0.23361421 1.636 140 149 120 255
-0.60266477 0.23390867 1.6380001 145 154 125 255
-0.59931874 0.23434629 1.641 150 159 130 255
-0.59523207 0.23449866 1.6420001 147 156 127 255
-0.59114045 0.23465139 1.6430001 151 160 129 255
-0.58668679 0.23466165 1.6430001 155 164 133 255
-0.58258784 0.234815 1.6440001 144 153 122 255
-0.57848382 0.23496872 1.6450001 163 172 141 255
-0.57437479 0.23512276 1.646 141 150 121 255
-0.5695681 0.2349914 1.6450001 144 153 124 255
-0.56545413 0.23514602 1.646 147 155 129 255
-0.56133503 0.23530096 1.6470001 146 154 128 255
-0.55721056 0.23545615 1.6480001 162 171 142 255
-0.55308092 0.23561165 1.649 157 164 135 255
-0.5482806 0.23548162 1.6480001 151 158 129 255
-0.54381567 0.23549473 1.6480001 150 159 130 255
-0.53967822 0.23565102 1.649 156 165 136 255
-0.53618443 0.23609334 1.6520001 140 150 124 255
-0.53170878 0.2361072 1.6520001 155 165 139 255
-0.52691388 0.23597829 1.651 160 170 144 255
-0.52212441 0.23584963 1.6500001 151 161 135 255
-0.51765406 0.23586412 1.6500001 159 170 141 255
-0.51349443 0.23602171 1.651 146 155 126 255
-0.50902104 0.23603655 1.651 160 170 144 255
-0.50393629 0.23576567 1.649 138 148 123 255
-0.49916497 0.23563787 1.6480001 161 171 145 255
-0.49439892 0.2355102 1.6470001 162 172 147 255
-0.4905304 0.23581174 1.649 130 140 115 255
-0.48665071 0.23611341 1.651 161 171 145 255
-0.48275998 0.23641528 1.6530001 166 175 146 255
-0.47799003 0.23628823 1.6520001 175 184 155 255
-0.4723652 0.23573217 1.6480001 185 194 165 255
-0.46619391 0.23489004 1.6420001 174 185 154 255
-0.46089837 0.2344771 1.6390001 166 177 146 255
-0.45506164 0.23377804 1.6340001 168 179 148 255
-0.45007905 0.23350827 1.6320001 157 166 135 255
-0.44483373 0.23309545 1.6290001 148 157 126 255
-0.44068569 0.23325507 1.6300001 145 152 120 255
-0.43599638 0.23312852 1.6290001 147 154 122 255
-0.43210688 0.23343141 1.631 132 139 107 255
-0.42820603 0.23373443 1.6330001 134 141 110 255
-0.42429367 0.23403753 1.6350001 139 146 115 255
-0.41985643 0.23405442 1.6350001 154 161 130 255
-0.4154186 0.23407134 1.6350001 166 173 142 255
-0.41123149 0.23423152 1.636 135 144 115 255
-0.40703845 0.23439172 1.6370001 127 136 105 255
-0.4025934 0.23440877 1.6370001 133 142 111 255
-0.39863417 0.23471224 1.6390001 147 156 125 255
-0.39490396 0.23515899 1.6420001 162 171 140 255
-0.39139462 0.23574907 1.646 132 143 114 255
-0.38645247 0.23547979 1.6440001 146 157 128 255
-0.38128811 0.23506719 1.641 167 179 154 255
-0.37636909 0.23479782 1.6390001 140 152 127 255
-0.37191406 0.23481493 1.6390001 155 167 142 255
-0.36723417 0.2346887 1.6380001 146 156 130 255
-0.36211604 0.23427588 1.6350001 164 174 148 255
-0.35745102 0.23414953 1.6340001 128 138 112 255
-0.3527908 0.23402312 1.6330001 121 132 103 255
-0.34834859 0.23403996 1.6330001 150 160 134 255
-0.34285259 0.23334008 1.628 154 164 139 255
-0.33800679 0.23307011 1.626 132 142 117 255
-0.33337626 0.23294337 1.6250001 154 164 141 255
-0.32875049 0.23281652 1.6240001 157 167 144 255
-0.3239297 0.23254621 1.6220001 174 186 163 255
-0.31833109 0.23170225 1.6160001 150 162 139 255
-0.31315297 0.23114491 1.6120001 164 176 151 255
-0.30818745 0.23073076 1.6090001 165 175 149 255
-0.30380398 0.23074667 1.6090001 144 154 128 255
-0.29904756 0.23047566 1.6070001 147 160 133 255
-0.2943013 0.23020449 1.605 152 165 138 255
-0.28938457 0.22978973 1.6020001 166 178 153 255
-0.28448349 0.22937484 1.5990001 151 163 140 255
-0.27942279 0.22881624 1.595 171 181 156 255
-0.27472812 0.2285444 1.5930001 143 153 128 255
-0.2702134 0.22841591 1.5920001 132 140 114 255
-0.26587036 0.22843072 1.5920001 154 163 134 255
-0.26119807 0.2281584 1.59 152 161 132 255
-0.25669748 0.22802937 1.5890001 144 152 126 255
-0.25204286 0.22775672 1.5870001 176 186 161 255
-0.24724233 0.22734033 1.5840001 151 163 138 255
-0.24245748 0.22692369 1.5810001 137 149 124 255
-0.23814015 0.2269375 1.5810001 146 158 133 255
-0.23397005 0.22709468 1.582 132 144 119 255
-0.22964862 0.22710814 1.582 167 179 154 255
-0.22532654 0.22712143 1.582 135 147 122 255
-0.22086403 0.226991 1.5810001 148 161 134 255
-0.21668024 0.22714749 1.582 143 156 129 255
-0.21235611 0.22716022 1.582 157 168 139 255
-0.20789982 0.22702919 1.5810001 132 145 116 255
-0.20331959 0.22675432 1.5790001 163 174 145 255
-0.19849753 0.226192 1.575 166 176 150 255
-0.19406667 0.22606029 1.5740001 170 182 157 255
-0.18952006 0.2257847 1.572 161 173 148 255
-0.18498378 0.22550888 1.5700001 163 176 149 255
-0.18045783 0.22523282 1.5680001 166 179 152 255
-0.17594223 0.22495654 1.5660001 167 180 153 255
-0.17143701 0.22468001 1.5640001 164 177 148 255
-0.16683523 0.22425954 1.5610001 161 174 145 255
-0.16224936 0.22383881 1.5580001 158 171 142 255
-0.15788217 0.22370519 1.557 163 176 149 255
-0.15342122 0.22342761 1.5550001 160 173 146 255
-0.14916258 0.22343718 1.5550001 165 173 148 255
-0.14518295 0.22387758 1.5580001 181 180 158 255
-0.1411864 0.22431779 1.5610001 44 39 18 255
-0.13682206 0.22418296 1.5600001 78 63 43 255
-0.13220786 0.22361676 1.5560001 83 64 44 255
-0.12777951 0.22333767 1.554 92 67 45 255
-0.12352067 0.22334577 1.554 94 69 47 255
-0.11918463 0.22320987 1.5530001 97 74 54 255
-0.11477965 0.22293001 1.5510001 104 80 62 255
-0.11024268 0.22236237 1.5470001 107 85 69 255
-0.10579579 0.22193819 1.544 107 85 69 255
-0.10136493 0.22151373 1.5410001 108 86 70 255
-0.096887127 0.22094522 1.5370001 103 81 65 255
-0.092672087 0.22095145 1.5370001 101 79 63 255
-0.088341594 0.2206699 1.5350001 100 80 64 255
-0.08413136 0.22067559 1.5350001 87 67 49 255
-0.079764619 0.22024968 1.5320001 96 76 58 255
-0.075611331 0.22039862 1.5330001 93 71 53 255
-0.071452253 0.22054724 1.534 89 67 49 255
-0.067375124 0.22098319 1.5370001 83 61 43 255
-0.063199073 0.22113131 1.5380001 72 50 32 255
-0.059017301 0.22127916 1.539 71 49 31 255
-0.054829814 0.22142673 1.5400001 71 52 32 255
-0.050603777 0.22143027 1.5400001 71 52 32 255
-0.04637754 0.22143351 1.5400001 70 51 29 255
-0.042151123 0.22143646 1.5400001 74 55 33 255
-0.037899926 0.22129534 1.539 71 55 32 255
-0.033654071 0.22115394 1.5380001 68 51 31 255
-0.029470991 0.22144367 1.5400001 66 51 31 255
-0.025325989 0.22216448 1.5450001 67 52 33 255
-0.021167092 0.22302881 1.5510001 68 54 37 255
-0.016975176 0.2238929 1.557 66 52 35 255
-0.012742096 0.22461286 1.562 66 50 34 255
-0.0085085826 0.22605157 1.572 63 49 32 255
-0.0042254706 0.2277776 1.5840001 68 55 40 255
0.00012369192 0.22979091 1.598 62 53 40 255
0.32200325 0.24436969 1.7040001 72 80 73 255
0.3260704 0.24392261 1.7010001 75 83 76 255
0.33050931 0.24376227 1.7 78 86 79 255
0.33494198 0.24360187 1.6990001 80 88 81 255
0.33976811 0.24372813 1.7 78 86 79 255
0.34480149 0.24399762 1.702 79 87 80 255
0.34902382 0.24369359 1.7 80 88 81 255
0.3532345 0.24338959 1.6980001 82 90 83 255
0.35785499 0.24337219 1.6980001 80 88 81 255
0.36290169 0.24364136 1.7 78 86 79 255
0.36795852 0.24391042 1.702 77 85 78 255
0.37280658 0.24403612 1.7030001 81 89 82 255
0.37765932 0.24416173 1.7040001 79 87 80 255
0.38296548 0.24457386 1.7070001 78 86 79 255
0.38806012 0.24484262 1.7090001 78 86 79 255
0.39316496 0.2451113 1.7110001 75 83 76 255
0.39827996 0.24537994 1.7130001 77 85 77 255
0.40316987 0.24550529 1.7140001 77 85 77 255
0.40806454 0.24563059 1.715 75 83 75 255
0.4132047 0.24589916 1.7170001 73 81 73 255
0.41811153 0.24602439 1.7180001 75 83 76 255
0.4232693 0.24629284 1.72 74 82 75 255
0.42818847 0.24641812 1.7210001 80 88 81 255
0.43286097 0.24640022 1.7210001 79 87 80 255
0.43727857 0.24623917 1.72 76 84 76 255
0.44194707 0.24622136 1.72 75 83 75 255
0.44635537 0.24606048 1.7190001 74 82 74 255
0.45049524 0.24575649 1.7170001 71 79 71 255
0.45409355 0.24516639 1.7130001 62 70 62 255
0.45847297 0.24500579 1.7120001 63 71 64 255
0.46284655 0.24484527 1.7110001 70 76 69 255
0.46721411 0.24468485 1.71 72 78 71 255
0.47129983 0.24438149 1.7080001 71 77 70 255
0.47481698 0.24379207 1.7040001 72 78 71 255
0.47887462 0.24348898 1.702 67 73 66 255
0.48235297 0.24289997 1.6980001 73 79 72 255
0.48609596 0.24245417 1.6950001 71 77 70 255
0.48982221 0.24200855 1.692 73 79 72 255
0.49411637 0.24184918 1.6910001 71 79 72 255
0.49781498 0.24140394 1.6880001 74 82 75 255
0.50149691 0.24095891 1.6850001 73 81 74 255
0.50396097 0.23994212 1.6780001 77 84 80 255
0.50729597 0.23935458 1.674 79 86 82 255
0.51152641 0.2391962 1.6730001 80 87 83 255
0.51513422 0.23875207 1.6700001 83 90 86 255
0.51903671 0.23845115 1.6680001 82 89 85 255
0.5229283 0.23815045 1.6660001 83 91 84 255
0.52775866 0.23827878 1.6670001 78 86 79 255
0.53227502 0.23826441 1.6670001 71 79 72 255
0.53775734 0.23867898 1.6700001 67 75 68 255
0.54455477 0.23966537 1.677 67 75 68 255
0.55269986 0.24122351 1.6880001 73 81 74 255
0.55991417 0.24235304 1.6960001 134 142 135 255
0.56817037 0.24391136 1.7070001 78 86 78 255
0.57380182 0.24432665 1.71 106 114 106 255
0.57911146 0.24459937 1.7120001 31 39 31 255
0.5817042 0.24372935 1.7060001 45 53 45 255
0.58529574 0.24328829 1.7030001 59 67 59 255
0.58748561 0.24227619 1.6960001 61 69 61 255
0.59068519 0.24169298 1.692 75 83 75 255
0.59632605 0.24210998 1.6950001 69 77 70 255
0.60481966 0.24366994 1.7060001 76 84 77 255
0.61837459 0.24722961 1.7310001 116 124 117 255
0.63242549 0.25093213 1.7570001 166 174 167 255
0.65096968 0.25634843 1.7950001 164 172 165 255
0.66204774 0.2587657 1.812 164 172 165 255
0.66843349 0.25932676 1.8160001 163 171 164 255
0.68428737 0.25599802 1.7930001 173 181 174 255
0.68031341 0.25270665 1.7700001 38 46 38 255
0.67582858 0.24927317 1.7460001 22 30 22 255
0.67472225 0.24712516 1.7310001 25 34 23 255
0.67549807 0.24569152 1.7210001 25 34 23 255
0.67819655 0.24497214 1.7160001 26 34 19 255
0.67927736 0.2436823 1.7070001 29 37 22 255
0.68271422 0.24324946 1.7040001 29 35 18 255
0.68492579 0.24238884 1.6980001 31 39 22 255
0.68548161 0.24095778 1.6880001 32 38 21 255
0.68516666 0.23924173 1.6760001 36 42 25 255
0.68807995 0.23866813 1.6720001 35 41 24 255
0.69470114 0.23937978 1.677 32 38 21 255
0.69968313 0.23952098 1.6780001 26 32 15 255
0.70383251 0.23937716 1.677 25 31 13 255
0.70333153 0.23766375 1.6650001 27 33 16 255
0.7087186 0.23794925 1.6670001 28 34 17 255
0.71582979 0.23880628 1.6730001 26 34 17 255
0.72125298 0.23909287 1.6750001 27 35 20 255
0.72365558 0.23838085 1.6700001 13 22 10 255
0.72603273 0.23766939 1.6650001 126 135 124 255
0.72750682 0.23667301 1.6580001 132 141 134 255
0.72938621 0.23581995 1.6520001 135 144 137 255
0.72990203 0.23453921 1.6430001 138 147 142 255
0.73171169 0.2336873 1.6370001 149 157 154 255
0.73259121 0.23255043 1.6290001 156 164 161 255
0.73116684 0.23070033 1.6160001 151 161 158 255
0.73058391 0.2291363 1.605 160 170 167 255
0.72994304 0.22757281 1.5940001 161 171 168 255
0.73292953 0.22715205 1.5910001 163 173 172 255
0.73404837 0.22616078 1.5840001 166 176 175 255
0.73559731 0.22531287 1.5780001 169 179 178 255
0.73524028 0.22389442 1.5680001 172 182 181 255
0.73483092 0.2224765 1.5580001 172 180 179 255
0.73436922 0.2210591 1.5480001 175 183 182 255
0.7343322 0.21978503 1.539 178 185 184 255
0.73616815 0.21908285 1.534 179 186 185 255
0.73749667 0.21823843 1.5280001 180 187 186 255
0.73830956 0.21725175 1.521 180 187 186 255
0.73811042 0.21597999 1.5120001 182 189 188 255
0.73786467 0.21470876 1.503 182 189 188 255
-0.75495791 0.23804191 1.7 218 222 214 255
-0.74016213 0.23481756 1.677 204 211 200 255
-0.72944176 0.23285414 1.6630001 195 203 188 255
-0.72185093 0.23187141 1.6560001 190 198 183 255
-0.71516645 0.2311693 1.651 184 194 177 255
-0.70980251 0.23088787 1.649 180 190 173 255
-0.70530659 0.23088698 1.649 178 186 169 255
-0.70038742 0.23074664 1.6480001 180 190 173 255
-0.69463068 0.23032679 1.6450001 181 191 174 255
-0.68889189 0.22990742 1.6420001 171 181 164 255
-0.68358761 0.22962858 1.6400001 175 185 168 255
-0.67912406 0.22963032 1.6400001 171 182 163 255
-0.67383903 0.22935249 1.6380001 145 156 137 255
-0.67020071 0.22963518 1.6400001 161 170 151 255
-0.66533512 0.22949833 1.6390001 183 190 168 255
-0.66087931 0.22950192 1.6390001 169 179 156 255
-0.65602416 0.22936597 1.6380001 180 189 168 255
-0.65157342 0.22937047 1.6380001 185 194 173 255
-0.64712363 0.22937542 1.6380001 180 189 168 255
-0.64306724 0.22952083 1.6390001 181 190 169 255
-0.63861674 0.22952664 1.6390001 134 141 120 255
-0.63416719 0.22953284 1.6390001 146 152 127 255
-0.62895006 0.22925936 1.6370001 132 138 112 255
-0.62450761 0.22926635 1.6370001 133 139 113 255
-0.62006581 0.22927371 1.6370001 135 142 113 255
-0.616377 0.22956158 1.6390001 139 146 117 255
-0.61081111 0.22914952 1.636 147 153 127 255
-0.60674489 0.22929807 1.6370001 140 147 118 255
-0.60230577 0.22930691 1.6370001 141 148 119 255
-0.59969336 0.2300165 1.6420001 141 148 119 255
-0.5956043 0.23016614 1.6430001 140 147 116 255
-0.59115046 0.23017602 1.6430001 142 149 118 255
-0.58634001 0.23004609 1.6420001 137 144 113 255
-0.58259857 0.23033683 1.6440001 143 150 119 255
-0.57849485 0.23048775 1.6450001 135 142 110 255
-0.57473511 0.23077914 1.6470001 144 151 120 255
-0.56992596 0.23065045 1.646 143 152 121 255
-0.56546599 0.23066215 1.646 142 149 118 255
-0.56100631 0.23067412 1.646 141 150 119 255
-0.55688488 0.23082651 1.6470001 138 147 116 255
-0.55242282 0.230839 1.6470001 130 139 108 255
-0.54796082 0.2308518 1.6470001 153 162 133 255
-0.5431689 0.23072459 1.646 151 159 133 255
-0.5393644 0.23101822 1.6480001 154 162 136 255
-0.53554887 0.23131205 1.6500001 144 153 124 255
-0.5314008 0.23146598 1.651 152 161 132 255
-0.52660894 0.23133971 1.6500001 150 158 132 255
-0.52213871 0.23135382 1.6500001 153 161 135 255
-0.5179823 0.23150837 1.651 157 165 139 255
-0.51382023 0.23166312 1.6520001 145 153 128 255
-0.50934422 0.23167785 1.6520001 145 153 128 255
-0.50486821 0.23169276 1.6520001 144 154 129 255
-0.50008887 0.23156753 1.651 169 179 153 255
-0.49591523 0.23172304 1.6520001 156 165 136 255
-0.4920333 0.23201898 1.654 129 140 111 255
-0.48814029 0.23231511 1.6560001 140 149 118 255
-0.483944 0.23247109 1.6570001 149 158 127 255
-0.48003143 0.23276758 1.659 151 160 129 255
-0.47524759 0.23264325 1.6580001 148 157 126 255
-0.47075287 0.23265935 1.6580001 148 157 126 255
-0.46541399 0.23225458 1.6550001 169 180 149 255
-0.46036953 0.23199019 1.6530001 166 177 146 255
-0.45505965 0.2315855 1.6500001 166 177 146 255
-0.44949242 0.23104046 1.646 157 168 137 255
-0.4447577 0.23091657 1.6450001 154 161 129 255
-0.43976012 0.23065236 1.6430001 158 165 133 255
-0.43530285 0.23066898 1.6430001 129 136 104 255
-0.43136948 0.23096643 1.6450001 138 145 113 255
-0.42664608 0.23084275 1.6440001 133 140 108 255
-0.4221845 0.23085956 1.6440001 151 158 127 255
-0.41797632 0.2310168 1.6450001 157 164 133 255
-0.41426495 0.23145504 1.6480001 151 158 127 255
-0.41003931 0.2316124 1.649 142 149 118 255
-0.40556172 0.2316294 1.649 135 144 113 255
-0.40132672 0.23178686 1.6500001 130 139 108 255
-0.39756665 0.23222534 1.6530001 145 154 123 255
-0.39355189 0.23252338 1.6550001 137 148 119 255
-0.3890554 0.23254047 1.6550001 132 143 114 255
-0.38409349 0.23227651 1.6530001 162 172 146 255
-0.37960112 0.23229355 1.6530001 155 165 139 255
-0.37488109 0.23217003 1.6520001 127 137 111 255
-0.37061423 0.23232757 1.6530001 165 176 147 255
-0.36567667 0.23206338 1.651 136 145 116 255
-0.36074936 0.23179916 1.649 164 173 144 255
-0.35561618 0.23139426 1.646 123 132 103 255
-0.35092521 0.23127043 1.6450001 144 153 124 255
-0.34539649 0.23058413 1.6400001 165 173 147 255
-0.34031004 0.23017891 1.6370001 143 153 128 255
-0.33544439 0.22991417 1.6350001 147 157 132 255
-0.33119619 0.2300712 1.636 159 169 144 255
-0.32654232 0.22994688 1.6350001 154 164 139 255
-0.32110518 0.22925989 1.6300001 173 183 158 255
-0.31550023 0.22843203 1.6240001 143 153 127 255
-0.3105019 0.22802599 1.6210001 153 164 135 255
-0.30570796 0.22776048 1.6190001 154 164 138 255
-0.3011103 0.2276355 1.618 146 156 130 255
-0.29633394 0.22736968 1.6160001 155 167 142 255
-0.29138711 0.22696301 1.613 170 182 159 255
-0.28627798 0.22641549 1.6090001 153 165 142 255
-0.28118983 0.22586772 1.605 165 177 154 255
-0.27595034 0.22517903 1.6 144 154 131 255
-0.27124658 0.22491235 1.598 120 130 105 255
-0.2668871 0.22492704 1.598 159 169 144 255
-0.26236254 0.2248008 1.5970001 152 162 137 255
-0.25768113 0.22453363 1.595 144 154 129 255
-0.25316879 0.22440706 1.5940001 137 149 124 255
-0.24850509 0.22413953 1.5920001 177 189 164 255
-0.24369818 0.223731 1.5890001 147 159 134 255
-0.23905759 0.22346304 1.5870001 146 159 132 255
-0.23501885 0.22375818 1.5890001 131 144 117 255
-0.23067814 0.22377154 1.5890001 116 129 102 255
-0.22633673 0.2237847 1.5890001 141 154 127 255
-0.22199461 0.22379768 1.5890001 128 141 114 255
-0.21792577 0.2240922 1.5910001 135 148 119 255
-0.2137111 0.22424571 1.5920001 140 151 122 255
-0.20922726 0.22411729 1.5910001 135 146 117 255
-0.20474823 0.2239887 1.59 165 178 149 255
-0.20014796 0.22371894 1.5880001 163 173 147 255
-0.1958046 0.22373077 1.5880001 160 173 146 255
-0.19109893 0.22331975 1.585 165 177 152 255
-0.186409 0.22290842 1.582 162 174 149 255
-0.18161981 0.22235595 1.5780001 167 177 151 255
-0.17707662 0.22208504 1.5760001 165 178 151 255
-0.17254378 0.22181386 1.5740001 162 175 146 255
-0.16780753 0.22126062 1.5700001 164 177 150 255
-0.16309263 0.22070707 1.5660001 162 175 148 255
-0.15860187 0.22043514 1.5640001 167 179 154 255
-0.15402286 0.22002201 1.5610001 158 170 145 255
-0.14974755 0.2200315 1.5610001 167 174 152 255
-0.14556488 0.22018167 1.562 181 180 158 255
-0.14164759 0.22075452 1.5660001 39 34 13 255
-0.1372693 0.22062233 1.5650001 82 67 47 255
-0.13272609 0.22020793 1.562 89 68 48 255
-0.12811661 0.21965227 1.5580001 90 65 43 255
-0.12384656 0.2196603 1.5580001 98 73 51 255
-0.11942255 0.21938607 1.5560001 108 82 63 255
-0.11508308 0.21925256 1.5550001 106 82 64 255
-0.11046361 0.21855479 1.5500001 110 86 70 255
-0.10593969 0.21799774 1.5460001 109 87 71 255
-0.10137151 0.21729934 1.5410001 108 86 70 255
-0.097019516 0.2170237 1.539 105 83 67 255
-0.09267813 0.21674782 1.5370001 103 81 65 255
-0.088289812 0.21633063 1.534 103 83 67 255
-0.084027253 0.21619521 1.5330001 92 72 56 255
-0.079769857 0.21605949 1.5320001 98 78 60 255
-0.07566563 0.21634665 1.534 95 73 55 255
-0.071503557 0.2164925 1.5350001 96 74 56 255
-0.067291901 0.21649705 1.5350001 85 63 45 255
-0.063162155 0.2167834 1.5370001 75 53 35 255
-0.058982857 0.21692845 1.5380001 68 46 30 255
-0.054869059 0.21735536 1.5410001 69 49 31 255
-0.050672852 0.21749987 1.5420001 59 42 23 255
-0.046501085 0.21778515 1.544 62 47 28 255
-0.042290792 0.21792914 1.5450001 71 56 37 255
-0.03800096 0.21764968 1.5430001 68 54 35 255
-0.033678196 0.21708784 1.539 69 54 35 255
-0.029434681 0.21694887 1.5380001 67 52 32 255
-0.025245713 0.21723279 1.5400001 67 52 33 255
-0.021059319 0.21765752 1.5430001 67 52 33 255
-0.01687818 0.21836409 1.5480001 67 50 31 255
-0.012661366 0.21892928 1.552 64 47 28 255
-0.0084604332 0.22048169 1.5630001 63 46 27 255
-0.0042097461 0.22259806 1.5780001 66 52 35 255
0.00012339054 0.2248552 1.5940001 70 55 40 255
0.27280393 0.23748393 1.687 73 81 74 255
0.27757221 0.23760952 1.6880001 80 88 80 255
0.28150934 0.23703113 1.6840001 71 79 71 255
0.28542385 0.23645268 1.6800001 68 76 68 255
0.28931582 0.23587418 1.6760001 62 70 63 255
0.29388651 0.23585851 1.6760001 78 86 79 255
0.29899073 0.23626487 1.6790001 83 91 84 255
0.30519533 0.23751527 1.6880001 71 79 72 255
0.31108108 0.23848398 1.6950001 79 87 80 255
0.31644556 0.23903042 1.6990001 76 84 76 255
0.32069707 0.23873255 1.697 75 83 75 255
0.32474527 0.23829396 1.6940001 77 85 78 255
0.32877636 0.23785533 1.6910001 78 86 79 255
0.33318454 0.23769793 1.6900001 79 87 80 255
0.33798632 0.23782182 1.6910001 82 90 83 255
0.34259012 0.2378049 1.6910001 83 91 84 255
0.34719318 0.23778795 1.6910001 82 90 83 255
0.35158744 0.23763026 1.6900001 79 87 80 255
0.35618621 0.23761317 1.6900001 82 90 83 255
0.36099774 0.23773661 1.6910001 82 90 83 255
0.36603016 0.23800054 1.6930001 81 89 82 255
0.37063488 0.23798323 1.6930001 79 87 80 255
0.37568212 0.23824704 1.6950001 78 86 79 255
0.38096386 0.23865128 1.6980001 83 89 82 255
0.38648826 0.23919597 1.702 80 86 79 255
0.39203373 0.23974057 1.7060001 78 84 77 255
0.39713514 0.240004 1.7080001 75 83 76 255
0.40201154 0.24012691 1.7090001 76 84 76 255
0.4059408 0.23968777 1.7060001 75 83 75 255
0.41081581 0.23981065 1.7070001 75 83 75 255
0.41545221 0.23979306 1.7070001 75 83 76 255
0.42058009 0.24005641 1.7090001 75 83 76 255
0.42546934 0.24017924 1.71 78 86 79 255
0.43086654 0.24058302 1.7130001 77 85 78 255
0.43551657 0.24056543 1.7130001 76 84 76 255
0.44042304 0.24068835 1.7140001 73 82 71 255
0.44455531 0.24039002 1.7120001 76 84 76 255
0.44920087 0.24037258 1.7120001 70 79 68 255
0.45411095 0.24049562 1.7130001 70 78 70 255
0.45902598 0.24061871 1.7140001 68 76 68 255
0.4634048 0.24046111 1.7130001 67 73 66 255
0.46723127 0.24002287 1.71 70 76 69 255
0.47076496 0.2394444 1.7060001 68 74 67 255
0.47483388 0.23914681 1.7040001 66 72 65 255
0.47861013 0.23870905 1.7010001 67 73 66 255
0.48265368 0.23841178 1.6990001 70 76 69 255
0.48611242 0.23783401 1.6950001 58 64 57 255
0.4901281 0.23753706 1.6930001 71 77 70 255
0.49384037 0.23709996 1.6900001 71 79 72 255
0.49783096 0.23680338 1.6880001 75 83 76 255
0.5012151 0.23622644 1.6840001 73 81 74 255
0.50427693 0.23550941 1.6790001 78 85 81 255
0.50761443 0.23493291 1.6750001 78 85 81 255
0.51154166 0.23463714 1.6730001 79 86 82 255
0.51453227 0.23392087 1.6680001 87 94 90 255
0.51874036 0.23376578 1.6670001 85 92 88 255
0.52231514 0.23333046 1.664 75 83 76 255
0.52682328 0.23331602 1.664 61 69 62 255
0.5306927 0.23302138 1.6620001 69 77 70 255
0.53551728 0.23314755 1.6630001 75 83 76 255
0.54067194 0.23341411 1.6650001 71 79 72 255
0.54714721 0.2342416 1.6710001 71 79 72 255
0.55398512 0.23520939 1.6780001 72 80 73 255
0.56352377 0.23729862 1.6930001 75 81 74 255
0.57113045 0.23854691 1.702 80 86 78 255
0.57709467 0.23909461 1.7060001 23 29 21 255
0.57967085 0.23824109 1.7 25 31 23 255
0.58221483 0.23738794 1.6940001 27 36 25 255
0.58403355 0.2362549 1.6860001 62 70 62 255
0.58685654 0.23554258 1.6810001 65 73 65 255
0.5907082 0.23525101 1.6790001 81 89 82 255
0.59561294 0.2353801 1.6800001 81 89 82 255
0.60159528 0.23592977 1.6840001 70 78 71 255
0.6072396 0.23633961 1.687 72 80 73 255
0.61435133 0.23731011 1.6940001 69 77 70 255
0.62186688 0.23842093 1.702 70 78 71 255
0.63163489 0.24037252 1.7160001 79 87 80 255
0.63814217 0.24106362 1.7210001 81 89 82 255
0.64355671 0.24133486 1.723 78 86 79 255
0.64823037 0.24132633 1.723 51 57 50 255
0.65669399 0.24271876 1.733 20 26 19 255
0.65910643 0.24187069 1.7270001 16 22 14 255
0.65725899 0.23948246 1.71 34 41 30 255
0.65609443 0.23737495 1.6950001 29 36 25 255
0.65835726 0.23652831 1.6890001 20 27 16 255
0.66137362 0.23596223 1.6850001 20 27 15 255
0.66595 0.2359567 1.6850001 23 28 14 255
0.66853786 0.2352515 1.6800001 25 31 14 255
0.67430478 0.23566699 1.6830001 26 32 15 255
0.67807233 0.23538278 1.6810001 27 33 16 255
0.68142408 0.23495905 1.6780001 28 34 17 255
0.68312544 0.23397568 1.6710001 28 34 17 255
0.68437862 0.23285285 1.6630001 32 38 21 255
0.6872465 0.23229054 1.659 30 36 19 255
0.68842608 0.23116869 1.651 33 39 22 255
0.69292128 0.23116751 1.651 27 31 14 255
0.69530576 0.23046674 1.646 26 32 15 255
0.7023412 0.2313067 1.6520001 31 35 18 255
0.70727164 0.23144709 1.6530001 30 36 19 255
0.71479267 0.23242812 1.6600001 27 32 18 255
0.71888709 0.23228957 1.659 18 28 13 255
0.723414 0.23229159 1.659 4 13 1 255
0.72530985 0.23145406 1.6530001 136 146 137 255
0.72805804 0.23089714 1.649 125 134 127 255
0.72900939 0.22978069 1.641 124 133 128 255
0.73126 0.22908489 1.636 126 135 130 255
0.73168653 0.22782955 1.6270001 133 141 138 255
0.73070854 0.22615463 1.6150001 138 148 145 255
0.72921193 0.2243402 1.6020001 157 165 164 255
0.72902018 0.22294642 1.5920001 161 169 168 255
0.73153979 0.22239344 1.5880001 162 170 169 255
0.73404008 0.22184107 1.5840001 161 171 170 255
0.73558831 0.22100915 1.5780001 166 174 173 255
0.73476189 0.21947756 1.567 167 177 176 255
0.73434907 0.21808653 1.557 170 180 179 255
0.73435843 0.21683611 1.5480001 174 181 183 255
0.73479807 0.21572632 1.5400001 174 182 181 255
0.73663604 0.21503735 1.5350001 176 184 183 255
0.73700142 0.21392868 1.5270001 178 185 184 255
0.73829633 0.21310079 1.521 179 186 185 255
0.7385847 0.21199326 1.5130001 179 186 185 255
0.73883212 0.21088628 1.5050001 180 187 186 255
-0.76138729 0.23396163 1.7040001 202 206 198 255
-0.74562812 0.23052499 1.6790001 208 215 204 255
-0.73618662 0.22901119 1.6680001 202 209 198 255
-0.72680718 0.22749801 1.6570001 192 202 187 255
-0.72054106 0.2269465 1.6530001 184 194 179 255
-0.7138654 0.22625823 1.6480001 178 188 171 255
-0.7080797 0.22584513 1.6450001 176 186 169 255
-0.70359522 0.22584444 1.6450001 172 182 165 255
-0.69911242 0.22584429 1.6450001 183 193 176 255
-0.69420886 0.22570734 1.6440001 168 178 161 255
-0.68847334 0.22529635 1.641 178 188 171 255
-0.68317235 0.22502308 1.6390001 171 181 164 255
-0.67829782 0.22488765 1.6380001 165 176 157 255
-0.67384148 0.22488998 1.6380001 143 154 135 255
-0.66979504 0.22503005 1.6390001 147 156 137 255
-0.66493261 0.224896 1.6380001 136 146 123 255
-0.66088319 0.22503701 1.6390001 142 152 129 255
-0.65602851 0.22490387 1.6380001 162 172 149 255
-0.65237373 0.22518304 1.6400001 164 174 151 255
-0.64752394 0.22505075 1.6390001 176 186 163 255
-0.64346522 0.2251935 1.6400001 189 196 174 255
-0.63901246 0.22519936 1.6400001 190 197 175 255
-0.63456059 0.22520559 1.6400001 161 167 142 255
-0.63010949 0.22521222 1.6400001 135 141 116 255
-0.62565929 0.22521925 1.6400001 139 145 120 255
-0.62120974 0.22522666 1.6400001 127 133 107 255
-0.61638498 0.2250971 1.6390001 134 140 114 255
-0.61119288 0.22483054 1.6370001 130 136 110 255
-0.60675353 0.224839 1.6370001 134 141 112 255
-0.60268277 0.22498518 1.6380001 140 147 118 255
-0.59933746 0.22540641 1.641 139 146 117 255
-0.59561408 0.22569063 1.6430001 137 144 113 255
-0.59152037 0.22583784 1.6440001 138 145 114 255
-0.5870645 0.22584797 1.6440001 140 147 116 255
-0.58296353 0.22599585 1.6450001 141 148 117 255
-0.57850575 0.22600661 1.6450001 132 139 107 255
-0.57474631 0.22629246 1.6470001 134 141 109 255
-0.56993747 0.22616641 1.646 142 149 117 255
-0.56547779 0.22617802 1.646 138 145 113 255
-0.56067759 0.22605251 1.6450001 142 149 118 255
-0.55622101 0.22606464 1.6450001 137 146 115 255
-0.55176461 0.22607704 1.6450001 131 140 109 255
-0.54697555 0.22595224 1.6440001 154 163 134 255
-0.54285204 0.22610259 1.6450001 148 157 128 255
-0.5390504 0.22639059 1.6470001 140 149 120 255
-0.53556246 0.22681631 1.6500001 142 151 122 255
-0.5310927 0.22682993 1.6500001 156 165 136 255
-0.52662283 0.2268437 1.6500001 147 155 129 255
-0.52183646 0.22672018 1.649 149 157 131 255
-0.51799661 0.22700936 1.651 155 161 136 255
-0.5135237 0.22702375 1.651 154 161 139 255
-0.509359 0.22717583 1.6520001 142 149 127 255
-0.5045774 0.22705303 1.651 148 158 133 255
-0.50040686 0.22720547 1.6520001 160 170 144 255
-0.49593043 0.22722054 1.6520001 140 149 120 255
-0.49204868 0.22751085 1.654 130 139 108 255
-0.4875662 0.22752623 1.654 142 151 120 255
-0.48337558 0.22767931 1.6550001 143 152 121 255
-0.47946849 0.22797012 1.6570001 133 142 111 255
-0.47526363 0.22812356 1.6580001 144 153 122 255
-0.47105289 0.22827706 1.659 140 149 118 255
-0.46711752 0.22856833 1.6610001 143 154 123 255
-0.46317095 0.22885972 1.6630001 164 175 144 255
-0.45893714 0.22901362 1.664 157 168 137 255
-0.45360515 0.22861709 1.6610001 132 143 112 255
-0.4491002 0.22863355 1.6610001 166 177 146 255
-0.44379157 0.22823705 1.6580001 167 177 144 255
-0.4395586 0.22839126 1.659 154 164 131 255
-0.4350574 0.2284079 1.659 131 141 106 255
-0.43029612 0.22828689 1.6580001 135 143 108 255
-0.4257966 0.22830364 1.6580001 129 139 106 255
-0.42180452 0.22859578 1.6600001 149 158 127 255
-0.41780111 0.22888803 1.6620001 159 168 137 255
-0.41328886 0.22890489 1.6620001 123 132 101 255
-0.40828407 0.22864634 1.6600001 121 130 99 255
-0.40377596 0.22866321 1.6600001 126 136 103 255
-0.3997483 0.22895564 1.6620001 143 153 120 255
-0.39570907 0.22924809 1.664 150 159 128 255
-0.39189345 0.22967839 1.6670001 139 150 119 255
-0.38736364 0.22969535 1.6670001 151 162 133 255
-0.38306284 0.22985013 1.6680001 150 160 134 255
-0.37807509 0.22959146 1.6660001 148 160 135 255
-0.37332165 0.22947052 1.6650001 118 128 103 255
-0.36879447 0.22948739 1.6650001 138 148 123 255
-0.3640478 0.22936636 1.664 135 145 120 255
-0.35887372 0.22896959 1.6610001 149 159 133 255
-0.35350189 0.22843485 1.6570001 126 134 109 255
-0.34794039 0.22776209 1.6520001 139 149 124 255
-0.34282124 0.22736493 1.649 137 147 124 255
-0.33792281 0.22710557 1.6470001 154 164 141 255
-0.33343941 0.22712186 1.6470001 135 146 125 255
-0.32895526 0.22713809 1.6470001 146 157 136 255
-0.32348529 0.22646461 1.6420001 166 178 155 255
-0.31804183 0.22579099 1.6370001 150 160 137 255
-0.31281638 0.2252551 1.6330001 141 151 125 255
-0.30798966 0.22499493 1.631 157 167 142 255
-0.30317307 0.22473465 1.6290001 135 147 122 255
-0.29836658 0.22447418 1.6270001 156 168 143 255
-0.29375094 0.22435158 1.626 167 179 156 255
-0.28878409 0.22395281 1.623 143 155 132 255
-0.28348246 0.22327794 1.618 154 166 143 255
-0.27786237 0.22232682 1.6110001 165 177 152 255
-0.27278903 0.22178948 1.6070001 126 138 115 255
-0.26790372 0.22138993 1.6040001 149 161 136 255
-0.26336265 0.22126628 1.603 154 164 139 255
-0.25850314 0.22086637 1.6 154 164 139 255
-0.25397697 0.2207424 1.5990001 138 150 125 255
-0.24961165 0.22075629 1.5990001 148 160 137 255
