ply
format ascii 1.0
comment PCL generated
element vertex 1018
property float x
property float y
property float z
property uchar red
property uchar green
property uchar blue
property uchar alpha
element camera 0
property float view_px
property float view_py
property float view_pz
property float x_axisx
property float x_axisy
property float x_axisz
property float y_axisx
property float y_axisy
property float y_axisz
property float z_axisx
property float z_axisy
property float z_axisz
property float focal
property float scalex
property float scaley
property float centerx
property float centery
property int viewportx
property int viewporty
property float k1
property float k2
end_header
0.72225302 0.25934714 1.6880001 155 162 159 255
0.7221216 0.25765911 1.677 159 166 163 255
0.72193205 0.2559717 1.6660001 156 163 160 255
0.72081214 0.25397757 1.6530001 157 164 163 255
0.72093952 0.25244495 1.6430001 154 161 160 255
0.72278041 0.25152752 1.6370001 155 163 162 255
0.72325748 0.2501497 1.628 155 162 164 255
0.7223466 0.24831153 1.6160001 152 159 161 255
0.72272152 0.24693497 1.6070001 154 161 163 255
0.72259665 0.24540527 1.5970001 154 161 163 255
0.72332972 0.2441835 1.5890001 152 160 159 255
0.72310543 0.24265496 1.5790001 156 164 163 255
0.72328913 0.24128069 1.5700001 155 163 160 255
0.72157228 0.23929226 1.557 155 165 164 255
0.72118497 0.23776543 1.5470001 158 167 169 255
0.72074533 0.23623919 1.5370001 160 169 172 255
0.72261167 0.23548205 1.5320001 163 172 175 255
0.72350413 0.23441811 1.5250001 165 174 177 255
0.72531533 0.23366226 1.5200001 165 174 177 255
0.72614175 0.23259959 1.5130001 172 179 182 255
0.72693229 0.23153748 1.506 172 181 184 255
0.72103858 0.25927266 1.7180001 156 162 164 255
0.72149569 0.25776353 1.7080001 156 163 162 255
0.72062451 0.25580227 1.6950001 153 160 157 255
0.71968412 0.25384155 1.682 155 162 158 255
0.72168881 0.25293788 1.6760001 156 163 159 255
0.72106254 0.25112921 1.664 155 162 159 255
0.72168082 0.24977392 1.6550001 158 165 162 255
0.72005785 0.2476646 1.641 156 163 160 255
0.72365874 0.24736694 1.6390001 156 163 160 255
0.7232523 0.24571155 1.628 155 163 162 255
0.72323483 0.24420764 1.618 151 159 158 255
0.72136581 0.24210058 1.6040001 151 159 158 255
0.72258961 0.24105065 1.5970001 153 160 162 255
0.72195643 0.23939753 1.5860001 153 161 160 255
0.72355497 0.23849969 1.58 152 160 159 255
0.72328019 0.23699865 1.5700001 152 160 159 255
0.72295296 0.23549816 1.5600001 153 162 164 255
0.72210711 0.23384732 1.549 154 166 167 255
0.72167236 0.23234797 1.539 158 167 170 255
0.7226001 0.23130211 1.5320001 163 172 175 255
0.72349203 0.23025687 1.5250001 165 174 177 255
0.72434813 0.22921222 1.5180001 166 175 178 255
0.72516829 0.22816816 1.511 171 178 181 255
0.72547007 0.22697368 1.503 170 179 182 255
0.717556 0.26186225 1.7670001 151 159 158 255
0.71969551 0.25577781 1.7260001 154 161 160 255
0.71936017 0.25399882 1.7140001 153 160 159 255
0.71896088 0.25222033 1.702 153 160 157 255
0.71892303 0.25059068 1.6910001 155 162 159 255
0.71882707 0.24896157 1.6800001 153 160 156 255
0.7212562 0.24822217 1.6750001 153 160 156 255
0.72062665 0.246446 1.6630001 156 163 159 255
0.71949738 0.24452218 1.6500001 160 167 163 255
0.71786022 0.24245073 1.636 169 176 172 255
0.72144675 0.24215823 1.6340001 164 171 167 255
0.72102606 0.2405325 1.623 164 171 167 255
0.72099435 0.23905557 1.613 165 172 168 255
0.71911103 0.23698635 1.5990001 166 174 167 255
0.72122538 0.23625156 1.5940001 156 163 159 255
0.72194904 0.23507275 1.5860001 145 152 149 255
0.72308904 0.23404272 1.5790001 144 152 149 255
0.72235024 0.23242038 1.5680001 145 153 152 255
0.72201693 0.23094681 1.5580001 146 155 157 255
0.72256345 0.22977027 1.5500001 149 161 162 255
0.72400641 0.22889081 1.544 152 164 165 255
0.72447568 0.22771543 1.536 158 169 172 255
0.72395462 0.22624411 1.526 160 171 174 255
0.72433573 0.22506991 1.5180001 165 174 177 255
0.72419542 0.22374798 1.5090001 166 175 178 255
0.72497374 0.22272314 1.5020001 172 181 184 255
0.71552885 0.25632119 1.7620001 149 157 156 255
0.71337163 0.25384507 1.7450001 149 156 155 255
0.71318096 0.25209689 1.733 151 158 157 255
0.71499777 0.25107664 1.7260001 153 160 159 255
0.71510988 0.24947506 1.715 153 160 157 255
0.71264553 0.24700123 1.6980001 152 159 156 255
0.71093488 0.2448189 1.6830001 152 159 155 255
0.71212018 0.24365535 1.6750001 158 165 161 255
0.71240777 0.24220148 1.6650001 166 174 167 255
0.71522605 0.24162093 1.6610001 176 184 177 255
0.71195781 0.23900443 1.6430001 144 152 145 255
0.71164542 0.2374067 1.6320001 0 8 1 255
0.71171367 0.235955 1.6220001 1 9 2 255
0.71658599 0.23610409 1.623 6 14 7 255
0.71613461 0.23450805 1.6120001 19 27 20 255
0.7160722 0.23305805 1.6020001 7 15 8 255
0.71595716 0.2316086 1.5920001 7 15 8 255
0.71940911 0.23132357 1.59 79 87 80 255
0.7201212 0.23016623 1.582 142 150 143 255
0.72216552 0.22944595 1.577 158 165 162 255
0.72096002 0.22770774 1.5650001 145 153 150 255
0.7210812 0.22640656 1.5560001 135 145 144 255
0.72068936 0.22496046 1.5460001 137 146 148 255
0.72258967 0.22424248 1.5410001 147 159 160 255
0.72352165 0.22323404 1.534 157 169 170 255
0.7248922 0.22237174 1.5280001 161 172 175 255
0.72575516 0.22136447 1.521 163 174 177 255
0.72610241 0.22021225 1.5130001 165 176 179 255
0.72496045 0.21862392 1.5020001 169 178 181 255
0.70903486 0.24923714 1.7460001 150 159 154 255
0.706016 0.24652177 1.7270001 149 156 152 255
0.7057758 0.24480613 1.715 151 158 154 255
0.70340043 0.24237739 1.6980001 158 165 161 255
0.6988492 0.23923549 1.6760001 162 170 163 255
0.69543856 0.23652233 1.6570001 175 183 176 255
0.69488311 0.23480892 1.6450001 81 87 80 255
0.69553912 0.23352428 1.636 0 4 0 255
0.69828707 0.23295388 1.6320001 8 15 4 255
0.69843125 0.23152755 1.6220001 13 20 9 255
0.69418943 0.22867434 1.6020001 19 24 13 255
0.69420069 0.22724907 1.5920001 22 29 17 255
0.69503665 0.2261098 1.5840001 23 30 18 255
0.69980454 0.22625582 1.585 26 33 21 255
0.69969302 0.22483216 1.575 28 35 24 255
0.70221084 0.22426558 1.5710001 26 34 26 255
0.70605785 0.2241278 1.5700001 28 34 26 255
0.71397358 0.22527544 1.5780001 18 24 17 255
0.71692818 0.22485338 1.575 9 17 10 255
0.71803677 0.22386083 1.5680001 5 13 6 255
0.71680605 0.22215499 1.5560001 152 160 157 255
0.71736544 0.22102076 1.5480001 145 153 150 255
0.71788329 0.21988709 1.5400001 134 144 143 255
0.72023535 0.21932513 1.536 144 153 155 255
0.72256804 0.2187638 1.5320001 151 160 162 255
0.72393239 0.21791743 1.526 159 168 170 255
0.72574353 0.21721445 1.521 158 169 172 255
0.72513038 0.21579804 1.511 161 172 175 255
0.72543025 0.21466775 1.503 162 173 176 255
0.70925945 0.25304672 1.807 147 154 151 255
0.71140063 0.25206056 1.8000001 148 155 152 255
0.70872974 0.24939461 1.7810001 148 155 151 255
0.69622415 0.24168392 1.7260001 150 157 153 255
0.69157642 0.23845962 1.7030001 157 164 160 255
0.68762231 0.23551589 1.682 164 171 167 255
0.68190944 0.23201272 1.6570001 167 175 168 255
0.67647594 0.22865008 1.6330001 0 6 0 255
0.67383194 0.22626808 1.6160001 2 8 0 255
0.67445457 0.22500679 1.6070001 3 9 1 255
0.67418474 0.22346593 1.5960001 8 15 4 255
0.67470676 0.22220565 1.5870001 17 24 13 255
0.67560911 0.22108588 1.5790001 25 30 18 255
0.67388582 0.21912651 1.5650001 25 30 18 255
0.67555457 0.21828778 1.559 25 30 16 255
0.67501199 0.21674949 1.5480001 26 31 17 255
0.67923754 0.21675189 1.5480001 26 31 17 255
0.68478966 0.21717493 1.5510001 27 32 18 255
0.68858296 0.21703844 1.5500001 28 33 19 255
0.69103175 0.21648243 1.5460001 32 37 25 255
0.69391048 0.21606699 1.5430001 25 30 18 255
0.70175165 0.21719246 1.5510001 25 30 18 255
0.70645243 0.21733831 1.552 26 31 20 255
0.71207684 0.21776487 1.5550001 19 26 15 255
0.71265244 0.21665154 1.5470001 16 24 16 255
0.71504027 0.21609896 1.5430001 3 11 4 255
0.71600991 0.21512677 1.536 144 153 146 255
0.71928829 0.21485551 1.534 128 139 134 255
0.72161472 0.21430469 1.5300001 142 152 149 255
0.72392178 0.21375445 1.526 152 162 161 255
0.72525525 0.21292467 1.5200001 155 167 168 255
0.72607839 0.21195538 1.5130001 157 166 168 255
0.72686583 0.21098664 1.506 162 171 174 255
0.66395801 0.2259979 1.646 162 169 165 255
0.66274714 0.22407201 1.6320001 167 175 168 255
0.65819085 0.2210483 1.6100001 0 5 0 255
0.65475065 0.21843694 1.5910001 8 14 6 255
0.6532796 0.21651259 1.577 21 27 19 255
0.65632051 0.21609898 1.5740001 22 27 16 255
0.6572479 0.21499935 1.5660001 21 26 15 255
0.66066772 0.214724 1.5640001 21 26 14 255
0.6606769 0.21335077 1.554 21 26 14 255
0.66277242 0.21266447 1.549 22 27 13 255
0.66484225 0.2119787 1.544 23 28 14 255
0.66775316 0.21156801 1.5410001 24 27 13 255
0.67195755 0.21156971 1.5410001 24 28 11 255
0.67396957 0.21088544 1.536 23 29 12 255
0.68213743 0.21212384 1.5450001 22 28 11 255
0.68502527 0.21171522 1.5420001 23 28 14 255
0.68923956 0.21171902 1.5420001 25 30 16 255
0.68850905 0.21021305 1.531 25 28 14 255
0.69541198 0.21104181 1.5370001 27 30 16 255
0.6982531 0.21063536 1.534 25 30 18 255
0.70428556 0.2111907 1.5380001 30 35 23 255
0.70665669 0.21064807 1.534 26 33 22 255
0.71271551 0.21120463 1.5380001 19 27 19 255
0.71693397 0.21121252 1.5380001 48 57 50 255
0.72068596 0.21108365 1.5370001 58 67 60 255
0.72254848 0.21040609 1.5320001 94 105 100 255
0.72343725 0.20945437 1.5250001 151 161 158 255
0.72524446 0.20877793 1.5200001 151 161 158 255
0.72558707 0.20768997 1.5120001 156 166 165 255
0.72733647 0.20701465 1.5070001 161 170 172 255
-0.64992857 0.22450054 1.6680001 148 157 146 255
-0.64424032 0.22410312 1.6650001 141 148 136 255
-0.63856912 0.22370607 1.6620001 148 156 139 255
-0.63367808 0.22357862 1.6610001 160 166 148 255
-0.62917203 0.22358613 1.6610001 149 155 137 255
-0.62466669 0.22359401 1.6610001 155 161 143 255
-0.62016195 0.22360222 1.6610001 133 142 123 255
-0.61528724 0.22347613 1.6600001 146 155 136 255
-0.6107865 0.22348507 1.6600001 135 143 126 255
-0.60592103 0.22335967 1.659 144 152 135 255
-0.60106152 0.22323458 1.6580001 140 148 131 255
-0.5962078 0.22310981 1.6570001 145 153 136 255
-0.59136003 0.22298534 1.6560001 143 149 132 255
-0.58687252 0.22299583 1.6560001 137 146 127 255
-0.58273679 0.22314124 1.6570001 166 175 156 255
-0.57824725 0.22315232 1.6570001 145 154 135 255
-0.57375777 0.22316363 1.6570001 137 146 127 255
-0.56892508 0.2230406 1.6560001 142 151 130 255
-0.56409794 0.22291774 1.6550001 132 141 120 255
-0.55961454 0.22292985 1.6550001 137 146 125 255
-0.55513132 0.22294222 1.6550001 136 145 126 255
-0.55064815 0.22295482 1.6550001 135 146 127 255
-0.54616499 0.22296765 1.6550001 134 144 127 255
-0.54200923 0.22311546 1.6560001 139 149 134 255
-0.537848 0.22326346 1.6570001 145 155 140 255
-0.5340032 0.22354646 1.659 140 149 137 255
-0.52919012 0.22342546 1.6580001 142 150 142 255
-0.43195665 0.23449603 1.7370001 149 157 150 255
-0.42822397 0.23505349 1.7410001 147 155 147 255
-0.42422566 0.23547602 1.7440001 137 146 135 255
-0.42021039 0.23589864 1.7470001 160 169 158 255
-0.41546467 0.2359162 1.7470001 142 151 139 255
-0.4093076 0.23512343 1.7410001 138 147 135 255
-0.40295008 0.23419552 1.7340001 149 158 146 255
-0.39640021 0.23313235 1.7260001 123 132 121 255
0.36577764 0.2124498 1.5730001 75 82 78 255
0.36981672 0.21229896 1.572 72 79 76 255
0.37384972 0.21214813 1.5710001 74 81 78 255
0.3773953 0.21172726 1.5680001 70 77 74 255
0.38116729 0.21144147 1.5660001 71 78 75 255
0.38443553 0.21088567 1.562 71 78 75 255
0.38892567 0.21100502 1.5630001 71 78 74 255
0.39291754 0.21085437 1.562 71 78 74 255
0.39664912 0.21056882 1.5600001 68 75 71 255
0.40036929 0.21028331 1.5580001 76 82 75 255
0.4038184 0.20986295 1.5550001 84 90 83 255
0.40725058 0.20944263 1.552 84 90 83 255
0.42693454 0.20665371 1.5320001 149 156 152 255
0.57630306 0.21556903 1.6010001 145 152 151 255
0.58064246 0.21555953 1.6010001 123 130 129 255
0.58936691 0.21716595 1.613 123 131 130 255
0.60404646 0.2209266 1.641 162 170 169 255
0.67603618 0.24014257 1.784 150 158 155 255
0.63473761 0.21614437 1.6060001 157 164 160 255
0.63432431 0.21452443 1.5940001 72 80 73 255
0.63625079 0.21371245 1.5880001 21 29 22 255
0.64137274 0.21397756 1.59 0 3 0 255
0.64244574 0.21289729 1.582 19 23 15 255
0.64265871 0.21154836 1.572 23 25 15 255
0.64281863 0.21019991 1.562 21 24 12 255
0.64582509 0.20979391 1.559 24 27 15 255
0.65090138 0.21006121 1.5610001 23 26 14 255
0.65305197 0.20938697 1.5560001 21 26 14 255
0.6555993 0.20884779 1.552 24 27 13 255
0.65770102 0.20817453 1.5470001 20 25 11 255
0.66020489 0.20763628 1.5430001 23 26 12 255
0.66311908 0.20723309 1.5400001 23 27 10 255
0.66688514 0.2070995 1.539 22 25 11 255
0.67064756 0.20696646 1.5380001 24 27 13 255
0.67528361 0.20710301 1.539 22 25 11 255
0.68301755 0.20818211 1.5470001 23 26 12 255
0.68591028 0.20778142 1.544 21 26 12 255
0.68744773 0.20697758 1.5380001 21 26 12 255
0.68850458 0.20603964 1.531 25 30 16 255
0.69314468 0.20617887 1.5320001 26 31 17 255
0.69642681 0.20591494 1.5300001 25 30 16 255
0.69786847 0.20511314 1.524 27 32 18 255
0.70158261 0.20498487 1.5230001 29 34 20 255
0.70992768 0.20620315 1.5320001 27 32 20 255
0.71599358 0.20674908 1.536 19 28 16 255
0.7188018 0.20635341 1.5330001 16 25 13 255
0.71970946 0.20541987 1.526 41 50 43 255
0.72295296 0.20515995 1.524 129 140 133 255
0.72523397 0.2046314 1.5200001 154 165 160 255
0.72605604 0.20369953 1.5130001 156 166 165 255
0.72684216 0.20276819 1.506 164 171 173 255
-0.67793 0.22019055 1.6700001 174 180 172 255
-0.67258483 0.2199308 1.6680001 181 190 179 255
-0.66484857 0.2188803 1.6600001 159 168 157 255
-0.65795255 0.21809392 1.654 180 189 177 255
-0.65148526 0.21743979 1.649 163 172 160 255
-0.64779258 0.21770906 1.651 130 140 125 255
-0.64370036 0.21784687 1.6520001 136 146 131 255
-0.63882971 0.21772131 1.651 154 160 142 255
-0.63434958 0.21772803 1.651 122 128 110 255
-0.6291073 0.21747138 1.649 151 157 139 255
-0.62577045 0.21787445 1.6520001 144 151 130 255
-0.62166607 0.21801418 1.6530001 143 150 129 255
-0.61793005 0.2182861 1.6550001 130 139 118 255
-0.61307198 0.21816273 1.654 149 158 139 255
-0.6085878 0.21817155 1.654 134 143 124 255
-0.60410416 0.21818075 1.654 142 151 132 255
-0.59962112 0.21819024 1.654 143 149 131 255
-0.5954982 0.21833192 1.6550001 140 146 128 255
-0.59101325 0.21834204 1.6550001 139 145 127 255
-0.58617419 0.21822047 1.654 136 145 126 255
-0.58134097 0.21809921 1.6530001 164 173 154 255
-0.57651347 0.21797822 1.6520001 131 140 121 255
-0.57238412 0.21812138 1.6530001 131 140 119 255
-0.56790608 0.21813285 1.6530001 133 143 120 255
-0.56308734 0.21801263 1.6520001 132 142 119 255
-0.55861229 0.21802463 1.6520001 135 145 122 255
-0.55413741 0.21803683 1.6520001 131 140 119 255
-0.54966265 0.21804932 1.6520001 122 131 110 255
-0.5448578 0.21792996 1.651 138 147 128 255
-0.5397312 0.21767886 1.649 142 151 132 255
-0.53494 0.21755996 1.6480001 143 154 135 255
-0.53079784 0.21770525 1.649 142 153 134 255
-0.52633113 0.21771875 1.649 141 152 133 255
-0.5224973 0.21799654 1.651 139 149 132 255
-0.51865244 0.21827449 1.6530001 138 148 133 255
-0.51541871 0.21881682 1.6570001 140 150 135 255
-0.51092976 0.21883112 1.6570001 131 141 126 255
-0.50613493 0.21871349 1.6560001 132 141 129 255
-0.50225401 0.21899225 1.6580001 137 146 134 255
-0.49896255 0.21953538 1.6620001 128 137 126 255
-0.49713665 0.22073925 1.6710001 128 137 126 255
-0.44715425 0.22544037 1.705 133 142 130 255
-0.44408509 0.22625045 1.7110001 143 153 138 255
-0.44072595 0.22692847 1.7160001 129 139 122 255
-0.43784723 0.22787112 1.723 125 136 117 255
-0.43492985 0.22881396 1.7300001 119 130 111 255
-0.43097916 0.22922789 1.733 117 128 109 255
-0.42725745 0.22977413 1.7370001 120 131 112 255
-0.42302677 0.23005591 1.7390001 121 132 111 255
-0.41926563 0.23060234 1.743 111 122 103 255
-0.41405514 0.23035499 1.7410001 111 122 103 255
-0.4076792 0.22944596 1.7340001 127 138 119 255
-0.40110821 0.22840452 1.7260001 151 162 143 255
-0.39457998 0.22736284 1.7180001 145 156 137 255
-0.38968319 0.22724748 1.7170001 145 156 137 255
-0.38456684 0.2269997 1.715 127 138 119 255
-0.22741599 0.2201983 1.6600001 106 113 112 255
-0.22287789 0.22021091 1.6600001 68 75 72 255
-0.21860212 0.22048865 1.6620001 63 70 67 255
-0.21392834 0.22036824 1.6610001 57 64 61 255
-0.20900719 0.21998224 1.6580001 60 67 64 255
-0.20397845 0.21946332 1.654 69 76 72 255
-0.1993327 0.21934222 1.6530001 76 83 79 255
-0.19469173 0.21922088 1.6520001 86 93 89 255
-0.19097655 0.22016096 1.659 82 89 85 255
-0.18699759 0.22083551 1.664 80 87 83 255
-0.18288104 0.22137719 1.6680001 74 81 78 255
-0.17820741 0.22125506 1.6670001 72 79 76 255
0.3164463 0.20966569 1.5830001 73 80 79 255
0.31974319 0.20898834 1.5780001 77 84 83 255
0.32362819 0.20870832 1.5760001 78 85 84 255
0.32729346 0.20829584 1.5730001 80 87 84 255
0.33073092 0.20775092 1.5690001 78 85 81 255
0.33371881 0.20694125 1.5630001 76 83 79 255
0.33732209 0.2065288 1.5600001 82 89 85 255
0.34134617 0.20638111 1.559 76 84 77 255
0.34580755 0.20649818 1.5600001 80 88 81 255
0.34960046 0.20621809 1.5580001 77 84 80 255
0.35315469 0.20580567 1.5550001 77 84 80 255
0.35715166 0.20565796 1.554 81 88 84 255
0.36160755 0.20577492 1.5550001 80 87 83 255
0.36606824 0.20589186 1.5560001 77 84 81 255
0.36981973 0.20561178 1.554 76 83 80 255
0.37331909 0.20519949 1.5510001 75 82 79 255
0.37728831 0.20505185 1.5500001 76 83 80 255
0.38100535 0.20477194 1.5480001 74 81 78 255
0.38545743 0.2048889 1.549 71 78 74 255
0.38991442 0.20500587 1.5500001 72 79 75 255
0.39386758 0.20485832 1.549 68 75 71 255
0.39730087 0.20444635 1.5460001 68 76 69 255
0.40071735 0.20403449 1.5430001 72 80 73 255
0.4051666 0.2041516 1.544 71 77 70 255
0.40935564 0.20413652 1.544 73 79 72 255
0.41381198 0.20425373 1.5450001 76 82 75 255
0.4182733 0.20437098 1.5460001 78 84 77 255
0.42191973 0.20409171 1.544 83 89 82 255
0.42555487 0.20381254 1.5420001 84 92 85 255
0.4294574 0.20366566 1.5410001 132 139 135 255
0.43447965 0.20404752 1.544 124 131 127 255
0.44150653 0.20535441 1.554 147 154 150 255
0.4503082 0.20745403 1.5700001 151 159 156 255
0.45948571 0.20968559 1.5870001 151 158 155 255
0.46612489 0.21072789 1.595 153 160 157 255
0.4698576 0.21044907 1.5930001 157 164 161 255
0.47417438 0.21043462 1.5930001 160 167 164 255
0.4787913 0.21055241 1.5940001 161 168 165 255
0.48371637 0.21080236 1.5960001 162 170 167 255
0.56692666 0.21096349 1.5990001 72 79 78 255
0.56768698 0.20963417 1.5890001 54 61 60 255
0.57019329 0.2089649 1.5840001 71 78 77 255
0.57303554 0.20842788 1.58 86 93 92 255
0.57768351 0.20855074 1.5810001 86 94 91 255
0.58528215 0.20972912 1.59 76 84 81 255
0.59700918 0.21235868 1.6100001 73 81 78 255
0.61332732 0.21657102 1.6420001 123 132 127 255
0.61447477 0.21232763 1.6100001 149 156 152 255
0.61845857 0.21218887 1.6090001 155 162 159 255
0.61895388 0.21086362 1.5990001 149 156 153 255
0.62095493 0.21006629 1.5930001 84 91 88 255
0.62174678 0.20887379 1.5840001 77 84 81 255
0.62209541 0.20754987 1.5740001 76 83 79 255
0.62358445 0.20662196 1.567 82 88 81 255
0.62583786 0.2059582 1.562 87 93 86 255
0.63008195 0.20595413 1.562 11 15 7 255
0.63432723 0.2059505 1.562 20 25 14 255
0.63734716 0.20555171 1.559 21 24 12 255
0.64035195 0.20515336 1.5560001 21 24 12 255
0.64209884 0.20435989 1.5500001 20 23 11 255
0.6454823 0.20409428 1.5480001 20 23 11 255
0.6471774 0.20330173 1.5420001 20 23 11 255
0.65137577 0.2033007 1.5420001 21 24 12 255
0.65430003 0.20290457 1.539 22 25 11 255
0.65763742 0.20264076 1.5370001 22 25 11 255
0.6605348 0.20224559 1.534 22 25 11 255
0.66385078 0.20198275 1.5320001 20 23 9 255
0.66846567 0.20211591 1.5330001 22 25 11 255
0.67220998 0.20198584 1.5320001 22 25 11 255
0.67948276 0.20291108 1.539 23 26 12 255
0.68324172 0.20278209 1.5380001 23 26 12 255
0.68342125 0.20159878 1.529 21 26 12 255
0.68400329 0.20054783 1.521 24 29 15 255
0.6895203 0.20094775 1.524 26 31 19 255
0.69278002 0.20068896 1.5220001 25 30 18 255
0.69419914 0.19990325 1.516 26 31 17 255
0.69881231 0.20004113 1.5170001 30 35 21 255
0.70621347 0.2009708 1.524 28 33 21 255
0.71179068 0.20137361 1.5270001 23 31 16 255
0.71410471 0.20085387 1.5230001 21 30 18 255
0.71639919 0.2003347 1.5190001 16 26 17 255
0.72009736 0.20021173 1.5180001 105 114 107 255
0.72379261 0.2000894 1.5170001 149 162 157 255
0.72508562 0.19930811 1.511 154 166 165 255
0.72538304 0.19826356 1.503 162 171 174 255
-0.69031358 0.21524431 1.6670001 149 156 145 255
-0.6816659 0.21395573 1.6570001 166 173 161 255
-0.6742999 0.21305498 1.6500001 155 165 150 255
-0.66940886 0.21292938 1.649 183 193 176 255
-0.66573411 0.21319157 1.651 181 191 174 255
-0.66124856 0.21319595 1.651 176 186 169 255
-0.65557075 0.21281333 1.6480001 167 177 160 255
-0.64991027 0.2124311 1.6450001 174 184 167 255
-0.64583647 0.21256579 1.646 138 148 131 255
-0.64214802 0.21283007 1.6480001 129 138 119 255
-0.63767552 0.2128364 1.6480001 125 131 113 255
-0.63358802 0.21297222 1.649 132 136 118 255
-0.62835151 0.21272099 1.6470001 143 149 131 255
-0.6250205 0.21311589 1.6500001 140 146 128 255
-0.6212979 0.21338198 1.6520001 142 148 130 255
-0.61756498 0.21364844 1.654 122 131 112 255
-0.61271 0.21352775 1.6530001 136 145 126 255
-0.60749292 0.21327817 1.651 127 136 117 255
-0.60265255 0.2131581 1.6500001 134 143 124 255
-0.59890562 0.21342587 1.6520001 133 142 123 255
-0.59478849 0.21356478 1.6530001 132 138 120 255
-0.59066629 0.21370399 1.654 134 140 122 255
-0.58583033 0.21358509 1.6530001 131 140 121 255
-0.5802967 0.21320803 1.6500001 160 169 150 255
-0.57617551 0.21334809 1.651 117 126 105 255
-0.5720492 0.21348843 1.6520001 130 141 120 255
-0.56791759 0.21362902 1.6530001 125 135 112 255
-0.56309921 0.21351142 1.6520001 128 138 113 255
-0.55828619 0.21339403 1.651 128 138 113 255
-0.55381429 0.2134061 1.651 129 137 112 255
-0.55000782 0.21367694 1.6530001 117 127 102 255
-0.54520059 0.21356024 1.6520001 136 146 123 255
-0.54007143 0.21331443 1.6500001 142 151 130 255
-0.53495306 0.21306883 1.6480001 144 153 132 255
-0.53081119 0.21321124 1.649 140 149 130 255
-0.52602547 0.21309528 1.6480001 141 152 133 255
-0.52156156 0.21310884 1.6480001 137 148 129 255
-0.51678371 0.21299319 1.6470001 129 139 122 255
-0.51294428 0.2132657 1.649 153 163 146 255
-0.50847709 0.21327977 1.649 153 163 146 255
-0.50339854 0.21303527 1.6470001 125 135 118 255
-0.4992393 0.21317896 1.6480001 128 138 121 255
-0.49597511 0.21371093 1.6520001 125 135 118 255
-0.49268889 0.21424311 1.6560001 127 137 122 255
-0.48938063 0.21477547 1.6600001 132 142 127 255
-0.48429784 0.21453167 1.6580001 127 137 122 255
-0.48067242 0.214935 1.6610001 123 132 120 255
-0.47703034 0.21533847 1.664 123 132 120 255
-0.47422358 0.21613039 1.6700001 136 145 133 255
-0.47110251 0.21679306 1.6750001 132 141 129 255
-0.46739689 0.21719705 1.6780001 120 129 117 255
-0.46422607 0.21786009 1.6830001 130 139 127 255
-0.45938897 0.21774657 1.682 123 132 120 255
-0.45536807 0.21802148 1.6840001 140 150 135 255
-0.45133567 0.21829651 1.6860001 122 132 115 255
-0.44835189 0.2190896 1.692 107 118 99 255
-0.44533494 0.21988285 1.6980001 125 136 117 255
-0.44228488 0.22067629 1.7040001 110 121 100 255
-0.43945846 0.22159934 1.7110001 107 116 95 255
-0.43659347 0.22252263 1.7180001 106 116 93 255
-0.43343833 0.22331654 1.7240001 102 112 89 255
-0.42975271 0.2238515 1.728 102 112 89 255
-0.42629054 0.22451614 1.733 108 118 95 255
-0.42207077 0.22479217 1.7350001 112 122 99 255
-0.4173584 0.2248091 1.7350001 106 117 96 255
-0.41121823 0.22404855 1.7290001 140 151 132 255
-0.40299389 0.22212152 1.7140001 161 172 153 255
-0.39531514 0.22045343 1.7010001 161 172 153 255
-0.38931412 0.21969235 1.6950001 135 146 127 255
-0.38584158 0.22035694 1.7 105 116 95 255
-0.38278967 0.22128092 1.7070001 104 116 93 255
-0.37969884 0.22220497 1.7140001 103 112 91 255
-0.37525636 0.22235118 1.715 102 113 94 255
-0.27880427 0.21667992 1.669 97 104 106 255
-0.27392107 0.21643452 1.6670001 94 100 102 255
-0.26904795 0.21618897 1.6650001 97 103 105 255
-0.26434392 0.21607311 1.664 94 101 100 255
-0.25933224 0.21569735 1.6610001 98 105 104 255
-0.25418282 0.21519151 1.6570001 87 94 93 255
-0.24950647 0.21507509 1.6560001 83 90 89 255
-0.2451307 0.21521823 1.6570001 81 88 87 255
-0.24031314 0.21497156 1.6550001 78 85 84 255
-0.23507835 0.21433498 1.6500001 119 126 125 255
-0.23056881 0.21434769 1.6500001 89 96 95 255
-0.22619553 0.21449012 1.651 77 84 81 255
-0.22181614 0.21463241 1.6520001 72 79 76 255
-0.217299 0.21464457 1.6520001 71 78 75 255
-0.21226595 0.21413682 1.6480001 67 74 71 255
-0.20763226 0.21401863 1.6470001 83 90 86 255
-0.20288007 0.21377029 1.6450001 69 77 70 255
-0.1984999 0.21391156 1.646 77 85 78 255
-0.19387789 0.21379274 1.6450001 80 88 81 255
-0.18960607 0.21406361 1.6470001 78 86 79 255
-0.18554743 0.21459427 1.651 71 78 74 255
-0.18146625 0.21512476 1.6550001 76 83 80 255
-0.17704183 0.21526511 1.6560001 78 85 82 255
-0.17261128 0.21540521 1.6570001 80 87 84 255
-0.16817467 0.21554512 1.6580001 79 86 83 255
-0.16383068 0.21581481 1.6600001 82 89 85 255
-0.15966706 0.21634434 1.664 82 89 85 255
-0.15548097 0.21687371 1.6680001 79 87 80 255
-0.15145335 0.2176629 1.674 76 84 77 255
-0.14739229 0.21845192 1.6800001 76 84 77 255
-0.14304283 0.21885067 1.6830001 72 80 73 255
-0.13925216 0.22015946 1.6930001 63 71 64 255
-0.13500862 0.22081788 1.6980001 54 62 55 255
0.28608888 0.20531458 1.582 79 86 83 255
0.2898508 0.20491095 1.5790001 85 92 89 255
0.29340932 0.20437755 1.575 73 80 77 255
0.29656726 0.2035846 1.5690001 83 90 87 255
0.3000752 0.20305113 1.5650001 90 97 93 255
0.30511639 0.20355557 1.5690001 83 90 86 255
0.30958703 0.20367065 1.5700001 77 84 81 255
0.3132627 0.20326674 1.567 81 88 87 255
0.3167187 0.20273313 1.5630001 84 91 90 255
0.32097363 0.20271835 1.5630001 80 87 86 255
0.32501969 0.20257378 1.562 78 85 82 255
0.32842723 0.20204014 1.5580001 75 80 77 255
0.33202577 0.20163618 1.5550001 76 83 79 255
0.33582354 0.20136189 1.5530001 80 88 81 255
0.3398287 0.20121726 1.552 80 88 81 255
0.34404933 0.20120223 1.552 80 88 81 255
0.34826931 0.20118718 1.552 75 83 76 255
0.35226148 0.20104246 1.5510001 77 84 80 255
0.35624754 0.20089775 1.5500001 76 83 79 255
0.36046007 0.20088264 1.5500001 76 83 79 255
0.3644366 0.20073789 1.549 76 83 79 255
0.3684071 0.20059323 1.5480001 74 81 77 255
0.37213084 0.20031896 1.5460001 74 81 78 255
0.37632984 0.20030387 1.5460001 74 81 77 255
0.38028216 0.20015922 1.5450001 75 82 78 255
0.38522381 0.20053279 1.5480001 69 76 72 255
0.389678 0.20064723 1.549 72 80 73 255
0.39388272 0.20063218 1.549 69 77 70 255
0.39705899 0.20009911 1.5450001 65 73 66 255
0.4007324 0.19982517 1.5430001 68 76 69 255
0.40491915 0.19981027 1.5430001 72 80 73 255
0.40884033 0.19966593 1.5420001 70 78 71 255
0.41248763 0.1993922 1.5400001 72 80 73 255
0.41639417 0.19924802 1.539 75 83 76 255
0.42029485 0.19910394 1.5380001 76 84 77 255
0.42418957 0.19895993 1.5370001 74 82 75 255
0.42835715 0.19894545 1.5370001 73 81 74 255
0.43280578 0.19906053 1.5380001 73 81 74 255
0.43811163 0.19956389 1.5420001 73 80 76 255
0.44458622 0.20058493 1.5500001 80 87 84 255
0.45226187 0.20212351 1.562 77 84 81 255
0.45970994 0.20353256 1.5730001 73 80 77 255
0.4663325 0.20455343 1.5810001 68 75 71 255
0.47150967 0.20492738 1.5840001 72 79 75 255
0.47580165 0.20491332 1.5840001 72 79 75 255
0.47979027 0.20477003 1.5830001 69 76 72 255
0.48346746 0.20449756 1.5810001 65 72 68 255
0.48744211 0.20435463 1.58 72 79 76 255
0.49265587 0.20472915 1.5830001 74 81 78 255
0.49788582 0.2051038 1.5860001 74 81 78 255
0.50249863 0.20521995 1.5870001 72 79 76 255
0.50775528 0.20559484 1.59 79 86 83 255
0.51302826 0.2059699 1.5930001 76 83 80 255
0.56119716 0.20610049 1.595 104 111 110 255
0.56303668 0.20518586 1.5880001 83 90 87 255
0.56448132 0.20414233 1.58 68 75 72 255
0.5669629 0.20348679 1.575 44 51 48 255
0.56941783 0.20283158 1.5700001 77 84 80 255
0.57330763 0.20269346 1.5690001 89 98 93 255
0.57866478 0.20307237 1.572 89 98 93 255
0.58552223 0.20396829 1.5790001 85 92 88 255
0.59391207 0.20538108 1.59 101 109 102 255
0.59784734 0.20524411 1.5890001 42 50 43 255
0.59988302 0.20446168 1.5830001 61 69 62 255
0.60074186 0.20329216 1.5740001 71 79 72 255
0.60385889 0.202898 1.5710001 80 87 83 255
0.60657322 0.20237499 1.567 77 84 80 255
0.6108259 0.202369 1.567 87 94 90 255
0.61429441 0.20210509 1.5650001 82 89 85 255
0.61696237 0.20158328 1.5610001 79 86 82 255
0.61960959 0.20106184 1.557 76 84 77 255
0.62223613 0.20054083 1.5530001 80 86 79 255
0.62726223 0.20079501 1.5550001 73 77 69 255
0.63148803 0.2007913 1.5550001 14 19 8 255
0.63489729 0.20052975 1.5530001 20 23 11 255
0.6382969 0.20026864 1.5510001 20 23 11 255
0.6412726 0.19987883 1.5480001 20 23 11 255
0.6446501 0.19961853 1.5460001 21 24 12 255
0.64591962 0.19871308 1.539 20 23 11 255
0.65010941 0.19871193 1.539 20 23 9 255
0.65472567 0.19884035 1.5400001 21 26 12 255
0.65806532 0.19858186 1.5380001 22 25 11 255
0.66182613 0.19845295 1.5370001 21 26 12 255
0.6642831 0.19793715 1.5330001 24 27 13 255
0.66759199 0.19768004 1.531 22 25 11 255
0.6708917 0.19742344 1.529 23 26 14 255
0.67683125 0.19794203 1.5330001 21 24 10 255
0.68235022 0.19833204 1.536 20 25 11 255
0.68162984 0.19691479 1.5250001 21 26 14 255
0.68130106 0.19562714 1.5150001 24 29 15 255
0.6868012 0.19601868 1.5180001 26 31 19 255
0.69004393 0.19576505 1.516 25 30 18 255
0.6941936 0.19577025 1.516 25 30 16 255
0.69742417 0.1955177 1.5140001 27 32 20 255
0.70435315 0.19629884 1.5200001 28 33 21 255
0.70525759 0.19540167 1.5130001 26 31 17 255
0.70987695 0.19553824 1.5140001 22 29 17 255
0.71356106 0.19541708 1.5130001 13 22 11 255
0.71913952 0.19581312 1.516 50 60 51 255
0.72187448 0.19543481 1.5130001 156 169 164 255
0.72459549 0.19505705 1.5100001 152 164 163 255
0.72440708 0.19390476 1.501 160 169 174 255
-0.6930939 0.20880261 1.6520001 153 159 151 255
-0.68484712 0.2076669 1.6430001 148 155 143 255
-0.67954934 0.2074164 1.641 152 162 147 255
-0.67344105 0.2069135 1.6370001 173 183 166 255
-0.66858184 0.20679025 1.636 154 165 146 255
-0.66251147 0.2062882 1.6320001 181 192 173 255
-0.65807682 0.20629217 1.6320001 173 184 165 255
-0.65324277 0.20617011 1.631 162 173 154 255
-0.64881319 0.20617488 1.631 164 175 156 255
-0.64359421 0.20592721 1.6290001 171 182 163 255
-0.64034909 0.20631197 1.6320001 157 168 149 255
-0.63786787 0.20694999 1.6370001 109 118 99 255
-0.6353603 0.20758839 1.6420001 133 139 121 255
-0.63205808 0.20797436 1.6450001 129 135 117 255
-0.62797725 0.20810784 1.646 142 148 131 255
-0.62389171 0.20824164 1.6470001 133 139 122 255
-0.61980146 0.20837581 1.6480001 141 146 132 255
-0.61607981 0.20863679 1.6500001 121 129 114 255
-0.61123592 0.20851874 1.649 129 137 122 255
-0.60639799 0.20840099 1.6480001 133 139 121 255
-0.60156596 0.20828353 1.6470001 137 143 125 255
-0.59782755 0.20854579 1.649 132 139 118 255
-0.59371883 0.20868188 1.6500001 136 143 121 255
-0.58960503 0.20881829 1.651 134 141 119 255
-0.58477753 0.208702 1.6500001 133 143 118 255
-0.57960391 0.20845947 1.6480001 149 159 134 255
-0.57583743 0.20872319 1.6500001 114 124 99 255
-0.57171398 0.20886067 1.651 132 142 117 255
-0.56724191 0.20887192 1.651 123 133 108 255
-0.56208819 0.20863037 1.649 121 131 106 255
-0.55728364 0.20851557 1.6480001 129 137 112 255
-0.55382639 0.2089071 1.651 117 125 100 255
-0.54935467 0.20891927 1.651 114 122 97 255
-0.54488307 0.20893167 1.651 129 139 114 255
-0.53975683 0.20869116 1.649 134 144 119 255
-0.53529066 0.20870396 1.649 135 145 122 255
-0.53050244 0.2085904 1.6480001 137 147 124 255
-0.52571964 0.20847698 1.6470001 136 145 124 255
-0.52062565 0.20823716 1.6450001 139 148 127 255
-0.51585609 0.20812406 1.6440001 152 161 140 255
-0.51140279 0.20813772 1.6440001 145 154 133 255
-0.50694937 0.20815152 1.6440001 147 156 137 255
-0.50219011 0.20803893 1.6430001 145 154 135 255
-0.49804187 0.20817967 1.6440001 127 136 117 255
-0.49478865 0.20870049 1.6480001 128 137 118 255
-0.49121591 0.20909485 1.651 128 137 118 255
-0.48762655 0.20948942 1.654 126 135 116 255
-0.48372856 0.20975749 1.6560001 114 123 104 255
-0.47981933 0.21002573 1.6580001 119 128 109 255
-0.47561213 0.21016742 1.659 132 141 122 255
-0.4716832 0.21043594 1.6610001 127 136 117 255
-0.4680241 0.21083125 1.664 133 142 123 255
-0.464627 0.21135348 1.6680001 113 122 103 255
-0.46120757 0.21187584 1.6720001 107 118 99 255
-0.45721978 0.2121449 1.674 129 140 121 255
-0.45349103 0.21254078 1.677 126 137 116 255
-0.45001319 0.21306357 1.6810001 107 117 94 255
-0.44677809 0.21371326 1.6860001 101 111 86 255
-0.4437775 0.21448983 1.692 107 115 89 255
-0.44100338 0.21539339 1.6990001 109 117 91 255
-0.4381907 0.21629709 1.7060001 107 114 85 255
-0.43483105 0.21694736 1.7110001 106 113 84 255
-0.43144357 0.21759777 1.7160001 106 113 82 255
-0.4277797 0.21812151 1.72 102 109 80 255
-0.42433938 0.21877213 1.725 99 106 77 255
-0.4201414 0.21904239 1.7270001 103 111 85 255
-0.41448846 0.21855161 1.723 145 154 133 255
-0.4071916 0.21717279 1.7120001 165 176 157 255
-0.39689717 0.21414456 1.6880001 167 177 160 255
-0.3892889 0.21251144 1.6750001 165 175 158 255
-0.38427725 0.21227375 1.6730001 143 154 135 255
-0.38131851 0.21317802 1.6800001 119 130 111 255
-0.37921798 0.21459001 1.6910001 99 109 84 255
-0.37705687 0.2160022 1.702 90 100 75 255
-0.37374109 0.21677993 1.7080001 88 98 73 255
-0.36866313 0.2165423 1.7060001 92 102 79 255
-0.29300362 0.21245626 1.6720001 94 101 103 255
-0.28740805 0.21170831 1.6660001 100 107 109 255
-0.28235376 0.21134135 1.6630001 105 112 114 255
-0.27731502 0.21097425 1.6600001 104 110 112 255
-0.27212757 0.21047984 1.6560001 98 104 106 255
-0.26712275 0.21011233 1.6530001 97 103 105 255
-0.26245126 0.20999888 1.6520001 95 102 101 255
-0.25778449 0.20988524 1.651 91 98 97 255
-0.25281557 0.20951717 1.6480001 71 78 77 255
-0.24816363 0.20940317 1.6470001 83 90 89 255
-0.24351642 0.209289 1.646 77 84 83 255
-0.23843831 0.20879321 1.6420001 114 121 120 255
-0.23338129 0.20829715 1.6380001 95 102 101 255
-0.22932358 0.20869106 1.641 77 84 83 255
-0.22511181 0.2089577 1.6430001 81 88 85 255
-0.22075409 0.20909698 1.6440001 86 93 90 255
-0.21586399 0.2087273 1.641 86 93 90 255
-0.21124725 0.20861182 1.6400001 77 84 81 255
-0.20650916 0.20836891 1.6380001 83 90 86 255
-0.20202807 0.20838021 1.6380001 62 70 63 255
-0.19754626 0.20839131 1.6380001 76 84 77 255
-0.19306378 0.20840223 1.6380001 78 86 79 255
-0.18881093 0.20866738 1.6400001 76 84 77 255
-0.18443409 0.20880516 1.641 78 85 81 255
-0.18016079 0.20906995 1.6430001 79 86 82 255
-0.1759828 0.20946179 1.646 80 87 84 255
-0.17147528 0.20947173 1.646 82 89 86 255
-0.1673729 0.20999049 1.6500001 82 89 86 255
-0.1631493 0.21038178 1.6530001 81 88 84 255
-0.15919659 0.21115473 1.659 69 77 70 255
-0.15539685 0.21218207 1.6670001 64 72 65 255
-0.15137175 0.2129547 1.6730001 61 69 62 255
-0.14731322 0.21372718 1.6790001 63 71 63 255
-0.14305127 0.21424483 1.6830001 59 67 60 255
-0.13934267 0.21565342 1.6940001 62 70 63 255
-0.13525519 0.21655263 1.7010001 59 67 60 255
-0.13074493 0.2168151 1.7030001 58 66 59 255
0.25702506 0.20197658 1.5890001 65 72 69 255
0.26086867 0.20158198 1.5860001 73 78 75 255
0.2640264 0.20067897 1.5790001 82 89 86 255
0.26765493 0.20015717 1.575 67 74 71 255
0.27160627 0.1998895 1.5730001 91 98 95 255
0.27572131 0.19974878 1.572 88 95 92 255
0.2794739 0.19935386 1.5690001 81 88 85 255
0.28320941 0.19895886 1.5660001 81 88 85 255
0.28729492 0.19881791 1.5650001 76 83 79 255
0.29118794 0.19854984 1.5630001 78 85 81 255
0.29488033 0.1981547 1.5600001 80 87 83 255
0.29836383 0.19763249 1.5560001 90 97 93 255
0.30279717 0.19774528 1.557 81 88 85 255
0.30723521 0.19785796 1.5580001 77 84 83 255
0.31147808 0.1978436 1.5580001 75 82 81 255
0.31551749 0.19770214 1.557 84 91 90 255
0.31975612 0.1976876 1.557 76 83 82 255
0.32378593 0.19754605 1.5560001 79 84 81 255
0.32738799 0.1971506 1.5530001 78 83 80 255
0.33097294 0.19675511 1.5500001 81 86 82 255
0.33475712 0.19648655 1.5480001 81 87 80 255
0.33896768 0.19647186 1.5480001 79 87 80 255
0.3429558 0.19633017 1.5470001 75 83 76 255
0.34738663 0.19644231 1.5480001 74 81 77 255
0.35136792 0.1963006 1.5470001 73 80 76 255
0.355573 0.19628577 1.5470001 72 79 75 255
0.35977739 0.19627093 1.5470001 73 80 76 255
0.36374581 0.1961292 1.5460001 72 79 75 255
0.36770809 0.19598746 1.5450001 72 79 75 255
0.37142369 0.19571893 1.5430001 73 80 76 255
0.37585795 0.1958309 1.544 74 81 77 255
0.37980482 0.19568928 1.5430001 70 77 73 255
0.38498992 0.19618168 1.5470001 71 79 72 255
0.38969296 0.19642045 1.549 70 78 71 255
0.39440629 0.19665924 1.5510001 70 78 71 255
0.39784488 0.19626404 1.5480001 66 74 67 255
0.40178606 0.1961225 1.5470001 67 73 66 255
0.40572125 0.19598103 1.5460001 68 74 67 255
0.40938526 0.19571285 1.544 71 76 72 255
0.41303796 0.19544478 1.5420001 74 79 75 255
0.41667929 0.19517678 1.5400001 76 81 77 255
0.42058259 0.19503564 1.539 74 82 75 255
0.42420393 0.19476782 1.5370001 75 83 76 255
0.42809275 0.19462685 1.536 71 78 74 255
0.43197572 0.19448599 1.5350001 77 85 78 255
0.43642104 0.19459859 1.536 78 85 81 255
0.44173196 0.19509134 1.5400001 78 85 81 255
0.44735363 0.19571076 1.5450001 78 85 82 255
0.45358664 0.19658352 1.552 78 85 81 255
0.45985726 0.1974563 1.559 80 87 83 255
0.46616545 0.19832905 1.5660001 76 83 79 255
0.47161013 0.19882189 1.5700001 75 82 78 255
0.47707617 0.1993148 1.5740001 76 83 79 255
0.48103461 0.19917464 1.5730001 75 82 78 255
0.48529595 0.19916128 1.5730001 76 83 80 255
0.489557 0.19914806 1.5730001 77 84 80 255
0.49475974 0.19951479 1.5760001 78 85 81 255
0.49871194 0.19937526 1.575 75 82 78 255
0.50297797 0.19936252 1.575 76 83 79 255
0.50627768 0.19897023 1.572 79 86 82 255
0.51053536 0.19895783 1.572 84 91 88 255
0.51479304 0.19894566 1.572 74 82 81 255
0.52235258 0.20019916 1.582 121 129 128 255
0.53063196 0.20170578 1.5940001 170 178 177 255
0.54824543 0.20178661 1.595 167 175 172 255
0.55152655 0.20139624 1.5920001 160 168 167 255
0.55409336 0.20075317 1.5870001 82 89 88 255
0.55733705 0.20036338 1.5840001 95 102 99 255
0.56091923 0.20010036 1.582 78 83 79 255
0.56270462 0.19920528 1.575 46 51 47 255
0.56517237 0.19856346 1.5700001 40 47 43 255
0.56725073 0.19779551 1.5640001 70 77 73 255
0.57039315 0.19740729 1.5610001 91 100 95 255
0.57462406 0.19739877 1.5610001 90 97 93 255
0.58070964 0.1980228 1.5660001 83 90 86 255
0.58719635 0.1987735 1.572 88 96 89 255
0.59145874 0.19876581 1.572 28 36 29 255
0.59458494 0.19837917 1.5690001 62 70 63 255
0.59655041 0.19761355 1.5630001 60 68 61 255
0.59963721 0.19722761 1.5600001 69 77 70 255
0.60193425 0.19658914 1.5550001 75 82 78 255
0.60615402 0.19658321 1.5550001 80 87 83 255
0.61037457 0.19657758 1.5550001 80 87 83 255
0.61459607 0.19657235 1.5550001 73 80 76 255
0.6172266 0.1960618 1.5510001 74 81 77 255
0.62023711 0.19567809 1.5480001 80 86 79 255
0.62444246 0.19567399 1.5480001 84 90 83 255
0.62986714 0.19604944 1.5510001 10 14 6 255
0.63326508 0.19579327 1.549 21 23 13 255
0.63665348 0.19553755 1.5470001 21 24 12 255
0.63920361 0.19502941 1.5430001 22 25 13 255
0.64340103 0.19502729 1.5430001 20 23 11 255
0.64508164 0.19426723 1.5370001 23 26 14 255
0.64842075 0.19401318 1.5350001 21 24 12 255
0.65217531 0.19388597 1.534 20 25 11 255
0.65635389 0.19388556 1.534 24 27 13 255
0.66010338 0.19375926 1.5330001 20 25 11 255
0.66298234 0.19338061 1.5300001 19 24 10 255
0.66541046 0.192876 1.526 19 24 10 255
0.66737962 0.19224547 1.521 21 24 10 255
0.67285544 0.19262658 1.524 20 23 9 255
0.67879355 0.19313461 1.5280001 21 24 10 255
0.68162662 0.19275832 1.5250001 19 24 10 255
0.68219674 0.19175051 1.5170001 23 28 14 255
0.68408227 0.19112238 1.5120001 22 27 13 255
0.68685293 0.19074759 1.5090001 25 30 16 255
0.69281459 0.19125813 1.5130001 26 31 17 255
0.69511509 0.19075795 1.5090001 28 33 19 255
0.70017618 0.19101673 1.511 27 32 18 255
0.70105535 0.19013834 1.5040001 24 29 15 255
0.70846277 0.19103041 1.511 23 30 18 255
0.71402448 0.19141735 1.5140001 13 22 11 255
0.71865648 0.19155204 1.5150001 35 45 36 255
0.72138804 0.19118156 1.5120001 157 170 165 255
0.7236259 0.19068518 1.508 151 163 162 255
0.72391403 0.18968354 1.5000001 161 170 175 255
-0.69656473 0.20269145 1.6390001 157 163 155 255
-0.68745726 0.20133211 1.628 156 163 152 255
-0.68260676 0.20120992 1.6270001 143 150 138 255
-0.6765126 0.20071715 1.623 160 168 151 255
-0.67209786 0.20071948 1.623 166 176 159 255
-0.66645044 0.20035125 1.6200001 165 176 157 255
-0.66204655 0.20035441 1.6200001 166 177 158 255
-0.65561402 0.19973961 1.6150001 155 166 147 255
-0.65082282 0.19961989 1.6140001 125 134 113 255
-0.64563757 0.19937688 1.6120001 150 159 138 255
-0.64086205 0.19925793 1.6110001 169 180 159 255
-0.63727826 0.1995104 1.613 178 187 166 255
-0.63446921 0.20001064 1.6170001 109 118 97 255
-0.63202912 0.200635 1.6220001 105 114 95 255
-0.62994951 0.20138343 1.628 157 163 145 255
-0.62783837 0.20213224 1.6340001 135 141 123 255
-0.62569535 0.20288147 1.6400001 129 134 120 255
-0.62162632 0.20301248 1.641 140 148 133 255
-0.61755276 0.20314388 1.6420001 140 148 133 255
-0.61384767 0.20339932 1.6440001 145 150 136 255
-0.61013246 0.20365508 1.646 128 136 119 255
-0.60603887 0.20378746 1.6470001 129 138 119 255
-0.60157514 0.2037964 1.6470001 135 141 123 255
-0.59711188 0.20380563 1.6470001 133 142 121 255
-0.59264904 0.20381516 1.6470001 135 144 123 255
-0.58854371 0.20394869 1.6480001 126 135 114 255
-0.5837245 0.20383504 1.6470001 136 145 124 255
-0.57926273 0.20384537 1.6470001 123 132 111 255
-0.57549924 0.20410351 1.649 116 126 103 255
-0.57172513 0.20436193 1.651 112 122 99 255
-0.56725317 0.20437305 1.651 122 132 107 255
-0.56209981 0.20413683 1.649 130 138 113 255
-0.55729538 0.2040246 1.6480001 124 132 107 255
-0.55350292 0.20428401 1.6500001 125 133 108 255
-0.54903418 0.20429605 1.6500001 125 133 108 255
-0.5445655 0.2043083 1.6500001 127 135 110 255
-0.53976947 0.2041969 1.649 133 141 116 255
-0.53530347 0.20420954 1.649 126 136 111 255
-0.53083736 0.20422235 1.649 130 140 117 255
-0.52605206 0.20411153 1.6480001 133 143 120 255
-0.52095538 0.20387696 1.646 129 139 116 255
-0.51586956 0.20364256 1.6440001 130 140 117 255
-0.51079434 0.2034083 1.6420001 129 136 114 255
-0.5066548 0.20354582 1.6430001 130 140 117 255
-0.50159276 0.20331179 1.641 144 151 129 255
-0.49745002 0.20344961 1.6420001 152 159 137 255
-0.49360195 0.20371149 1.6440001 124 133 112 255
-0.48944515 0.20384961 1.6450001 127 136 117 255
-0.48557737 0.2041118 1.6470001 123 132 113 255
-0.48140639 0.20425022 1.6480001 125 134 115 255
-0.47780833 0.20463665 1.651 129 138 119 255
-0.47419363 0.20502326 1.654 124 133 114 255
-0.47027835 0.20528606 1.6560001 123 132 113 255
-0.46663296 0.20567293 1.659 119 128 107 255
-0.46297091 0.20605996 1.6620001 117 126 107 255
-0.45929211 0.20644714 1.6650001 120 131 110 255
-0.45586959 0.20695844 1.669 138 147 126 255
-0.45215449 0.20734587 1.6720001 131 141 118 255
-0.44895804 0.20798148 1.677 106 116 91 255
-0.4454689 0.20849322 1.6810001 107 115 89 255
-0.44274434 0.20937718 1.6880001 105 114 85 255
-0.43946198 0.21001323 1.6930001 104 111 82 255
-0.43640879 0.21077348 1.6990001 105 112 83 255
-0.43255991 0.21116164 1.702 104 111 80 255
-0.42919704 0.2117981 1.7070001 105 112 81 255
-0.42580637 0.21243465 1.7120001 106 113 84 255
-0.42287982 0.2133195 1.7190001 107 113 87 255
-0.41796824 0.21321166 1.7180001 122 130 105 255
-0.41185859 0.21248323 1.7120001 143 152 131 255
-0.40292659 0.21026522 1.6940001 164 174 157 255
-0.39268076 0.20730205 1.6700001 167 177 160 255
-0.38512126 0.20570397 1.6570001 154 164 147 255
-0.3799288 0.20534718 1.654 147 158 139 255
-0.37679476 0.20610777 1.6600001 129 140 119 255
-0.37452444 0.20736511 1.6700001 138 148 123 255
-0.37242049 0.20874679 1.6810001 116 126 100 255
-0.37047479 0.21025281 1.6930001 134 142 116 255
-0.36781475 0.21138643 1.702 118 126 100 255
-0.36489156 0.21239597 1.71 99 107 82 255
-0.36192402 0.21340559 1.7180001 102 112 89 255
-0.3576645 0.21366994 1.72 101 110 89 255
-0.35318804 0.21381001 1.7210001 91 100 81 255
-0.34749031 0.21320458 1.7160001 104 114 97 255
-0.34082016 0.21197772 1.7060001 112 122 107 255
-0.33420357 0.21075056 1.6960001 151 160 148 255
-0.32900101 0.21039309 1.6930001 129 138 127 255
-0.30249834 0.20810604 1.674 5 12 9 255
-0.2965101 0.20712599 1.6660001 116 123 122 255
-0.29126558 0.20664296 1.6620001 99 105 107 255
-0.28586963 0.20603542 1.6570001 104 110 112 255
-0.28117931 0.20592508 1.6560001 104 110 112 255
-0.27599245 0.2054415 1.6520001 93 99 101 255
-0.27099097 0.20508209 1.649 98 104 106 255
-0.26616672 0.20484689 1.6470001 93 100 99 255
-0.26151142 0.20473585 1.646 90 97 96 255
-0.25670475 0.2045003 1.6440001 69 76 75 255
-0.25175476 0.20414014 1.641 82 89 86 255
-0.2469711 0.20390421 1.6390001 78 85 82 255
-0.24204965 0.20354366 1.636 109 116 113 255
-0.2371439 0.20318294 1.6330001 101 108 105 255
-0.23239626 0.20294639 1.631 79 86 83 255
-0.22821784 0.20320745 1.6330001 84 91 88 255
-0.22416474 0.20359275 1.636 82 89 85 255
-0.2195574 0.20348014 1.6350001 81 86 82 255
-0.21495482 0.20336732 1.6340001 68 75 71 255
-0.21035703 0.20325433 1.6330001 59 66 62 255
-0.20589007 0.20326562 1.6330001 65 73 66 255
-0.20129909 0.20315219 1.6320001 57 65 58 255
-0.19683352 0.20316309 1.6320001 74 82 75 255
-0.19248514 0.20329827 1.6330001 76 84 77 255
-0.18813065 0.20343325 1.6340001 79 87 80 255
-0.1836576 0.20344353 1.6340001 81 88 84 255
-0.1790743 0.20332912 1.6330001 83 90 86 255
-0.17470969 0.20346351 1.6340001 80 87 83 255
-0.17075571 0.2040958 1.6390001 84 91 87 255
-0.16677374 0.20472793 1.6440001 75 82 78 255
-0.1626651 0.20523536 1.6480001 67 75 68 255
-0.15882185 0.20611626 1.6550001 63 71 64 255
-0.15503287 0.20712154 1.6630001 63 69 61 255
-0.15129 0.20825122 1.6720001 60 66 58 255
-0.14723399 0.20900708 1.6780001 59 65 57 255
-0.14305957 0.20963822 1.6830001 58 64 56 255
-0.13918625 0.21076743 1.692 58 64 57 255
-0.13518356 0.21177191 1.7 59 65 58 255
-0.13090613 0.21240249 1.705 52 58 51 255
-0.12630469 0.21253453 1.7060001 47 53 46 255
0.23652562 0.19869079 1.5970001 140 147 146 255
0.23938003 0.19743432 1.5870001 78 85 84 255
0.24233264 0.19630226 1.5780001 98 105 104 255
0.24539168 0.19529459 1.5700001 99 106 105 255
0.25015563 0.19565512 1.5730001 80 87 84 255
0.25444993 0.19564234 1.5730001 72 79 76 255
0.25841451 0.19538069 1.5710001 70 77 74 255
0.26153135 0.19449715 1.5640001 70 77 74 255
0.26511911 0.19398665 1.5600001 70 77 74 255
0.26902956 0.19372477 1.5580001 99 106 103 255
0.27345461 0.19383579 1.559 80 87 84 255
0.27770627 0.1938224 1.559 73 80 77 255
0.28213799 0.19393319 1.5600001 77 84 80 255
0.28602371 0.19367096 1.5580001 74 81 77 255
0.290084 0.19353291 1.557 74 81 77 255
0.29338199 0.19289766 1.552 75 82 78 255
0.29722729 0.19263525 1.5500001 82 89 86 255
0.3012554 0.19249704 1.549 82 89 86 255
0.30567178 0.19260734 1.5500001 77 84 83 255
0.31049272 0.19296603 1.5530001 73 80 79 255
0.31472123 0.19295183 1.5530001 79 86 85 255
0.31915444 0.19306181 1.554 74 81 78 255
0.32296804 0.19279905 1.552 73 80 77 255
0.32677004 0.19253625 1.5500001 75 82 78 255
