ply
format ascii 1.0
comment PCL generated
element vertex 975
property float x
property float y
property float z
property uchar red
property uchar green
property uchar blue
property uchar alpha
element camera 0
property float view_px
property float view_py
property float view_pz
property float x_axisx
property float x_axisy
property float x_axisz
property float y_axisx
property float y_axisy
property float y_axisz
property float z_axisx
property float z_axisy
property float z_axisz
property float focal
property float scalex
property float scaley
property float centerx
property float centery
property int viewportx
property int viewporty
property float k1
property float k2
end_header
0.72026169 -0.35610572 1.641 177 185 178 255
0.71990639 -0.35373327 1.6300001 178 186 179 255
0.72082609 -0.35201269 1.6220001 181 189 182 255
0.72125703 -0.35007581 1.613 183 191 184 255
0.72164118 -0.34813976 1.6040001 184 192 185 255
0.72243071 -0.34642154 1.5960001 184 192 185 255
0.72317892 -0.34470412 1.5880001 181 189 182 255
0.72434378 -0.34320456 1.5810001 186 194 187 255
0.72547275 -0.34170589 1.5740001 190 198 191 255
0.72424752 -0.33912247 1.562 187 195 188 255
0.72389162 -0.33697397 1.552 187 195 188 255
0.72442186 -0.33526054 1.544 186 194 187 255
0.72491074 -0.33354783 1.536 190 197 193 255
0.72583306 -0.33205315 1.529 190 197 193 255
0.72624218 -0.33034211 1.521 192 199 195 255
0.72661012 -0.32863191 1.5130001 189 196 192 255
0.72645384 -0.32670522 1.5040001 189 197 190 255
0.71938837 -0.38398731 1.748 176 184 177 255
0.71877909 -0.3811385 1.7350001 174 182 175 255
0.71862584 -0.3712883 1.6900001 171 179 171 255
0.71854556 -0.36888263 1.6790001 171 179 171 255
0.71926844 -0.3669171 1.6700001 172 180 173 255
0.72167796 -0.36583126 1.6650001 176 184 177 255
0.72057271 -0.36298847 1.6520001 176 184 177 255
0.7202763 -0.36058587 1.641 177 185 178 255
0.71903837 -0.35774451 1.628 179 187 180 255
0.72039795 -0.35622242 1.6210001 181 189 182 255
0.7208271 -0.35426164 1.6120001 183 191 184 255
0.72210902 -0.35274115 1.605 183 191 184 255
0.72335505 -0.35122156 1.598 185 193 186 255
0.72365415 -0.34926316 1.5890001 188 196 189 255
0.72344822 -0.34708577 1.5790001 186 194 187 255
0.72411168 -0.34534878 1.5710001 188 196 189 255
0.72380632 -0.34317288 1.5610001 189 197 190 255
0.72484791 -0.34165731 1.554 188 196 189 255
0.72444624 -0.33948305 1.544 185 193 186 255
0.72540808 -0.33796909 1.5370001 187 195 188 255
0.72490984 -0.3357963 1.5270001 190 197 193 255
0.72531444 -0.3340641 1.5190001 190 197 193 255
0.72567773 -0.3323327 1.511 189 196 192 255
0.72599989 -0.33060214 1.503 189 196 192 255
1.0537018 -0.33838159 1.508 199 204 200 255
0.7169258 -0.38741991 1.7420001 175 183 176 255
0.71795791 -0.3854256 1.733 175 183 176 255
0.71948713 -0.37634459 1.692 173 181 174 255
0.72026914 -0.37435436 1.6830001 172 180 173 255
0.72014242 -0.37192002 1.6720001 174 182 175 255
0.72082454 -0.36993137 1.6630001 173 181 174 255
0.72015083 -0.3672761 1.651 174 182 175 255
0.72029138 -0.36506656 1.641 177 185 178 255
0.72082108 -0.36308023 1.6320001 178 186 179 255
0.72085929 -0.36087227 1.6220001 180 188 181 255
0.72129208 -0.35888752 1.613 183 191 184 255
0.721228 -0.35668111 1.603 183 191 184 255
0.72428006 -0.35603312 1.6 186 194 187 255
0.72413015 -0.35382831 1.59 184 192 185 255
0.72301149 -0.35117918 1.5780001 187 195 188 255
0.72229028 -0.3487533 1.567 189 197 190 255
0.7229023 -0.34699592 1.559 187 195 188 255
0.7239393 -0.34546191 1.552 187 195 188 255
0.72353297 -0.34326094 1.5420001 188 196 189 255
0.72354621 -0.34128335 1.5330001 189 197 190 255
0.72351271 -0.33930656 1.524 188 195 191 255
0.72438735 -0.33777583 1.5170001 190 197 193 255
0.72474617 -0.3360233 1.5090001 189 196 192 255
0.72602981 -0.33471698 1.503 189 196 192 255
0.71866864 -0.38297695 1.7010001 171 179 172 255
0.72034913 -0.38141224 1.6940001 169 177 170 255
0.72113746 -0.37939805 1.6850001 172 180 173 255
0.72144783 -0.37715948 1.6750001 170 178 171 255
0.72213906 -0.3751469 1.6660001 174 182 175 255
0.72147441 -0.37245953 1.654 175 183 176 255
0.72206306 -0.37044853 1.6450001 176 184 177 255
0.72172123 -0.36798793 1.6340001 178 186 179 255
0.72132128 -0.36552805 1.623 179 187 180 255
0.72175777 -0.36351946 1.6140001 182 190 183 255
0.72169727 -0.36128637 1.6040001 180 188 181 255
0.72430032 -0.36040559 1.6 184 192 185 255
0.72369599 -0.35794893 1.5890001 184 192 185 255
0.72211725 -0.3550424 1.5760001 186 194 187 255
0.72185242 -0.3528125 1.5660001 188 196 189 255
0.72246253 -0.3510339 1.5580001 187 195 188 255
0.7244308 -0.34993219 1.5530001 189 197 190 255
0.72308969 -0.34725398 1.5410001 188 196 189 255
0.72404504 -0.34570318 1.534 188 196 189 255
0.72306573 -0.34325179 1.5230001 191 198 194 255
0.72393864 -0.3417027 1.516 190 197 193 255
0.72333491 -0.33947819 1.506 190 197 193 255
0.72606051 -0.3388325 1.503 188 195 191 255
1.0778255 -0.35471591 1.5420001 197 202 198 255
0.71405989 -0.39532712 1.7350001 175 183 176 255
0.71738183 -0.38943067 1.7090001 172 180 173 255
0.71825731 -0.38739085 1.7 172 180 173 255
0.72036123 -0.3860355 1.6940001 169 177 170 255
0.72329026 -0.38513678 1.6900001 172 180 173 255
0.72318459 -0.38264373 1.6790001 173 180 176 255
0.72215372 -0.37969556 1.6660001 173 180 176 255
0.72192627 -0.37720403 1.6550001 177 184 180 255
0.72164053 -0.37471321 1.6440001 180 187 183 255
0.72394705 -0.37359086 1.6390001 179 186 182 255
0.72311729 -0.37087375 1.6270001 181 189 182 255
0.72356576 -0.36884126 1.618 183 191 184 255
0.72126746 -0.36544177 1.603 182 190 183 255
0.72341609 -0.36432278 1.598 183 191 184 255
0.72235161 -0.36160871 1.5860001 185 193 186 255
0.72259831 -0.35957938 1.577 186 194 187 255
0.72279805 -0.35755089 1.5680001 188 195 191 255
0.72434217 -0.35620731 1.562 188 195 191 255
0.72445649 -0.35418049 1.5530001 188 195 191 255
0.72405475 -0.35192636 1.5430001 187 195 188 255
0.72407264 -0.34990105 1.534 189 196 192 255
0.72309422 -0.34742039 1.5230001 188 195 191 255
0.72396815 -0.34585291 1.516 190 197 193 255
0.72336537 -0.34360185 1.506 191 198 194 255
0.725609 -0.34272063 1.5020001 190 197 193 255
0.71612608 -0.40121272 1.7400001 175 183 176 255
0.71742409 -0.39156914 1.6980001 171 179 172 255
0.71867293 -0.38973683 1.6900001 167 175 168 255
0.72159201 -0.38882777 1.6860001 171 179 172 255
0.72362971 -0.38745838 1.6800001 172 179 175 255
0.72433645 -0.38539797 1.6710001 173 180 176 255
0.72455978 -0.38310775 1.6610001 176 183 180 255
0.72341359 -0.38012633 1.6480001 179 186 183 255
0.72440696 -0.37829903 1.6400001 180 187 183 255
0.72269189 -0.37508845 1.626 181 189 182 255
0.72313851 -0.37303209 1.6170001 182 190 183 255
0.7217381 -0.37005368 1.6040001 182 190 183 255
0.72298509 -0.36846033 1.5970001 184 192 185 255
0.7223742 -0.36594489 1.5860001 186 194 187 255
0.7235384 -0.36435321 1.5790001 186 194 187 255
0.72374457 -0.36230087 1.5700001 187 194 190 255
0.72483146 -0.36071095 1.5630001 188 195 191 255
0.72494948 -0.35866028 1.554 189 196 192 255
0.72502071 -0.35661039 1.5450001 189 196 192 255
0.72551715 -0.35479215 1.5370001 188 195 191 255
0.72502273 -0.35251307 1.5270001 188 195 191 255
0.7244761 -0.35023475 1.5170001 189 196 192 255
0.72339672 -0.34772626 1.506 190 197 193 255
0.72515821 -0.34660399 1.501 189 196 192 255
0.71785897 -0.39643705 1.6990001 171 179 172 255
0.71868616 -0.39435014 1.6900001 170 178 171 255
0.72075027 -0.39296418 1.6840001 172 180 173 255
0.72278345 -0.39157903 1.6780001 172 180 173 255
0.72348553 -0.38949466 1.669 175 183 176 255
0.72501302 -0.38787794 1.6620001 177 185 178 255
0.72343153 -0.38462836 1.6480001 178 185 181 255
0.72442573 -0.38277987 1.6400001 178 185 181 255
0.72271156 -0.37953171 1.626 180 187 183 255
0.7227118 -0.37721804 1.6160001 181 189 182 255
0.72040981 -0.37373799 1.6010001 182 190 183 255
0.7225548 -0.37259305 1.5960001 183 191 184 255
0.72239763 -0.37028176 1.5860001 184 192 185 255
0.72402096 -0.36890519 1.58 186 193 189 255
0.72330898 -0.36636207 1.5690001 187 194 190 255
0.72439402 -0.36475369 1.562 189 196 192 255
0.7235772 -0.36221212 1.5510001 187 194 190 255
0.7236411 -0.36013836 1.5420001 190 197 193 255
0.72318619 -0.35783184 1.5320001 189 196 192 255
0.72410327 -0.35622689 1.5250001 188 195 191 255
0.7240296 -0.3541556 1.516 189 196 192 255
0.7239092 -0.35208511 1.5070001 189 196 192 255
1.0668517 -0.35955718 1.5050001 198 203 199 255
0.71956211 -0.40201908 1.7030001 171 179 172 255
0.71997595 -0.39967221 1.6930001 171 179 172 255
0.72119313 -0.39779839 1.6850001 173 181 174 255
0.72323 -0.39639756 1.6790001 172 180 173 255
0.72350228 -0.39405319 1.669 173 181 174 255
0.72459447 -0.39218193 1.6610001 177 185 178 255
0.72345006 -0.38913089 1.6480001 178 186 179 255
0.72312009 -0.38655284 1.6370001 180 188 181 255
0.721843 -0.38350332 1.6240001 179 186 182 255
0.72094429 -0.38069069 1.6120001 180 188 181 255
0.720882 -0.37835118 1.6020001 182 190 183 255
0.72167259 -0.37648481 1.5940001 185 193 186 255
0.72242188 -0.37461933 1.5860001 184 192 185 255
0.72221321 -0.37228227 1.5760001 185 192 188 255
0.72195202 -0.36994594 1.5660001 185 192 188 255
0.72395742 -0.36879173 1.5610001 188 195 192 255
0.7240718 -0.36669335 1.552 188 195 191 255
0.72413951 -0.36459583 1.5430001 187 194 191 255
0.72321618 -0.36202645 1.5320001 189 196 192 255
0.7246092 -0.36063951 1.526 188 195 191 255
0.72453928 -0.35854447 1.5170001 188 195 191 255
0.72490299 -0.35668653 1.5090001 188 195 191 255
1.0574807 -0.36342299 1.5050001 199 204 201 255
0.71915329 -0.4064295 1.702 170 179 172 255
0.72163671 -0.40263861 1.6860001 171 179 171 255
0.72195423 -0.40026683 1.6760001 173 181 173 255
0.72091872 -0.39717934 1.6630001 174 182 174 255
0.72155911 -0.39504799 1.654 175 183 176 255
0.72171336 -0.39267868 1.6440001 176 184 177 255
0.72181511 -0.39031014 1.6340001 178 186 179 255
0.72186416 -0.3879424 1.6240001 181 188 184 255
0.72186083 -0.3855755 1.6140001 181 188 184 255
0.72225493 -0.3834483 1.605 181 189 182 255
0.72169656 -0.38084415 1.5940001 184 192 185 255
0.7215358 -0.37847969 1.5840001 185 192 188 255
0.72086424 -0.37587702 1.5730001 184 191 187 255
0.72059584 -0.37351415 1.5630001 186 193 189 255
0.7225939 -0.37234697 1.5580001 188 195 192 255
0.72363418 -0.3707028 1.5510001 186 193 190 255
0.72323078 -0.36834243 1.5410001 187 194 191 255
0.72230285 -0.36574376 1.5300001 188 195 192 255
0.72274166 -0.36386305 1.5220001 187 194 191 255
0.72361696 -0.36222228 1.5150001 188 195 191 255
0.72445649 -0.36058244 1.508 188 195 191 255
0.71954167 -0.41396061 1.7140001 171 180 173 255
0.72079694 -0.40676031 1.6840001 171 179 171 255
0.72110993 -0.40436187 1.674 173 181 173 255
0.72137034 -0.40196428 1.664 175 183 175 255
0.72070569 -0.39908436 1.6520001 176 184 177 255
0.72041631 -0.39644679 1.641 178 186 179 255
0.72051066 -0.39405161 1.631 179 187 180 255
0.72144145 -0.39214051 1.623 181 188 184 255
0.72233093 -0.3902303 1.6150001 181 188 184 255
0.72362876 -0.38856256 1.608 183 190 186 255
0.72307962 -0.38592914 1.5970001 183 190 186 255
0.72292811 -0.38353816 1.5870001 185 192 188 255
0.72134924 -0.38042292 1.5740001 184 191 187 255
0.72154546 -0.37827519 1.5650001 186 193 189 255
0.72308642 -0.37685347 1.559 186 193 190 255
0.7245971 -0.37543279 1.5530001 188 195 192 255
0.72420019 -0.37304589 1.5430001 187 194 191 255
0.72375089 -0.37065983 1.5330001 187 194 191 255
0.72324932 -0.36827454 1.5230001 188 195 192 255
0.72317308 -0.36613187 1.5140001 189 196 192 255
0.72305012 -0.36399004 1.5050001 189 197 190 255
1.0778416 -0.37305292 1.506 200 205 202 255
0.71845347 -0.42349795 1.7340001 174 182 175 255
0.7196551 -0.40553382 1.6600001 174 182 175 255
0.72028911 -0.4033547 1.651 176 184 177 255
0.719998 -0.40068784 1.6400001 178 185 181 255
0.72009057 -0.39826608 1.6300001 179 186 182 255
0.72057509 -0.39608952 1.6210001 182 189 185 255
0.72145993 -0.39415815 1.613 181 188 184 255
0.72275341 -0.39247206 1.6060001 182 189 185 255
0.72401083 -0.39078692 1.5990001 182 189 185 255
0.72477686 -0.38885823 1.5910001 183 190 186 255
0.72458494 -0.38644162 1.5810001 185 193 186 255
0.72295731 -0.3832925 1.5680001 186 194 187 255
0.7226522 -0.38087738 1.5580001 185 192 188 255
0.72322792 -0.37895209 1.5500001 187 194 190 255
0.72329313 -0.37678319 1.5410001 188 195 192 255
0.72425562 -0.37510407 1.534 187 194 191 255
0.722808 -0.37220323 1.5220001 187 194 191 255
0.72320771 -0.37028134 1.5140001 188 195 191 255
0.72308576 -0.36811575 1.5050001 188 196 189 255
1.0810608 -0.37987325 1.5170001 198 203 200 255
0.71880752 -0.40957621 1.6580001 175 183 176 255
0.719437 -0.40737322 1.649 177 185 178 255
0.71870232 -0.40443 1.6370001 178 185 181 255
0.7192294 -0.40222871 1.628 180 187 183 255
0.72059852 -0.4005225 1.6210001 180 187 183 255
0.72103703 -0.39832297 1.6120001 179 186 182 255
0.72232872 -0.39661852 1.605 180 187 183 255
0.72403729 -0.39516214 1.5990001 184 191 187 255
0.7252599 -0.39345959 1.5920001 183 191 184 255
0.72507167 -0.39101642 1.582 184 192 185 255
0.72437 -0.38832694 1.5710001 185 193 186 255
0.72407418 -0.38588542 1.5610001 186 194 187 255
0.72372603 -0.38344473 1.5510001 187 194 190 255
0.72332567 -0.38100481 1.5410001 188 195 191 255
0.72428924 -0.37930745 1.534 185 192 188 255
0.72379237 -0.3768692 1.524 188 195 191 255
0.72372103 -0.37467909 1.5150001 188 195 191 255
0.72312242 -0.37224242 1.5050001 188 196 189 255
1.0707425 -0.3819437 1.5090001 197 202 199 255
1.0691668 -0.37988618 1.5000001 196 200 200 255
0.71825963 -0.4356986 1.7450001 173 181 174 255
0.72133201 -0.42354041 1.6960001 171 179 172 255
0.71956581 -0.41981274 1.6810001 172 180 173 255
0.71901178 -0.41683501 1.669 173 181 174 255
0.71796072 -0.41360834 1.6560001 175 183 176 255
0.71902198 -0.41163132 1.6480001 177 184 180 255
0.71828538 -0.40865597 1.636 177 184 180 255
0.71969444 -0.40693054 1.6290001 180 187 183 255
0.71973366 -0.40445653 1.6190001 180 187 183 255
0.7210623 -0.40273282 1.6120001 181 188 184 255
0.72145486 -0.40051037 1.603 183 190 186 255
0.72270608 -0.39878851 1.5960001 184 191 187 255
0.72301036 -0.39656785 1.5870001 184 192 185 255
0.72372603 -0.39459792 1.5790001 184 192 185 255
0.72393918 -0.39237893 1.5700001 185 193 186 255
0.72364169 -0.38991091 1.5600001 186 194 187 255
0.72329175 -0.38744363 1.5500001 186 194 187 255
0.72288954 -0.38497725 1.5400001 188 196 189 255
0.72290719 -0.38276163 1.531 187 194 190 255
0.72192812 -0.38004681 1.5200001 188 195 191 255
0.72232443 -0.3780829 1.5120001 187 194 190 255
0.72316009 -0.37636995 1.5050001 186 194 187 255
0.72049958 -0.42766944 1.6940001 171 179 172 255
0.71872878 -0.4239015 1.6790001 172 180 173 255
0.71817023 -0.42089173 1.6670001 173 181 174 255
0.71754819 -0.41788277 1.6550001 175 182 178 255
0.71773511 -0.41537967 1.6450001 177 184 180 255
0.7178694 -0.41287732 1.6350001 180 187 183 255
0.71883482 -0.41088098 1.6270001 179 186 182 255
0.72020322 -0.40913808 1.6200001 180 187 183 255
0.72153568 -0.40739611 1.613 182 189 185 255
0.72193205 -0.40514988 1.6040001 181 188 184 255
0.72092283 -0.4021467 1.5920001 183 190 186 255
0.7212171 -0.39990216 1.5830001 182 189 185 255
0.72192276 -0.39791113 1.575 183 190 186 255
0.72304815 -0.39617372 1.5680001 183 191 184 255
0.72274613 -0.39367908 1.5580001 184 192 185 255
0.72379172 -0.39194345 1.5510001 185 193 186 255
0.72339332 -0.38945064 1.5410001 185 193 186 255
0.72294253 -0.38695854 1.531 187 195 188 255
0.72291446 -0.38472009 1.5220001 187 195 188 255
0.72283959 -0.38248244 1.5130001 188 195 191 255
0.722718 -0.38024563 1.5040001 188 195 191 255
1.0614115 -0.38850123 1.5020001 196 203 200 255
0.71668071 -0.43557927 1.7070001 171 179 172 255
0.71798247 -0.43355566 1.6990001 171 179 172 255
0.71776032 -0.42519346 1.6660001 174 181 177 255
0.7188707 -0.4231734 1.6580001 175 182 178 255
0.72037578 -0.42140949 1.651 176 183 180 255
0.72052765 -0.41888082 1.641 176 183 180 255
0.72062695 -0.41635293 1.631 177 184 181 255
0.7197845 -0.4133153 1.6190001 180 187 184 255
0.72066784 -0.41129968 1.6110001 180 187 184 255
0.72015953 -0.40851903 1.6 182 189 185 255
0.72185743 -0.40701586 1.5940001 183 190 186 255
0.72215825 -0.40474766 1.585 183 190 186 255
0.72378737 -0.40324643 1.5790001 183 190 186 255
0.72400254 -0.40097994 1.5700001 185 193 186 255
0.72417104 -0.39871442 1.5610001 186 194 187 255
0.72382593 -0.39619425 1.5510001 185 193 186 255
0.72342855 -0.39367491 1.5410001 184 192 185 255
0.72203445 -0.39064541 1.529 187 195 188 255
0.72200185 -0.38838321 1.5200001 186 194 187 255
0.72335583 -0.38688841 1.5140001 189 196 192 255
0.72467983 -0.3853946 1.508 187 194 190 255
0.71627849 -0.4399851 1.7060001 172 180 173 255
0.71845978 -0.42744932 1.6570001 175 182 178 255
0.7203995 -0.42592508 1.651 175 182 178 255
0.72186965 -0.42414382 1.6440001 176 183 180 255
0.7215364 -0.4213315 1.6330001 178 185 182 255
0.72158951 -0.41877794 1.623 178 185 182 255
0.72114307 -0.41596729 1.6120001 182 189 186 255
0.72198886 -0.41393164 1.6040001 181 188 184 255
0.72369885 -0.41241297 1.598 182 189 185 255
0.72492301 -0.41063732 1.5910001 183 190 186 255
0.72519451 -0.40834633 1.582 183 190 186 255
0.72495794 -0.40579805 1.572 184 191 187 255
0.72327733 -0.40247616 1.559 183 191 184 255
0.7243278 -0.40070406 1.552 186 194 187 255
0.72346485 -0.39790013 1.5410001 185 193 186 255
0.72348845 -0.3956134 1.5320001 186 194 187 255
0.7234652 -0.39332753 1.5230001 187 195 188 255
0.7257843 -0.39233392 1.5190001 185 192 188 255
0.72568154 -0.3900499 1.5100001 187 194 190 255
0.71935052 -0.43250269 1.659 175 182 178 255
0.72086042 -0.43070215 1.6520001 177 184 180 255
0.72189528 -0.42864189 1.6440001 179 186 183 255
0.72112113 -0.42553958 1.6320001 178 185 182 255
0.72028339 -0.42243806 1.6200001 181 188 185 255
0.71938211 -0.41933733 1.608 180 187 184 255
0.72021794 -0.41728058 1.6 181 188 185 255
0.72418267 -0.41705048 1.5990001 183 190 186 255
0.72632194 -0.41577822 1.5940001 182 189 185 255
0.72706127 -0.41372445 1.5860001 184 191 187 255
0.72637564 -0.41088897 1.575 183 190 186 255
0.72377628 -0.40701064 1.5600001 185 192 188 255
0.72483069 -0.40522039 1.5530001 186 193 189 255
0.72303247 -0.4018653 1.5400001 185 193 186 255
0.72258216 -0.39929393 1.5300001 185 193 186 255
0.7220794 -0.39672333 1.5200001 188 196 189 255
0.72391367 -0.3954587 1.5150001 187 194 190 255
0.72524267 -0.39393401 1.5090001 187 194 190 255
0.7183851 -0.44199836 1.6780001 172 180 173 255
0.71937484 -0.43704087 1.659 174 181 177 255
0.72088593 -0.43522212 1.6520001 176 183 179 255
0.72016519 -0.432087 1.6400001 176 183 179 255
0.72026479 -0.42947963 1.6300001 177 184 181 255
0.71986723 -0.42660961 1.6190001 180 187 184 255
0.72075385 -0.42453104 1.6110001 180 187 184 255
0.72159898 -0.42245334 1.603 180 187 184 255
0.7237615 -0.42116725 1.598 182 189 186 255
0.72681051 -0.42040938 1.595 181 188 184 255
0.72709531 -0.41807106 1.5860001 182 189 185 255
0.72594947 -0.41494277 1.5740001 183 190 186 255
0.72334832 -0.41102427 1.559 183 190 186 255
0.72393441 -0.40895215 1.5510001 186 193 189 255
0.72354025 -0.40635353 1.5410001 185 192 188 255
0.72309369 -0.40375566 1.531 185 193 186 255
0.72259486 -0.40115872 1.521 185 192 188 255
0.7234773 -0.39935386 1.5140001 187 194 190 255
0.72384351 -0.39728618 1.506 187 194 190 255
0.72091222 -0.43974292 1.6520001 175 182 178 255
0.71931428 -0.43604341 1.6380001 175 182 178 255
0.71940941 -0.43340957 1.628 177 184 180 255
0.71811795 -0.42997783 1.6150001 176 183 179 255
0.71899468 -0.42787817 1.6070001 179 186 182 255
0.71892953 -0.42524689 1.5970001 180 187 184 255
0.72152948 -0.42421418 1.5930001 182 189 186 255
0.72319889 -0.4226501 1.5870001 181 188 185 255
0.72529644 -0.42135322 1.582 182 189 186 255
0.72460181 -0.41845933 1.5710001 183 190 186 255
0.72338539 -0.41529983 1.559 183 190 187 255
0.72303903 -0.41267389 1.549 185 192 188 255
0.72264028 -0.41004878 1.539 186 193 189 255
0.72171712 -0.40715811 1.5280001 184 192 185 255
0.72216117 -0.40506762 1.5200001 184 192 185 255
0.72160846 -0.40244505 1.5100001 187 194 190 255
0.72340667 -0.40115595 1.5050001 187 194 190 255
0.71603942 -0.47065592 1.751 172 180 173 255
0.71963018 -0.44345781 1.649 174 181 177 255
0.7189033 -0.44025877 1.6370001 177 184 180 255
0.71855479 -0.43732944 1.626 177 184 180 255
0.71859294 -0.43467 1.6160001 175 182 179 255
0.71992087 -0.43281838 1.6090001 179 186 183 255
0.72031254 -0.4304297 1.6 180 187 184 255
0.72111017 -0.42831099 1.5920001 181 188 185 255
0.72186649 -0.42619321 1.5840001 181 188 185 255
0.7234984 -0.42461452 1.5780001 181 188 184 255
0.72371632 -0.42222959 1.5690001 182 189 185 255
0.72342342 -0.41957641 1.559 183 190 187 255
0.72307813 -0.41692406 1.549 184 191 187 255
0.72315019 -0.41454175 1.5400001 184 191 187 255
0.72223067 -0.41162193 1.529 186 193 189 255
0.72220367 -0.40924138 1.5200001 184 191 187 255
0.72212976 -0.40686157 1.511 187 194 190 255
0.72297072 -0.40502137 1.5040001 187 194 190 255
0.7183491 -0.44715723 1.646 175 182 178 255
0.71937168 -0.44501296 1.6380001 177 184 180 255
0.71814311 -0.44151106 1.6250001 177 184 180 255
0.71906883 -0.43936855 1.6170001 178 185 182 255
0.71950573 -0.43695527 1.608 175 182 179 255
0.71989578 -0.43454292 1.5990001 180 187 184 255
0.71978575 -0.43185964 1.5890001 180 187 184 255
0.72053492 -0.42972088 1.5810001 181 188 184 255
0.72170126 -0.4278549 1.5740001 181 188 184 255
0.72237051 -0.42571804 1.5660001 183 190 186 255
0.72253436 -0.42331022 1.557 183 190 187 255
0.72218466 -0.42063147 1.5470001 186 193 189 255
0.72084349 -0.41740972 1.5350001 184 191 187 255
0.72038358 -0.41473255 1.5250001 184 191 187 255
0.72082168 -0.41260022 1.5170001 184 191 187 255
0.72169662 -0.41074079 1.5100001 185 192 188 255
0.72301662 -0.40915442 1.5040001 188 195 191 255
0.72186112 -0.47153363 1.7190001 170 179 172 255
0.72278053 -0.4690887 1.71 171 180 173 255
0.71644551 -0.45328182 1.6520001 176 183 179 255
0.71706873 -0.45084113 1.6430001 174 181 177 255
0.71852332 -0.44895023 1.636 177 184 180 255
0.71817416 -0.44596261 1.6250001 178 185 182 255
0.71954572 -0.44407362 1.618 178 185 182 255
0.71864414 -0.44081324 1.6060001 179 186 183 255
0.72128087 -0.43974966 1.6020001 180 187 184 255
0.72163326 -0.43731457 1.5930001 179 186 183 255
0.72148305 -0.4346059 1.5830001 180 187 184 255
0.72128052 -0.43189809 1.5730001 182 189 185 255
0.72194815 -0.42974034 1.5650001 183 190 187 255
0.72257447 -0.42758349 1.557 184 191 188 255
0.72315955 -0.42542762 1.549 183 190 187 255
0.72276419 -0.42272338 1.539 185 192 189 255
0.72278905 -0.4202947 1.5300001 186 193 190 255
0.722767 -0.41786689 1.521 185 192 189 255
0.7222203 -0.41516522 1.511 184 191 187 255
0.72306359 -0.41328868 1.5040001 186 193 189 255
0.72188497 -0.47623596 1.7190001 172 181 176 255
0.71622574 -0.45478675 1.641 176 183 179 255
0.71855438 -0.45343193 1.636 178 185 181 255
0.71953213 -0.45124671 1.628 177 184 181 255
0.72046852 -0.44906241 1.6200001 178 185 182 255
0.71912593 -0.44549298 1.6070001 178 185 182 255
0.72086614 -0.44386494 1.6010001 179 186 183 255
0.72166985 -0.44168347 1.5930001 180 187 184 255
0.72152078 -0.43894842 1.5830001 180 187 184 255
0.72131938 -0.43621421 1.5730001 183 190 187 255
0.72198808 -0.43403551 1.5650001 183 190 187 255
0.72354388 -0.43241253 1.559 183 190 187 255
0.72366881 -0.42995855 1.5500001 184 191 188 255
0.72327733 -0.42722791 1.5400001 184 191 188 255
0.72283363 -0.42449823 1.5300001 184 191 188 255
0.72281271 -0.42204678 1.521 184 191 188 255
0.72178918 -0.41904125 1.5100001 186 193 190 255
0.72263092 -0.41714665 1.503 184 191 187 255
0.71938992 -0.47926041 1.7130001 172 181 174 255
0.71726871 -0.45707491 1.6330001 175 182 179 255
0.71779728 -0.45458871 1.6240001 175 182 179 255
0.718279 -0.45210353 1.6150001 178 185 182 255
0.7187137 -0.44961917 1.6060001 180 187 184 255
0.72135288 -0.44853574 1.6020001 179 186 183 255
0.72261369 -0.4466134 1.595 181 188 185 255
0.7220155 -0.44357201 1.5840001 181 188 185 255
0.72181791 -0.44081151 1.5740001 182 189 186 255
0.72156787 -0.43805182 1.5640001 181 188 185 255
0.72358614 -0.43669349 1.559 183 190 187 255
0.72464615 -0.43477616 1.552 185 192 191 255
0.72520065 -0.43257958 1.544 184 191 190 255
0.72476918 -0.42982361 1.534 185 192 191 255
0.72333497 -0.4265081 1.5220001 184 191 190 255
0.72231531 -0.42347351 1.511 187 194 193 255
0.72268027 -0.42128053 1.503 186 193 190 255
0.71672493 -0.4640612 1.6420001 175 184 179 255
0.71774083 -0.46183306 1.6340001 177 184 181 255
0.7173894 -0.45875797 1.623 177 184 181 255
0.71920377 -0.45709717 1.6170001 178 185 182 255
0.71964514 -0.45458925 1.608 179 186 183 255
0.72048986 -0.45236498 1.6 180 187 184 255
0.72038704 -0.44957623 1.59 181 188 185 255
0.72114366 -0.44735393 1.582 182 189 186 255
0.72323471 -0.445981 1.577 181 188 185 255
0.72299415 -0.44319504 1.567 182 189 186 255
0.72270125 -0.44040993 1.557 183 190 187 255
0.72235602 -0.43762577 1.5470001 184 191 190 255
0.72195858 -0.43484244 1.5370001 183 190 189 255
0.7215088 -0.43205994 1.5270001 185 192 191 255
0.7205314 -0.42899534 1.516 185 192 191 255
0.7223646 -0.42762953 1.511 186 193 192 255
0.72273076 -0.42541572 1.503 185 192 189 255
0.71806735 -0.46941748 1.6450001 176 183 179 255
0.71865344 -0.46688312 1.636 176 183 180 255
0.7187506 -0.46406439 1.626 177 184 181 255
0.71924001 -0.46153194 1.6170001 178 185 184 255
0.72013015 -0.45928589 1.6090001 179 186 185 255
0.7196278 -0.45618439 1.598 178 186 185 255
0.71952063 -0.45336923 1.5880001 179 186 185 255
0.7202729 -0.45112601 1.58 182 189 186 255
0.721901 -0.44945484 1.5740001 181 188 185 255
0.72257614 -0.44721365 1.5660001 182 189 186 255
0.72228163 -0.44440222 1.5560001 182 189 186 255
0.7224018 -0.44187731 1.5470001 184 191 188 255
0.72106588 -0.43849632 1.5350001 183 190 187 255
0.72108418 -0.43597305 1.526 184 191 190 255
0.7205804 -0.43316507 1.516 186 193 192 255
0.72289306 -0.43207249 1.5120001 184 191 190 255
0.72278243 -0.42955223 1.503 186 193 190 255
0.71585351 -0.49730441 1.7270001 165 173 166 255
0.71766478 -0.47363892 1.6440001 175 182 178 255
0.71956718 -0.47194535 1.6380001 177 184 181 255
0.72143924 -0.47025287 1.6320001 177 184 181 255
0.72150153 -0.46740878 1.6220001 176 183 182 255
0.72061634 -0.4639892 1.6100001 176 184 183 255
0.71966749 -0.46057042 1.598 179 187 186 255
0.7191084 -0.45744073 1.5870001 180 188 185 255
0.719859 -0.45517662 1.5790001 180 188 185 255
0.72194433 -0.45377839 1.5740001 182 190 187 255
0.72215915 -0.45122799 1.5650001 184 191 188 255
0.72232729 -0.44867858 1.5560001 182 189 186 255
0.72198159 -0.44584173 1.5460001 184 191 188 255
0.72158366 -0.44300568 1.536 183 190 189 255
0.72066081 -0.4398821 1.5250001 184 191 190 255
0.72015542 -0.43704778 1.5150001 183 190 187 255
0.7219885 -0.43565688 1.5100001 185 192 189 255
0.719446 -0.47931024 1.6480001 175 182 178 255
0.72179997 -0.47789228 1.6430001 175 182 178 255
0.72280294 -0.47560275 1.6350001 178 185 182 255
0.72109526 -0.4715687 1.6210001 176 183 182 255
0.71976072 -0.46782634 1.608 181 188 187 255
0.72015864 -0.46524861 1.5990001 178 186 185 255
0.71960336 -0.46208981 1.5880001 180 187 184 255
0.72035801 -0.45980492 1.58 180 187 184 255
0.7210713 -0.45752102 1.572 182 189 185 255
0.7222048 -0.45552924 1.5650001 182 189 185 255
0.72330266 -0.45353845 1.5580001 182 189 185 255
0.72483176 -0.45183989 1.552 185 192 189 255
0.72398186 -0.44868663 1.5410001 185 192 189 255
0.72307414 -0.44553414 1.5300001 186 193 190 255
0.72115767 -0.44179994 1.5170001 184 191 188 255
0.72204143 -0.43981412 1.5100001 183 190 187 255
0.72095877 -0.48181248 1.641 176 183 180 255
0.72063106 -0.47862116 1.6300001 178 185 182 255
0.71980041 -0.47513708 1.618 178 185 184 255
0.72024918 -0.47253481 1.6090001 176 183 182 255
0.72065109 -0.46993351 1.6 177 184 183 255
0.72100604 -0.46733317 1.5910001 177 184 181 255
0.7204023 -0.46414629 1.58 180 187 184 255
0.72111684 -0.46184155 1.572 181 188 184 255
0.72179008 -0.45953786 1.5640001 181 188 184 255
0.72242212 -0.45723519 1.5560001 182 189 185 255
0.72394705 -0.45552126 1.5500001 185 192 189 255
0.72450227 -0.45322064 1.5420001 184 191 188 255
0.72359842 -0.45003912 1.531 182 189 186 255
0.72121054 -0.44597656 1.5170001 186 193 190 255
0.72018272 -0.44279656 1.506 185 192 189 255
1.081435 -0.45812929 1.5180001 197 201 203 255
1.0920621 -0.45901737 1.5190001 196 200 202 255
0.72099721 -0.48631564 1.641 175 183 180 255
0.71939623 -0.479283 1.6170001 178 185 182 255
0.72029108 -0.47695357 1.6090001 178 185 184 255
0.72069418 -0.47432876 1.6 180 187 186 255
0.72014397 -0.47111192 1.5890001 180 187 184 255
0.71953589 -0.46789593 1.5780001 180 187 184 255
0.72024608 -0.46557033 1.5700001 180 187 183 255
0.72229958 -0.46413553 1.5650001 181 188 184 255
0.7234 -0.4621087 1.5580001 180 187 183 255
0.72399765 -0.4597863 1.5500001 185 192 188 255
0.72361439 -0.45687157 1.5400001 185 192 188 255
0.7231788 -0.45395774 1.5300001 183 190 186 255
0.72221553 -0.45074797 1.5190001 183 190 187 255
0.72119445 -0.44753906 1.508 185 192 189 255
1.0809486 -0.46036622 1.5100001 197 201 203 255
1.1052632 -0.4652487 1.5230001 194 198 198 255
0.71796113 -0.48872647 1.6340001 172 180 177 255
0.71988308 -0.48402306 1.618 176 183 180 255
0.72122955 -0.48197204 1.6110001 178 185 182 255
0.7202881 -0.47842613 1.5990001 177 184 181 255
0.71973622 -0.47518021 1.5880001 180 187 184 255
0.71912646 -0.47193512 1.577 181 188 185 255
0.71983516 -0.46958876 1.5690001 182 189 186 255
0.72096413 -0.46754277 1.562 182 189 185 255
0.72205752 -0.46549782 1.5550001 181 188 184 255
0.72218096 -0.46285522 1.5460001 184 191 187 255
0.72225767 -0.46021351 1.5370001 184 191 187 255
0.72181505 -0.4572733 1.5270001 185 192 188 255
0.72227091 -0.4549329 1.5190001 183 190 187 255
0.7217294 -0.45199451 1.5090001 186 193 190 255
0.72215086 -0.48997748 1.623 175 182 179 255
0.72127396 -0.48639891 1.6110001 177 184 181 255
0.71943265 -0.48221734 1.5970001 176 183 180 255
0.71887636 -0.47894233 1.5860001 180 187 183 255
0.71963042 -0.47657424 1.5780001 182 189 185 255
0.72080201 -0.47450918 1.5710001 181 188 185 255
0.7214762 -0.47214314 1.5630001 182 189 186 255
0.7235024 -0.4706845 1.5580001 182 189 186 255
0.72270101 -0.46741414 1.5470001 183 190 187 255
0.7227819 -0.46474901 1.5380001 184 191 188 255
0.72187048 -0.46148038 1.5270001 184 191 188 255
0.72280329 -0.45942158 1.5200001 185 192 191 255
0.72226566 -0.45645693 1.5100001 185 192 191 255
0.72263807 -0.45409787 1.5020001 186 193 192 255
0.71570814 -0.49918193 1.6390001 175 182 179 255
0.71760416 -0.49739623 1.6330001 174 181 178 255
0.71946996 -0.49561167 1.6270001 176 183 180 255
0.72175038 -0.49413288 1.6220001 177 184 180 255
0.72087193 -0.49052259 1.6100001 177 184 181 255
0.72038037 -0.48721778 1.5990001 165 172 169 255
0.71983087 -0.48391387 1.5880001 176 183 179 255
0.7210477 -0.48182979 1.5810001 180 187 183 255
0.72177011 -0.47944209 1.5730001 181 188 185 255
0.72152793 -0.47644576 1.5630001 183 190 187 255
0.72262669 -0.47436482 1.5560001 183 190 187 255
0.72322261 -0.47198015 1.5480001 183 191 190 255
0.72377747 -0.46959653 1.5400001 182 190 189 255
0.72240007 -0.465994 1.5280001 184 191 190 255
0.7219103 -0.4630022 1.5180001 184 191 190 255
0.7218467 -0.46031636 1.5090001 186 193 192 255
0.72269875 -0.45824161 1.5020001 184 191 190 255
0.71852618 -0.50249738 1.6350001 174 181 178 255
0.71995652 -0.50039017 1.628 175 182 179 255
0.72224092 -0.49889886 1.623 178 185 182 255
0.72136641 -0.49525687 1.6110001 176 183 180 255
0.72178 -0.49253803 1.6020001 176 183 180 255
0.72033334 -0.48859027 1.5890001 176 183 179 255
0.72155428 -0.48648825 1.582 181 188 185 255
0.72228074 -0.48407981 1.5740001 182 189 186 255
0.72204256 -0.48105726 1.5640001 182 189 186 255
0.72268105 -0.47865084 1.5560001 182 189 186 255
0.72281098 -0.47593778 1.5470001 182 190 189 255
0.7238344 -0.47384104 1.5400001 184 191 190 255
0.72340387 -0.47082236 1.5300001 183 190 189 255
0.72292095 -0.46780443 1.5200001 184 191 190 255
0.72238582 -0.46478739 1.5100001 184 191 190 255
0.72276086 -0.46238688 1.5020001 183 190 187 255
0.71955985 -0.50455546 1.6270001 175 182 181 255
0.72184289 -0.50305164 1.6220001 177 184 183 255
0.72141451 -0.49968806 1.6110001 176 183 182 255
0.72363168 -0.49818653 1.6060001 179 186 185 255
0.72129053 -0.49358389 1.5910001 178 185 182 255
0.72206229 -0.49115378 1.5830001 180 187 184 255
0.72187489 -0.48810402 1.5730001 180 187 184 255
0.72163522 -0.48505524 1.5630001 181 188 185 255
0.72180772 -0.48231766 1.554 182 189 188 255
0.72286803 -0.48020193 1.5470001 182 189 188 255
0.72436285 -0.47839779 1.5410001 182 189 188 255
0.7239362 -0.47535276 1.531 181 188 187 255
0.72393316 -0.47261927 1.5220001 184 191 190 255
0.72340488 -0.46957609 1.5120001 186 193 192 255
0.72378683 -0.46715507 1.5040001 185 192 189 255
0.71817636 -0.51117265 1.6340001 174 181 178 255
0.71872205 -0.50840378 1.6250001 177 184 183 255
0.72100097 -0.5068875 1.6200001 174 182 181 255
0.72056818 -0.50349486 1.6090001 178 185 184 255
0.72134233 -0.49796408 1.5910001 176 183 182 255
0.7216593 -0.49520022 1.582 179 186 185 255
0.72192937 -0.49243733 1.5730001 180 187 186 255
0.72169095 -0.4893623 1.5630001 181 188 187 255
0.72186476 -0.48660132 1.554 181 188 187 255
0.72245908 -0.48415449 1.5460001 183 190 187 255
0.72254223 -0.48139551 1.5370001 182 189 188 255
0.72399729 -0.47957715 1.531 182 189 188 255
0.72399545 -0.47682023 1.5220001 184 191 190 255
0.72394705 -0.47406426 1.5130001 184 191 190 255
0.72385186 -0.47130921 1.5040001 185 192 191 255
0.71971506 -0.51039809 1.6170001 175 183 182 255
0.71972317 -0.50729209 1.6070001 177 185 184 255
0.72080129 -0.49892688 1.58 179 186 185 255
0.72106719 -0.49614057 1.5710001 181 188 187 255
0.72128618 -0.4933551 1.562 181 188 187 255
0.72145855 -0.49057063 1.5530001 181 188 185 255
0.72158402 -0.48778716 1.544 183 190 187 255
0.72119284 -0.48468873 1.534 184 191 190 255
0.72311395 -0.48317119 1.529 180 187 186 255
0.72215641 -0.47975865 1.5180001 180 187 186 255
0.72305512 -0.47761127 1.511 183 190 189 255
0.72343701 -0.47514883 1.503 185 192 191 255
1.0711281 -0.49136412 1.5140001 195 201 203 255
0.7193206 -0.5145306 1.6160001 175 183 180 255
0.71887916 -0.51107991 1.605 175 183 182 255
0.71928114 -0.50826705 1.5960001 175 183 182 255
0.72131336 -0.50359988 1.5810001 179 186 185 255
0.72158325 -0.50079006 1.572 179 186 185 255
0.72272998 -0.49861848 1.5650001 180 187 186 255
0.72198278 -0.49517342 1.554 182 189 186 255
0.72024298 -0.49109188 1.5410001 181 188 185 255
0.71843415 -0.48701102 1.5280001 182 189 188 255
0.72081298 -0.48579958 1.524 183 190 189 255
0.72126997 -0.48331434 1.516 184 191 190 255
0.72216451 -0.48114896 1.5090001 174 180 182 255
0.72350496 -0.4793036 1.503 183 189 191 255
1.0770046 -0.4924711 1.501 194 200 202 255
0.72026283 -0.51962256 1.618 175 183 180 255
0.72027618 -0.51646423 1.608 177 185 184 255
0.71978635 -0.51298559 1.5970001 176 184 183 255
0.72014546 -0.51015031 1.5880001 178 185 184 255
0.72000176 -0.50699478 1.5780001 177 184 183 255
0.72026467 -0.50416148 1.5690001 180 187 186 255
0.72048068 -0.50132906 1.5600001 179 186 183 255
0.72018558 -0.49817643 1.5500001 180 187 184 255
0.72030532 -0.49534598 1.5410001 181 188 187 255
0.71849769 -0.49123064 1.5280001 182 189 188 255
0.71898597 -0.48872352 1.5200001 182 189 188 255
0.71943325 -0.48621753 1.5120001 182 189 188 255
0.72175384 -0.48499894 1.508 182 188 190 255
0.72453731 -0.4841035 1.5050001 181 187 189 255
1.073823 -0.49717638 1.503 194 200 203 255
0.72120661 -0.52472728 1.6200001 175 183 180 255
0.72077876 -0.52121884 1.6090001 175 183 182 255
0.72029299 -0.51771134 1.598 177 185 184 255
0.72247034 -0.51614875 1.5930001 180 187 186 255
0.72234184 -0.51296723 1.5830001 179 186 185 255
0.72124273 -0.50913852 1.5710001 179 186 185 255
0.72054189 -0.50563455 1.5600001 178 185 184 255
0.72071272 -0.50277984 1.5510001 182 189 188 255
0.72177154 -0.50057447 1.544 181 188 187 255
0.72091401 -0.49707338 1.5330001 184 191 190 255
0.72047156 -0.49389726 1.5230001 183 190 189 255
0.72140443 -0.49169505 1.516 182 189 188 255
0.72182322 -0.48916966 1.508 183 190 189 255
0.72316396 -0.48729414 1.5020001 185 192 191 255
1.093405 -0.51256484 1.5370001 195 201 204 255
0.72037095 -0.52853799 1.618 175 183 182 255
0.72038686 -0.52532732 1.608 175 183 182 255
0.72080117 -0.52244437 1.5990001 178 185 184 255
0.72252923 -0.52054262 1.5930001 179 186 185 255
0.72148925 -0.51668137 1.5810001 181 188 187 255
0.72084492 -0.51314765 1.5700001 179 186 185 255
0.72014254 -0.50961488 1.559 180 187 186 255
0.7212413 -0.50739056 1.552 181 188 187 255
0.72183692 -0.50484049 1.544 182 188 190 255
0.72145104 -0.50163746 1.534 182 188 190 255
0.72101271 -0.49843526 1.524 182 189 188 255
0.72194988 -0.49621531 1.5170001 182 189 188 255
0.72237289 -0.49366936 1.5090001 183 190 189 255
0.72227341 -0.49079731 1.5000001 185 192 191 255
1.0773779 -0.50930959 1.5140001 195 200 206 255
0.71853197 -0.54496723 1.6550001 172 180 179 255
0.71875054 -0.54172653 1.6450001 173 181 180 255
0.71803713 -0.53782797 1.6330001 175 182 184 255
0.7190302 -0.5352478 1.6250001 174 181 183 255
0.71820086 -0.53135115 1.613 176 184 183 255
0.71865219 -0.52844363 1.6040001 176 184 183 255
0.72077519 -0.52362019 1.5890001 180 187 186 255
0.72090769 -0.51748276 1.5700001 180 187 186 255
0.72113061 -0.51458037 1.5610001 180 187 186 255
0.72316593 -0.51299769 1.5560001 178 185 184 255
0.72190392 -0.50910825 1.544 182 188 190 255
0.72198963 -0.5062089 1.5350001 181 187 189 255
0.72155547 -0.50298065 1.5250001 181 188 187 255
0.72297287 -0.50107282 1.5190001 184 190 192 255
0.72244549 -0.49784651 1.5090001 184 190 192 255
0.7185843 -0.5495255 1.6550001 172 179 181 255
0.72055197 -0.54758692 1.649 173 180 182 255
0.71853161 -0.54266053 1.6340001 173 180 182 255
0.71826285 -0.53253621 1.603 175 182 184 255
0.72001851 -0.53060311 1.5970001 177 184 186 255
0.7207343 -0.51856154 1.5600001 181 188 187 255
0.72276837 -0.51696658 1.5550001 180 187 186 255
0.72244006 -0.5137105 1.5450001 183 189 191 255
0.72252989 -0.51078773 1.536 180 187 189 255
0.72115356 -0.5068683 1.524 182 189 191 255
0.7211417 -0.50394744 1.5150001 182 188 190 255
0.72108322 -0.50102758 1.506 183 189 191 255
1.0822419 -0.52430755 1.534 195 201 204 255
1.092934 -0.52738655 1.5420001 197 200 204 255
0.71742684 -0.53629023 1.6010001 176 183 185 255
0.7200802 -0.53501195 1.5970001 177 184 186 255
0.71999246 -0.53172475 1.5870001 179 186 188 255
0.71966004 -0.52515316 1.567 180 187 186 255
0.72172552 -0.52354461 1.562 179 185 187 255
0.72283709 -0.521267 1.5550001 181 187 189 255
0.72391307 -0.51899058 1.5480001 183 189 191 255
0.72495371 -0.51671541 1.5410001 184 190 192 255
0.72453898 -0.51343518 1.531 183 189 191 255
0.72312009 -0.50948524 1.5190001 183 189 191 255
0.7211588 -0.50520039 1.506 184 190 192 255
1.0649301 -0.52224332 1.516 195 201 203 255
0.7197293 -0.54239911 1.6060001 176 183 185 255
0.72194713 -0.54077369 1.6010001 175 182 185 255
0.72141814 -0.53712279 1.59 176 183 185 255
0.72174436 -0.5341484 1.5810001 179 186 188 255
0.72156447 -0.53083712 1.5710001 179 186 188 255
0.72271866 -0.52854067 1.5640001 180 186 188 255
0.72244251 -0.52523142 1.554 181 187 190 255
0.7239849 -0.5232752 1.5480001 183 189 192 255
0.72549748 -0.52132022 1.5420001 182 188 190 255
0.72556037 -0.51835227 1.5330001 183 189 191 255
0.72367215 -0.51403248 1.5200001 183 189 191 255
0.72171497 -0.50971335 1.5070001 184 190 192 255
0.72306061 -0.50776273 1.501 184 190 192 255
1.0871675 -0.53535557 1.5400001 195 201 204 255
0.72111005 -0.54451632 1.5990001 177 184 186 255
0.72239196 -0.54219884 1.5920001 178 185 187 255
0.72272503 -0.5392012 1.5830001 177 184 186 255
0.72255212 -0.53586394 1.5730001 179 186 188 255
0.72140265 -0.53184628 1.5610001 180 187 189 255
0.72111958 -0.52851081 1.5510001 179 186 188 255
0.72312289 -0.52688026 1.5460001 182 189 191 255
0.72463137 -0.52491021 1.5400001 182 188 190 255
0.72469014 -0.52191889 1.531 182 188 190 255
0.72374994 -0.51824659 1.5200001 183 189 191 255
0.72466767 -0.51593906 1.5130001 184 190 192 255
0.72555006 -0.51363271 1.506 185 191 193 255
1.0712793 -0.53179926 1.5170001 196 201 207 255
1.0906073 -0.53290242 1.516 196 201 207 255
0.72155213 -0.54591447 1.59 179 185 187 255
0.72188115 -0.54289347 1.5810001 176 183 185 255
0.72354162 -0.54090381 1.575 177 184 186 255
0.722399 -0.53685462 1.5630001 178 185 187 255
0.72329628 -0.52814758 1.5370001 183 190 192 255
0.72145438 -0.52375805 1.524 183 189 191 255
0.7214483 -0.52074403 1.5150001 181 187 189 255
0.72426963 -0.51979363 1.5120001 183 189 191 255
0.7265963 -0.5185011 1.508 184 190 192 255
0.72696614 -0.51583457 1.5000001 186 192 194 255
0.72261357 -0.55778903 1.6120001 177 184 183 255
0.72269517 -0.54457211 1.5730001 179 186 188 255
0.72280669 -0.53510237 1.5450001 180 187 190 255
0.72290373 -0.53206319 1.536 182 189 191 255
0.7210604 -0.52763933 1.5230001 183 189 191 255
0.72057664 -0.52425545 1.5130001 185 191 193 255
0.7238732 -0.52364486 1.511 183 189 191 255
0.72619891 -0.52234298 1.5070001 184 190 192 255
0.72753674 -0.5203492 1.501 185 191 193 255
0.72311842 -0.55917823 1.603 179 186 185 255
0.72019768 -0.55025113 1.577 180 186 188 255
0.7213906 -0.54788238 1.5700001 179 185 187 255
0.72347265 -0.54621291 1.5650001 181 187 189 255
0.72345418 -0.53667378 1.5370001 182 188 190 255
0.7211414 -0.53186637 1.5230001 182 188 190 255
0.72065908 -0.52845651 1.5130001 182 188 190 255
0.72156197 -0.52609551 1.506 183 189 191 255
0.72387534 -0.52478397 1.5020001 187 193 195 255
0.72318977 -0.56361562 1.603 179 185 187 255
0.72209859 -0.55602664 1.5810001 180 186 188 255
0.72354978 -0.55055177 1.5650001 181 187 189 255
0.72217238 -0.5337159 1.516 184 190 192 255
0.72212702 -0.53063327 1.5070001 185 191 193 255
0.72348088 -0.52860802 1.501 184 190 192 255
0.72183961 -0.5635227 1.59 179 185 188 255
0.72445834 -0.562181 1.5860001 178 184 187 255
0.72338176 -0.5580048 1.5740001 181 187 190 255
0.72409111 -0.55524755 1.5660001 181 187 189 255
0.72273505 -0.53828472 1.5170001 186 192 194 255
0.72173542 -0.53446907 1.506 185 191 194 255
0.72278452 -0.55852169 1.5630001 181 188 190 255
0.72158509 -0.55431545 1.5510001 179 185 187 255
0.72266233 -0.55189705 1.544 180 186 188 255
0.72329962 -0.54286146 1.5180001 184 190 193 255
0.72326285 -0.53973246 1.5090001 185 191 194 255
1.0778418 -0.55419612 1.5020001 197 202 208 255
0.72170305 -0.56530011 1.5700001 179 186 189 255
0.7224043 -0.56250179 1.562 182 189 192 255
0.72166872 -0.55862409 1.5510001 181 188 190 255
0.72040713 -0.55438697 1.539 183 189 191 255
0.71955299 -0.55051082 1.5280001 185 191 193 255
0.71911478 -0.54699582 1.5180001 183 189 192 255
0.72195995 -0.54600453 1.5150001 183 189 192 255
0.72287488 -0.54357296 1.508 185 191 194 255
0.72423685 -0.54150337 1.5020001 182 188 191 255
0.72361565 -0.56438696 1.5550001 181 188 190 255
0.72096211 -0.55902958 1.5400001 182 188 190 255
0.72011226 -0.55512476 1.529 184 190 192 255
0.71967822 -0.55158383 1.5190001 185 191 194 255
0.72205162 -0.55022287 1.5150001 186 192 195 255
0.72344774 -0.54813707 1.5090001 184 190 193 255
0.72529644 -0.54641593 1.5040001 186 192 195 255
1.0757381 -0.5660404 1.5120001 198 203 209 255
0.7241686 -0.56907737 1.5560001 181 188 191 255
0.72198737 -0.56404597 1.5420001 183 189 192 255
0.72161549 -0.56047827 1.5320001 181 187 190 255
0.72024381 -0.55617982 1.5200001 184 190 193 255
0.72210461 -0.55124509 1.506 185 190 196 255
0.72491133 -0.55024391 1.503 186 191 197 255
0.72488779 -0.57055026 1.5480001 182 188 191 255
0.72406322 -0.56658846 1.5370001 184 190 193 255
0.72452807 -0.55406898 1.5020001 188 193 199 255
1.0751641 -0.57200086 1.503 200 205 211 255
0.72544909 -0.57523382 1.549 183 188 194 255
0.72510004 -0.5716148 1.539 184 189 195 255
0.72469878 -0.56799668 1.529 182 187 193 255
0.72424531 -0.56437951 1.5190001 184 189 195 255
0.7242192 -0.56113476 1.5100001 187 192 198 255
0.72414654 -0.55789113 1.501 186 191 197 255
1.0834554 -0.58069396 1.5140001 200 205 212 255
0.72229797 -0.59077543 1.58 181 186 192 255
0.72472548 -0.57553232 1.5380001 183 188 194 255
0.72527093 -0.57263672 1.5300001 184 189 195 255
0.7252987 -0.56936806 1.521 184 189 195 255
0.72527993 -0.56610036 1.5120001 186 191 197 255
0.72473204 -0.56245923 1.5020001 186 192 195 255
1.0838842 -0.58520734 1.5140001 199 203 213 255
0.72330272 -0.59592766 1.582 181 186 192 255
0.7224676 -0.57793897 1.5330001 184 189 195 255
0.72489709 -0.57653105 1.529 175 180 186 255
0.72587746 -0.5739935 1.5220001 176 181 187 255
0.72634292 -0.57107991 1.5140001 188 193 199 255
0.72531974 -0.56703585 1.503 187 193 196 255
0.72021121 -0.58032054 1.5280001 183 189 195 255
0.72262847 -0.57890308 1.524 177 183 189 255
0.72455049 -0.57710749 1.5190001 165 171 177 255
0.72596884 -0.57493353 1.5130001 185 191 197 255
0.72639233 -0.57200092 1.5050001 184 191 194 255
0.72031319 -0.5845899 1.5280001 182 188 194 255
0.721784 -0.58239806 1.5220001 183 189 195 255
0.72513348 -0.58173865 1.5200001 181 187 193 255
0.72655642 -0.57954997 1.5140001 186 192 198 255
0.72650182 -0.57621431 1.5050001 186 192 195 255
0.72204119 -0.59713179 1.5500001 183 188 194 255
0.72125804 -0.59299654 1.539 185 190 196 255
0.72324604 -0.59117442 1.534 184 190 196 255
0.72473574 -0.5889684 1.5280001 184 190 196 255
0.72715002 -0.58753484 1.524 183 189 195 255
0.72666639 -0.58378947 1.5140001 186 192 198 255
0.72709626 -0.58081633 1.506 187 192 198 255
0.72261029 -0.60185236 1.5510001 184 189 195 255
0.72821492 -0.59257966 1.526 185 191 197 255
0.72677857 -0.58803195 1.5140001 185 191 197 255
0.72672725 -0.5846501 1.5050001 188 193 199 255
0.72318149 -0.60658145 1.552 184 189 195 255
0.72428226 -0.60395265 1.5450001 186 192 198 255
0.72629112 -0.60210723 1.5400001 185 191 197 255
0.72975963 -0.59803003 1.529 185 191 197 255
0.72881341 -0.59384227 1.5180001 188 193 199 255
0.72732627 -0.58926386 1.506 186 191 197 255
0.72328895 -0.6109255 1.552 183 189 195 255
0.72345388 -0.60749191 1.5430001 185 191 197 255
0.72593063 -0.6060282 1.539 184 190 196 255
0.72838932 -0.6045664 1.5350001 185 191 197 255
0.72696167 -0.59309828 1.5050001 187 192 198 255
0.72386485 -0.61566925 1.5530001 185 191 197 255
0.72262746 -0.61102319 1.5410001 184 190 196 255
0.72321355 -0.60796398 1.5330001 186 192 198 255
0.72470808 -0.60569942 1.5270001 186 192 198 255
0.72708225 -0.59732711 1.5050001 188 193 200 255
0.72623873 -0.60075986 1.503 188 193 200 255
0.72116041 -0.60755873 1.5100001 185 190 197 255
0.7244904 -0.60687691 1.508 188 193 200 255
0.72539735 -0.60418475 1.501 190 195 202 255
0.72558248 -0.61545354 1.5190001 188 193 200 255
0.72653782 -0.61274296 1.5120001 187 192 199 255
1.121791 -0.64176041 1.5230001 205 207 217 255
0.72666597 -0.61700279 1.5120001 188 193 200 255
0.7277208 -0.61852229 1.5050001 190 195 201 255
0.73055154 -0.63961273 1.5470001 188 193 200 255
0.72734708 -0.63312685 1.531 189 194 201 255
0.73220849 -0.6264962 1.5140001 188 193 200 255
0.73020667 -0.62125409 1.501 188 193 200 255
0.72973758 -0.6431421 1.5450001 188 193 200 255
0.72795427 -0.63786244 1.5320001 189 194 201 255
0.72753572 -0.63383257 1.5220001 189 194 201 255
0.73283064 -0.63119167 1.5150001 191 196 203 255
