ply
format ascii 1.0
comment PCL generated
element vertex 989
property float x
property float y
property float z
property uchar red
property uchar green
property uchar blue
property uchar alpha
element camera 0
property float view_px
property float view_py
property float view_pz
property float x_axisx
property float x_axisy
property float x_axisz
property float y_axisx
property float y_axisy
property float y_axisz
property float z_axisx
property float z_axisy
property float z_axisz
property float focal
property float scalex
property float scaley
property float centerx
property float centery
property int viewportx
property int viewporty
property float k1
property float k2
end_header
0.33337826 -0.29332232 1.7400001 76 81 78 255
0.33811682 -0.29330322 1.7400001 78 83 80 255
0.3430517 -0.2934525 1.7410001 80 85 82 255
0.34779152 -0.29343316 1.7410001 77 82 79 255
0.35253063 -0.29341376 1.7410001 78 83 79 255
0.35726899 -0.29339424 1.7410001 77 82 78 255
0.36221454 -0.29354316 1.7420001 78 83 79 255
0.36695418 -0.29352349 1.7420001 79 82 78 255
0.37169313 -0.29350382 1.7420001 77 80 77 255
0.37621522 -0.29331553 1.7410001 76 79 75 255
0.38116887 -0.29346424 1.7420001 76 79 75 255
0.38590568 -0.29344437 1.7420001 78 81 77 255
0.39131457 -0.29392979 1.7450001 74 79 76 255
0.39628512 -0.29407826 1.7460001 72 77 74 255
0.40171984 -0.29456356 1.7490001 75 78 75 255
0.40647301 -0.29454356 1.7490001 74 79 76 255
0.4112255 -0.29452354 1.7490001 75 80 77 255
0.41621521 -0.29467195 1.7500001 73 78 75 255
0.42145029 -0.29498869 1.7520001 74 79 76 255
0.42693892 -0.29547378 1.7550001 73 78 74 255
0.43170524 -0.29545376 1.7550001 71 76 72 255
0.4364709 -0.29543379 1.7550001 71 74 70 255
0.44098467 -0.29524556 1.7540001 71 76 72 255
0.44600064 -0.295394 1.7550001 69 74 70 255
0.45102149 -0.29554251 1.756 69 74 70 255
0.4563069 -0.29585937 1.7580001 70 75 71 255
0.46134025 -0.29600796 1.7590001 73 76 72 255
0.46611366 -0.29598838 1.7590001 72 76 69 255
0.4708865 -0.29596883 1.7590001 71 75 68 255
0.47592929 -0.29611769 1.7600001 69 73 66 255
0.4812502 -0.29643488 1.7620001 66 70 63 255
0.48547819 -0.29607922 1.7600001 68 72 65 255
0.48885927 -0.29521909 1.7550001 66 71 67 255
0.49277541 -0.29469565 1.7520001 63 70 67 255
0.49695879 -0.29434055 1.7500001 78 85 84 255
0.50170445 -0.29432207 1.7500001 83 89 91 255
0.50616026 -0.29413554 1.7490001 83 89 92 255
0.51061052 -0.29394925 1.748 91 96 102 255
0.51417053 -0.29325864 1.7440001 93 98 104 255
0.5177086 -0.29256836 1.7400001 91 96 102 255
0.52092457 -0.29171023 1.7350001 93 99 102 255
0.52441615 -0.29102048 1.7310001 83 87 89 255
0.52849728 -0.2906673 1.7290001 82 86 86 255
0.53225899 -0.29014626 1.7260001 83 87 87 255
0.53662646 -0.2899617 1.725 81 85 85 255
0.54130232 -0.28994545 1.725 79 84 81 255
0.54756069 -0.2907699 1.7300001 77 80 77 255
0.55512291 -0.29226676 1.7390001 75 78 74 255
0.56176823 -0.29325956 1.7450001 67 71 64 255
0.56617349 -0.29307616 1.7440001 37 41 34 255
0.56991887 -0.292557 1.7410001 35 39 32 255
0.57364804 -0.29203823 1.738 50 54 47 255
0.57736105 -0.29151982 1.7350001 67 73 66 255
0.58072245 -0.29083371 1.7310001 71 77 70 255
0.5840624 -0.29014802 1.7270001 71 76 73 255
0.58840364 -0.28996676 1.7260001 72 77 74 255
0.5927397 -0.28978577 1.725 73 77 77 255
0.59707069 -0.28960523 1.7240001 79 85 87 255
0.60034955 -0.28892115 1.72 86 93 92 255
0.603607 -0.28823745 1.7160001 77 84 83 255
0.60719764 -0.28772217 1.7130001 81 86 82 255
0.61148697 -0.28754327 1.7120001 84 89 85 255
0.61685085 -0.28786859 1.7140001 93 97 90 255
0.62005061 -0.28718665 1.71 11 13 5 255
0.62249869 -0.28616932 1.7040001 21 23 13 255
0.6252827 -0.28532037 1.6990001 21 24 12 255
0.62952334 -0.28514361 1.6980001 19 22 10 255
0.63338578 -0.28479949 1.6960001 19 22 10 255
0.63535726 -0.28361616 1.6890001 22 27 16 255
0.63880706 -0.28310505 1.6860001 22 24 14 255
0.64224142 -0.28259444 1.6830001 20 22 12 255
0.64604473 -0.28225225 1.6810001 21 26 15 255
0.64906394 -0.28157473 1.677 18 23 12 255
0.65323174 -0.28140149 1.6760001 23 28 17 255
0.65661019 -0.28089297 1.6730001 23 28 16 255
0.65997332 -0.28038496 1.6700001 24 29 15 255
0.65854645 -0.27786285 1.6550001 24 27 13 255
0.66304851 -0.2778596 1.6550001 22 25 11 255
0.66472834 -0.27668178 1.6480001 22 25 11 255
0.66880786 -0.27651182 1.6470001 22 25 11 255
0.67043036 -0.2753351 1.6400001 21 24 10 255
0.6736623 -0.27483055 1.6370001 22 27 13 255
0.67232251 -0.27247977 1.623 25 28 14 255
0.66632122 -0.26828289 1.598 26 29 17 255
0.66941851 -0.2677801 1.595 27 29 19 255
0.66489744 -0.26425591 1.5740001 27 29 19 255
0.66791594 -0.26375428 1.5710001 27 30 18 255
0.67605448 -0.26526797 1.58 30 33 21 255
0.68682736 -0.26778966 1.595 28 31 19 255
0.69291729 -0.26846525 1.5990001 27 32 20 255
0.69554228 -0.26779827 1.595 28 33 21 255
0.70078015 -0.26813942 1.5970001 24 31 19 255
0.70956343 -0.2698245 1.6070001 22 31 20 255
0.71396041 -0.26983124 1.6070001 16 25 18 255
0.71835959 -0.26983866 1.6070001 81 92 87 255
0.72051227 -0.26900727 1.6020001 129 141 142 255
0.7235446 -0.26851234 1.5990001 158 169 174 255
0.72519708 -0.26751435 1.5930001 171 180 185 255
0.72910905 -0.26735672 1.5920001 175 183 190 255
0.73071414 -0.2663601 1.5860001 177 183 190 255
0.7322889 -0.26536417 1.58 180 186 193 255
0.73150206 -0.26352912 1.5690001 180 186 193 255
0.73253322 -0.26236653 1.562 182 187 197 255
0.73305678 -0.26103669 1.554 184 189 199 255
0.73496252 -0.26021144 1.549 184 190 197 255
0.73493457 -0.25871491 1.5400001 184 190 197 255
0.73629981 -0.25772303 1.534 183 189 196 255
0.73763484 -0.25673187 1.5280001 185 191 198 255
0.73991078 -0.25607747 1.524 184 190 197 255
0.74070281 -0.25491968 1.5170001 185 190 200 255
0.73998624 -0.25325844 1.5070001 187 192 202 255
0.74069881 -0.25210193 1.5000001 187 192 202 255
1.1419123 -0.28140029 1.646 205 209 219 255
1.1215024 -0.27201891 1.5880001 205 209 219 255
1.1208218 -0.27078784 1.58 206 210 220 255
1.0944548 -0.26338485 1.536 202 206 217 255
-0.72534442 -0.302836 1.7750001 221 225 227 255
-0.71807569 -0.30181369 1.7690001 223 228 225 255
-0.71043789 -0.30062145 1.7620001 212 217 214 255
-0.70203865 -0.29908857 1.7530001 201 208 204 255
-0.69567835 -0.29840931 1.7490001 196 204 197 255
-0.68934113 -0.29773059 1.7450001 192 200 193 255
-0.68420374 -0.2975643 1.7440001 188 196 189 255
-0.67829382 -0.29705733 1.7410001 183 191 184 255
-0.67317498 -0.29689211 1.7400001 180 188 180 255
-0.66806263 -0.29672745 1.7390001 174 182 174 255
-0.66219378 -0.296222 1.7360001 174 180 172 255
-0.65672088 -0.29588771 1.7340001 173 179 171 255
-0.65163571 -0.29572454 1.733 168 175 163 255
-0.64730352 -0.29590318 1.7340001 165 172 160 255
-0.64222538 -0.29574093 1.733 171 178 166 255
-0.63715345 -0.29557914 1.7320001 176 183 171 255
-0.63318312 -0.29592985 1.7340001 177 184 172 255
-0.62884015 -0.2961103 1.7350001 178 185 173 255
-0.62377292 -0.29594985 1.7340001 179 188 176 255
-0.61835456 -0.29561919 1.7320001 180 187 175 255
-0.61330199 -0.29545954 1.7310001 177 184 172 255
-0.60825527 -0.29530033 1.7300001 175 182 170 255
-0.60286552 -0.29497075 1.728 172 179 167 255
-0.59679472 -0.29430014 1.7240001 169 176 164 255
-0.59108937 -0.29380056 1.7210001 162 169 157 255
-0.58574146 -0.29347205 1.7190001 154 164 149 255
-0.58141857 -0.29365599 1.72 161 171 156 255
-0.57642013 -0.29349884 1.7190001 165 175 160 255
-0.57142717 -0.29334202 1.7180001 162 170 155 255
-0.56676972 -0.29335624 1.7180001 156 164 149 255
-0.56243968 -0.29354152 1.7190001 163 171 154 255
-0.55777979 -0.29355636 1.7190001 149 157 140 255
-0.55279815 -0.29340073 1.7180001 147 155 138 255
-0.54782212 -0.29324538 1.7170001 155 163 146 255
-0.54316777 -0.29326105 1.7170001 179 187 170 255
-0.53819984 -0.2931062 1.7160001 179 187 170 255
-0.53292626 -0.29278076 1.7140001 143 151 134 255
-0.52797168 -0.29262632 1.7130001 141 149 132 255
-0.522717 -0.2923013 1.7110001 144 150 133 255
-0.51807857 -0.29231814 1.7110001 157 165 148 255
-0.51374006 -0.29250607 1.7120001 162 170 153 255
-0.50939596 -0.29269424 1.7130001 162 170 153 255
-0.50445688 -0.29254085 1.7120001 148 157 138 255
-0.50010693 -0.29272941 1.7130001 165 174 155 255
-0.4951728 -0.29257637 1.7120001 161 171 154 255
-0.49081686 -0.29276532 1.7130001 163 174 155 255
-0.48588765 -0.29261264 1.7120001 162 171 152 255
-0.48124453 -0.292631 1.7120001 152 161 142 255
-0.47715792 -0.29299134 1.7140001 160 169 150 255
-0.47278437 -0.29318097 1.715 149 155 137 255
-0.46785909 -0.29302883 1.7140001 151 160 141 255
-0.46293882 -0.29287675 1.7130001 145 154 135 255
-0.45829108 -0.29289579 1.7130001 161 170 151 255
-0.45364293 -0.2929149 1.7130001 155 163 146 255
-0.4487322 -0.29276311 1.7120001 146 154 137 255
-0.44382635 -0.29261142 1.7110001 154 162 145 255
-0.43866888 -0.29228872 1.7090001 159 168 149 255
-0.43352169 -0.29196605 1.7070001 155 164 145 255
-0.42863601 -0.29181448 1.7060001 148 157 138 255
-0.42375532 -0.2916629 1.705 148 157 138 255
-0.41863367 -0.29134029 1.7030001 147 153 135 255
-0.41425157 -0.29153091 1.7040001 141 147 129 255
-0.40962318 -0.29155052 1.7040001 137 143 125 255
-0.4049941 -0.29157016 1.7040001 135 141 123 255
-0.40036443 -0.29158974 1.7040001 138 145 124 255
-0.39596641 -0.29178053 1.705 129 135 117 255
-0.39133278 -0.29180017 1.705 125 134 115 255
-0.38647175 -0.29164872 1.7040001 135 144 125 255
-0.38139138 -0.29132593 1.702 164 173 154 255
-0.3763212 -0.29100317 1.7 152 162 147 255
-0.37147999 -0.29085153 1.6990001 161 171 156 255
-0.36685944 -0.29087102 1.6990001 172 182 167 255
-0.36223817 -0.29089043 1.6990001 158 168 151 255
-0.35761622 -0.2909098 1.6990001 148 157 138 255
-0.35278586 -0.29075789 1.6980001 130 138 121 255
-0.34816524 -0.29077715 1.6980001 128 136 119 255
-0.34334165 -0.2906251 1.697 161 167 150 255
-0.33872238 -0.29064417 1.697 149 157 142 255
-0.33370861 -0.29032058 1.6950001 166 173 161 255
-0.32851091 -0.28982562 1.692 142 149 137 255
-0.32371169 -0.28967306 1.6910001 149 156 144 255
-0.31910592 -0.28969172 1.6910001 152 159 147 255
-0.31468537 -0.28988156 1.692 170 177 165 255
-0.30970892 -0.28955731 1.6900001 159 166 154 255
-0.30474263 -0.28923288 1.6880001 138 145 134 255
-0.29978654 -0.2889083 1.6860001 148 155 144 255
-0.29501569 -0.28875488 1.6850001 171 178 167 255
-0.29024959 -0.28860134 1.6840001 149 158 147 255
-0.28565785 -0.28861898 1.6840001 140 149 137 255
-0.28123233 -0.28880784 1.6850001 143 153 138 255
-0.27663645 -0.28882518 1.6850001 131 141 126 255
-0.27171695 -0.28849956 1.6830001 147 155 140 255
-0.26680768 -0.28817368 1.6810001 160 168 153 255
-0.26175261 -0.28767616 1.6780001 158 167 155 255
-0.25701973 -0.28752127 1.677 173 181 166 255
-0.25259268 -0.28770909 1.6780001 131 141 126 255
-0.2481595 -0.28789678 1.6790001 146 156 141 255
-0.24343005 -0.2877413 1.6780001 155 165 150 255
-0.23884769 -0.2877571 1.6780001 131 141 124 255
-0.23398541 -0.28742969 1.6760001 157 167 152 255
-0.22940719 -0.28744507 1.6760001 148 156 141 255
-0.22469415 -0.28728864 1.6750001 142 150 135 255
-0.2201173 -0.28730351 1.6750001 137 147 132 255
-0.21553984 -0.2873182 1.6750001 185 193 176 255
-0.21058387 -0.286818 1.6720001 149 157 140 255
-0.20589012 -0.28666064 1.6710001 103 112 93 255
-0.20132169 -0.28667456 1.6710001 139 148 129 255
-0.19687037 -0.28685975 1.6720001 158 167 148 255
-0.192298 -0.28687316 1.6720001 161 169 152 255
-0.18761276 -0.28671479 1.6710001 154 162 145 255
-0.1827133 -0.28621292 1.6680001 133 141 124 255
-0.17804328 -0.28605393 1.6670001 167 175 158 255
-0.17327411 -0.28572306 1.6650001 159 165 147 255
-0.16881934 -0.28590673 1.6660001 158 164 146 255
-0.16416134 -0.28574687 1.6650001 159 165 147 255
-0.15950832 -0.28558677 1.664 161 167 149 255
-0.15486021 -0.28542635 1.6630001 150 156 138 255
-0.15039785 -0.28560889 1.664 170 176 158 255
-0.14566658 -0.28527626 1.6620001 165 171 153 255
-0.14111561 -0.28528661 1.6620001 158 164 147 255
-0.13648199 -0.28512499 1.6610001 169 175 157 255
-0.13185337 -0.28496304 1.6600001 152 158 140 255
-0.12722978 -0.28480077 1.659 159 167 150 255
-0.12261128 -0.28463826 1.6580001 163 169 152 255
-0.11821143 -0.2849904 1.6600001 183 185 168 255
-0.11386871 -0.28551397 1.6630001 14 11 0 255
-0.10957489 -0.28620893 1.6670001 58 47 34 255
-0.10506979 -0.28638855 1.6680001 67 52 37 255
-0.10037811 -0.28605276 1.6660001 80 60 44 255
-0.095754527 -0.28588828 1.6650001 86 59 44 255
-0.091081329 -0.28555182 1.6630001 93 66 51 255
-0.08652284 -0.28555843 1.6630001 97 70 55 255
-0.081816174 -0.28504956 1.6600001 101 74 59 255
-0.077125669 -0.28454033 1.6570001 103 76 61 255
-0.072495155 -0.28420252 1.6550001 102 75 60 255
-0.067957476 -0.28420776 1.6550001 103 76 61 255
-0.063342892 -0.28386921 1.6530001 91 67 51 255
-0.058739066 -0.28353032 1.651 93 69 53 255
-0.054178834 -0.28336287 1.6500001 94 70 54 255
-0.049563702 -0.28285158 1.6470001 92 67 55 255
-0.045074251 -0.28302687 1.6480001 102 77 65 255
-0.040554542 -0.28303012 1.6480001 96 71 59 255
-0.036100283 -0.28354824 1.651 81 56 42 255
-0.031629443 -0.28406602 1.654 77 52 38 255
-0.027142027 -0.28458348 1.6570001 79 55 39 255
-0.022638056 -0.28510061 1.6600001 80 58 42 255
-0.01809576 -0.28527391 1.6610001 81 59 43 255
-0.01355606 -0.2856186 1.6630001 87 65 49 255
-0.0089945244 -0.28561944 1.6630001 86 64 48 255
-0.0044356212 -0.2857917 1.664 80 58 42 255
0.00012886077 -0.28613538 1.6660001 70 50 34 255
0.0047043147 -0.2864787 1.6680001 63 43 27 255
0.0093129762 -0.28750864 1.674 54 34 18 255
0.013996051 -0.289397 1.6850001 56 36 20 255
0.018772569 -0.29180026 1.6990001 67 47 31 255
0.02358444 -0.29368785 1.71 78 60 45 255
0.028654989 -0.29763606 1.733 87 72 59 255
0.03398655 -0.30278608 1.7630001 81 69 60 255
0.039218307 -0.30587468 1.7810001 75 67 60 255
0.044301026 -0.30724546 1.789 74 69 63 255
0.049207419 -0.30724192 1.789 68 69 63 255
0.054174136 -0.30758151 1.7910001 63 66 62 255
0.05911864 -0.307749 1.7920001 66 69 65 255
0.064068407 -0.3079161 1.7930001 66 69 65 255
0.069023438 -0.30808282 1.794 63 68 64 255
0.073942482 -0.30807745 1.794 63 68 64 255
0.079081066 -0.30893037 1.7990001 65 70 66 255
0.084059969 -0.30909598 1.8000001 68 73 69 255
0.088994622 -0.30908951 1.8000001 66 71 68 255
0.093720235 -0.30839583 1.7960001 69 74 71 255
0.098313741 -0.30735844 1.7900001 67 72 69 255
0.10275867 -0.30597728 1.7820001 70 77 74 255
0.10728021 -0.30493933 1.7760001 73 80 77 255
0.11157905 -0.303386 1.7670001 72 77 74 255
0.11602582 -0.30234739 1.761 72 77 74 255
0.1206452 -0.30182365 1.7580001 75 80 77 255
0.12560454 -0.30215797 1.7600001 77 82 79 255
0.13057443 -0.30249199 1.7620001 79 84 81 255
0.13555484 -0.3028256 1.7640001 78 83 79 255
0.1406253 -0.30333057 1.7670001 78 83 79 255
0.14546475 -0.3033202 1.7670001 77 82 78 255
0.15038881 -0.30348116 1.7680001 78 83 79 255
0.15531778 -0.3036418 1.7690001 81 86 82 255
0.16070446 -0.30466029 1.7750001 79 84 80 255
0.16575034 -0.3049919 1.7770001 78 81 77 255
0.17042258 -0.30463666 1.7750001 76 79 75 255
0.17488581 -0.30393788 1.771 79 82 78 255
0.17952955 -0.3035821 1.7690001 79 82 78 255
0.18447445 -0.30374092 1.7700001 81 84 80 255
0.18899639 -0.30321297 1.7670001 75 78 74 255
0.1937207 -0.30302802 1.766 72 75 72 255
0.19821407 -0.30249962 1.7630001 75 80 77 255
0.20269041 -0.30197099 1.7600001 73 78 75 255
0.2069139 -0.30109903 1.7550001 74 79 76 255
0.21123007 -0.30039838 1.751 83 90 87 255
0.21577044 -0.30004072 1.7490001 77 84 80 255
0.22042534 -0.29985434 1.748 70 77 73 255
0.2254606 -0.30018234 1.7500001 72 79 75 255
0.23037456 -0.30033851 1.751 75 82 78 255
0.23556191 -0.30083749 1.7540001 72 77 73 255
0.2404909 -0.30099314 1.7550001 70 75 71 255
0.24528489 -0.30097705 1.7550001 63 66 62 255
0.2500782 -0.30096075 1.7550001 64 67 63 255
0.2548708 -0.30094424 1.7550001 49 52 48 255
0.25966269 -0.30092749 1.7550001 51 54 50 255
0.26415247 -0.30056763 1.7530001 78 82 75 255
0.2684772 -0.30003613 1.7500001 46 52 45 255
0.27325326 -0.30001882 1.7500001 45 51 44 255
0.27771086 -0.29965848 1.748 60 65 61 255
0.28199524 -0.2991266 1.7450001 66 71 67 255
0.28626245 -0.29859456 1.7420001 81 86 82 255
0.29134786 -0.29891941 1.7440001 77 82 78 255
0.29593411 -0.29872987 1.743 79 82 78 255
0.30068669 -0.2987116 1.743 79 82 79 255
0.30543852 -0.29869318 1.743 81 84 81 255
0.31018955 -0.29867458 1.743 79 82 79 255
0.31512064 -0.29882723 1.7440001 76 81 77 255
0.31987295 -0.29880837 1.7440001 80 85 81 255
0.32481065 -0.29896072 1.7450001 79 84 80 255
0.32937533 -0.29877025 1.7440001 78 83 79 255
0.33412546 -0.29875106 1.7440001 78 83 79 255
0.33868051 -0.29856038 1.743 77 82 79 255
0.34342641 -0.29854095 1.743 80 85 81 255
0.34817156 -0.29852143 1.743 82 87 83 255
0.35271356 -0.29833058 1.7420001 78 83 79 255
0.35765976 -0.29848212 1.743 77 82 78 255
0.36240274 -0.29846236 1.743 74 79 75 255
0.36714506 -0.29844254 1.743 78 81 78 255
0.37167329 -0.29825148 1.7420001 79 82 79 255
0.37662753 -0.29840273 1.743 81 84 81 255
0.38136774 -0.29838273 1.743 80 83 79 255
0.38610721 -0.2983627 1.743 82 85 81 255
0.39129451 -0.29868501 1.7450001 76 81 78 255
0.39649206 -0.29900724 1.7470001 75 80 76 255
0.40169975 -0.29932937 1.7490001 79 82 78 255
0.40645295 -0.29930922 1.7490001 75 78 74 255
0.4109703 -0.29911792 1.748 73 78 74 255
0.41595733 -0.2992689 1.7490001 79 82 78 255
0.42143026 -0.29976207 1.7520001 72 77 73 255
0.42716202 -0.30042624 1.756 73 78 75 255
0.43193111 -0.30040613 1.756 71 76 73 255
0.4366996 -0.30038595 1.756 71 76 72 255
0.44121611 -0.30019486 1.7550001 70 75 71 255
0.44598073 -0.30017486 1.7550001 70 75 71 255
0.45125857 -0.300497 1.7570001 72 75 71 255
0.45628718 -0.30064812 1.7580001 72 75 71 255
0.46132052 -0.30079931 1.7590001 71 74 70 255
0.46582904 -0.30060861 1.7580001 74 78 71 255
0.47059926 -0.300589 1.7580001 72 76 69 255
0.4753691 -0.30056947 1.7580001 66 70 63 255
0.4806847 -0.300892 1.7600001 64 68 61 255
0.48490736 -0.30053079 1.7580001 63 67 60 255
0.48884028 -0.29999885 1.7550001 63 68 64 255
0.49303788 -0.29963803 1.7530001 65 72 69 255
0.49722412 -0.2992774 1.751 79 86 85 255
0.50197268 -0.2992588 1.751 81 87 89 255
0.50614202 -0.29889858 1.7490001 86 92 95 255
0.50971609 -0.29819679 1.7450001 89 94 100 255
0.51267862 -0.29715353 1.7390001 91 97 100 255
0.51620334 -0.29645228 1.7350001 92 95 99 255
0.52060694 -0.29626393 1.7340001 83 87 89 255
0.52530789 -0.29624665 1.7340001 82 84 84 255
0.53031439 -0.29640043 1.7350001 71 73 73 255
0.53440094 -0.29604191 1.733 72 76 76 255
0.53785443 -0.29534206 1.7290001 80 84 84 255
0.54128623 -0.29464254 1.725 84 88 88 255
0.54691172 -0.2951389 1.728 79 84 81 255
0.55478793 -0.29683104 1.738 79 82 79 255
0.5620746 -0.29818168 1.7460001 79 83 76 255
0.56648302 -0.2979956 1.7450001 31 35 28 255
0.56957662 -0.29712671 1.7400001 38 42 35 255
0.57330352 -0.29659978 1.7370001 53 57 50 255
0.57701409 -0.29607314 1.7340001 64 70 63 255
0.58070862 -0.29554689 1.7310001 68 73 69 255
0.58438718 -0.29502109 1.728 69 74 71 255
0.58839047 -0.29466632 1.7260001 70 74 74 255
0.59272701 -0.29448268 1.725 76 80 80 255
0.59636569 -0.29395804 1.7220001 80 86 88 255
0.59998852 -0.29343379 1.7190001 88 95 94 255
0.60359544 -0.29290992 1.7160001 69 76 75 255
0.60789543 -0.29272795 1.715 80 87 84 255
0.61183333 -0.29237562 1.7130001 85 90 86 255
0.61720037 -0.29270646 1.715 89 93 86 255
0.6211285 -0.29235503 1.7130001 11 13 5 255
0.62468112 -0.2918334 1.71 22 24 14 255
0.62674588 -0.2906296 1.7030001 23 26 14 255
0.62951487 -0.28976762 1.6980001 17 20 8 255
0.63300425 -0.28924742 1.6950001 24 27 15 255
0.63647819 -0.28872776 1.692 18 23 12 255
0.6406945 -0.28854987 1.6910001 24 26 16 255
0.64566922 -0.28871372 1.692 25 27 17 255
0.64834452 -0.28785428 1.687 28 30 20 255
0.65176773 -0.28733668 1.6840001 21 26 15 255
0.65478569 -0.28664893 1.6800001 21 26 14 255
0.65856802 -0.28630301 1.6780001 23 28 16 255
0.65957421 -0.28476331 1.669 25 28 14 255
0.65695131 -0.28168863 1.651 32 35 21 255
0.66024131 -0.2811738 1.6480001 26 29 15 255
0.66311264 -0.28048888 1.6440001 24 27 13 255
0.66758794 -0.28048709 1.6440001 22 25 11 255
0.67002046 -0.27963272 1.6390001 21 24 10 255
0.67571938 -0.28014392 1.6420001 22 27 13 255
0.67605084 -0.2784377 1.6320001 23 28 14 255
0.66632193 -0.2726374 1.598 25 30 18 255
0.66522288 -0.27042058 1.585 25 30 19 255
0.6703909 -0.27076355 1.5870001 27 29 19 255
0.66664302 -0.26752418 1.5680001 28 33 21 255
0.66536051 -0.2653091 1.5550001 28 31 19 255
0.67951077 -0.26923689 1.5780001 26 31 19 255
0.68988842 -0.27162984 1.5920001 26 31 19 255
0.69511145 -0.27197608 1.5940001 29 34 22 255
0.69990844 -0.27215233 1.595 26 33 22 255
0.71089458 -0.2747182 1.6100001 24 33 22 255
0.71618909 -0.27506655 1.6120001 11 20 13 255
0.71926171 -0.27456251 1.6090001 107 118 113 255
0.72187012 -0.27388847 1.605 140 151 154 255
0.72445899 -0.27321514 1.6010001 161 172 177 255
0.72702819 -0.27254254 1.5970001 171 180 185 255
0.7291199 -0.27169997 1.5920001 174 182 189 255
0.73072577 -0.27068743 1.5860001 180 186 193 255
0.73276472 -0.26984626 1.5810001 180 186 193 255
0.73338002 -0.26849374 1.5730001 182 187 194 255
0.73442298 -0.26731259 1.5660001 182 187 194 255
0.73401487 -0.26561999 1.5560001 184 190 197 255
0.73497778 -0.26444015 1.549 184 190 197 255
0.73447341 -0.26274887 1.539 182 188 195 255
0.73535657 -0.26157036 1.5320001 184 190 197 255
0.73620409 -0.26039258 1.5250001 185 190 197 255
0.73895806 -0.25989851 1.5220001 185 191 198 255
0.73876882 -0.25838062 1.5130001 186 191 201 255
0.7385329 -0.25686336 1.5040001 187 192 202 255
1.0948621 -0.27093387 1.557 203 207 217 255
1.0962149 -0.27020079 1.552 203 207 217 255
1.1103218 -0.27260473 1.5650001 203 207 218 255
1.0903198 -0.26664832 1.5300001 203 207 218 255
-0.73147321 -0.31027219 1.7900001 183 186 190 255
-0.72253931 -0.30853996 1.7800001 216 220 222 255
-0.71446776 -0.30715507 1.7720001 220 225 222 255
-0.70564008 -0.30542406 1.7620001 206 211 207 255
-0.69806159 -0.30421373 1.7550001 199 207 200 255
-0.69091731 -0.30317721 1.7490001 195 203 196 255
-0.68537617 -0.30283466 1.7470001 191 199 192 255
-0.67906791 -0.30214599 1.743 186 194 187 255
-0.67433 -0.30215126 1.743 181 189 182 255
-0.66920894 -0.30198368 1.7420001 180 188 181 255
-0.66371292 -0.30164334 1.7400001 176 182 174 255
-0.65822864 -0.30130345 1.738 173 179 171 255
-0.65275615 -0.30096409 1.7360001 167 174 162 255
-0.6480419 -0.30097193 1.7360001 164 171 159 255
-0.64295799 -0.30080685 1.7350001 162 169 157 255
-0.63788015 -0.30064228 1.7340001 158 165 153 255
-0.63353878 -0.30082494 1.7350001 159 166 154 255
-0.62955511 -0.30118144 1.7370001 162 169 157 255
-0.62484169 -0.30119163 1.7370001 171 178 166 255
-0.62012881 -0.30120221 1.7370001 168 175 163 255
-0.6150623 -0.30103984 1.7360001 169 176 164 255
-0.60929835 -0.300531 1.733 178 185 173 255
-0.60355133 -0.30002257 1.7300001 182 189 177 255
-0.598167 -0.29968789 1.728 185 192 180 255
-0.59313732 -0.29952702 1.7270001 176 184 169 255
-0.58811349 -0.29936647 1.7260001 164 172 157 255
-0.58275735 -0.29903284 1.7240001 149 157 142 255
-0.57741237 -0.29869953 1.7220001 165 175 158 255
-0.57207829 -0.29836649 1.72 171 179 162 255
-0.56741506 -0.29838073 1.72 159 167 150 255
-0.5630793 -0.29856879 1.7210001 158 166 149 255
-0.55873811 -0.29875714 1.7220001 167 175 158 255
-0.55342633 -0.29842532 1.72 154 162 145 255
-0.54812551 -0.29809374 1.7180001 147 155 138 255
-0.54315186 -0.29793596 1.7170001 143 151 134 255
-0.53787005 -0.29760486 1.715 161 169 152 255
-0.53322083 -0.2976211 1.715 176 184 167 255
-0.52795517 -0.29729047 1.7130001 174 182 165 255
-0.5233112 -0.29730719 1.7130001 144 150 133 255
-0.51836437 -0.29715055 1.7120001 142 150 133 255
-0.5137229 -0.29716769 1.7120001 146 154 137 255
-0.50937849 -0.2973586 1.7130001 158 166 149 255
-0.50414461 -0.29702899 1.7110001 165 174 155 255
-0.49921328 -0.29687312 1.71 151 160 141 255
-0.49399793 -0.29654378 1.7080001 163 171 154 255
-0.48965263 -0.2967355 1.7090001 170 179 160 255
-0.48473409 -0.29658011 1.7080001 165 174 155 255
-0.48010173 -0.29659852 1.7080001 164 172 155 255
-0.47574738 -0.29679072 1.7090001 162 171 152 255
-0.47083592 -0.29663578 1.7080001 174 182 165 255
-0.46620244 -0.29665458 1.7080001 148 156 139 255
-0.46102816 -0.29632616 1.7060001 170 178 161 255
-0.45639929 -0.29634517 1.7060001 154 162 145 255
-0.45150521 -0.29619062 1.705 153 161 144 255
-0.44687819 -0.2962099 1.705 146 154 137 255
-0.4417319 -0.29588172 1.7030001 151 159 142 255
-0.4365961 -0.29555362 1.7010001 151 160 141 255
-0.43147048 -0.29522553 1.6990001 144 153 134 255
-0.42710906 -0.29541877 1.7 150 156 138 255
-0.42274165 -0.29561213 1.7010001 145 151 133 255
-0.41787657 -0.29545793 1.7 137 144 123 255
-0.41325957 -0.2954776 1.7 141 146 125 255
-0.40888232 -0.29567111 1.7010001 141 145 127 255
-0.40449905 -0.29586464 1.702 139 144 123 255
-0.39963993 -0.29571056 1.7010001 143 148 127 255
-0.39501774 -0.29573029 1.7010001 131 137 119 255
-0.39039502 -0.29575008 1.7010001 132 138 120 255
-0.38531807 -0.29542205 1.6990001 140 149 130 255
-0.38025135 -0.29509392 1.697 163 172 153 255
-0.37541625 -0.29493973 1.6960001 155 165 150 255
-0.37036726 -0.29461151 1.6940001 164 174 159 255
-0.36554438 -0.29445714 1.6930001 157 167 150 255
-0.3609395 -0.29447666 1.6930001 134 144 127 255
-0.35633394 -0.29449612 1.6930001 170 181 162 255
-0.35193548 -0.29468951 1.6940001 131 139 122 255
-0.34712079 -0.29453489 1.6930001 129 137 120 255
-0.34231088 -0.29438016 1.692 159 167 152 255
-0.3375057 -0.29422534 1.6910001 160 167 155 255
-0.33290213 -0.29424441 1.6910001 168 175 163 255
-0.32790962 -0.29391542 1.6890001 139 146 134 255
-0.32331008 -0.29393426 1.6890001 149 156 144 255
-0.31870988 -0.29395303 1.6890001 144 151 139 255
-0.31410891 -0.29397169 1.6890001 188 195 183 255
-0.30914071 -0.29364207 1.687 153 160 149 255
-0.3041828 -0.29331234 1.6850001 142 149 138 255
-0.29923505 -0.29298243 1.6830001 161 168 156 255
-0.29447252 -0.29282641 1.682 169 176 164 255
-0.28971475 -0.29267022 1.6810001 139 148 137 255
-0.28530097 -0.29286209 1.682 150 159 147 255
-0.28088105 -0.29305384 1.6830001 144 154 139 255
-0.27645496 -0.29324543 1.6840001 133 143 128 255
-0.27137694 -0.29274035 1.6810001 140 148 133 255
-0.26647329 -0.29240912 1.6790001 156 164 149 255
-0.26142392 -0.29190356 1.6760001 162 169 157 255
-0.25700319 -0.29209441 1.677 173 181 166 255
-0.25227529 -0.29193676 1.6760001 130 138 123 255
-0.24799554 -0.29230148 1.6780001 129 139 124 255
-0.24312395 -0.29196918 1.6760001 168 178 163 255
-0.23868957 -0.29215929 1.677 134 144 129 255
-0.23383027 -0.29182658 1.6750001 153 163 148 255
-0.22925501 -0.29184204 1.6750001 154 163 151 255
-0.2244108 -0.29150882 1.6730001 150 157 145 255
-0.21983965 -0.29152378 1.6730001 142 150 135 255
-0.2151392 -0.29136431 1.6720001 181 189 172 255
-0.21044359 -0.29120457 1.6710001 154 160 142 255
-0.20562959 -0.29087031 1.669 108 114 96 255
-0.20094642 -0.29071006 1.6680001 131 140 121 255
-0.19650356 -0.29089811 1.669 156 162 144 255
-0.19193965 -0.29091164 1.669 152 161 142 255
-0.1873751 -0.29092488 1.669 147 155 138 255
-0.18259096 -0.29058927 1.6670001 135 143 126 255
-0.17792396 -0.29042765 1.6660001 166 172 155 255
-0.17336594 -0.29044011 1.6660001 159 165 147 255
-0.16880736 -0.2904523 1.6660001 160 166 148 255
-0.16405107 -0.29011551 1.664 162 168 150 255
-0.15930519 -0.28977838 1.6620001 159 165 147 255
-0.15475598 -0.28978965 1.6620001 154 160 142 255
-0.15020627 -0.28980067 1.6620001 157 166 147 255
-0.14565605 -0.2898114 1.6620001 165 174 155 255
-0.14102046 -0.28964743 1.6610001 158 164 146 255
-0.13647203 -0.28965756 1.6610001 163 169 151 255
-0.13184375 -0.28949302 1.6600001 151 157 139 255
-0.12722047 -0.2893281 1.659 166 172 154 255
-0.12260228 -0.2891629 1.6580001 158 164 146 255
-0.11827395 -0.28969505 1.6610001 181 183 166 255
-0.11386032 -0.29005244 1.6630001 9 6 0 255
-0.10950106 -0.290584 1.6660001 52 41 26 255
-0.10493603 -0.29059196 1.6660001 68 53 38 255
-0.10031039 -0.29042518 1.6650001 77 57 41 255
-0.095747389 -0.29043251 1.6650001 90 63 48 255
-0.091129296 -0.29026505 1.664 96 69 54 255
-0.086516365 -0.29009733 1.6630001 96 69 54 255
-0.081859328 -0.28975475 1.6610001 101 74 59 255
-0.077119887 -0.28906298 1.6570001 104 77 62 255
-0.072533511 -0.28889418 1.6560001 105 78 63 255
-0.06791129 -0.28855059 1.654 90 63 48 255
-0.063338123 -0.28838107 1.6530001 96 69 54 255
-0.05866348 -0.28768787 1.649 93 69 53 255
-0.054174732 -0.28786659 1.6500001 94 70 54 255
-0.049620129 -0.28769612 1.649 91 68 56 255
-0.045152877 -0.28804862 1.651 93 70 58 255
-0.040600676 -0.28787741 1.6500001 97 72 58 255
-0.036119405 -0.28822932 1.6520001 85 60 46 255
-0.031703524 -0.28927872 1.6580001 80 55 41 255
-0.027221857 -0.28997889 1.6620001 85 61 45 255
-0.022677243 -0.29015529 1.6630001 85 61 45 255
-0.018105274 -0.28998235 1.6620001 75 53 37 255
-0.013555028 -0.29015803 1.6630001 67 45 29 255
-0.0089992462 -0.29033336 1.664 65 43 27 255
-0.004440614 -0.29068288 1.6660001 71 49 33 255
0.0001289283 -0.29085752 1.6670001 69 47 31 255
0.0047067762 -0.2912063 1.669 77 56 42 255
0.0093178293 -0.2922526 1.6750001 74 54 38 255
0.014003293 -0.29417104 1.6860001 79 59 43 255
0.018815333 -0.29713586 1.7030001 75 57 42 255
0.023637809 -0.29905349 1.7140001 84 67 55 255
0.028718943 -0.30306444 1.7370001 85 71 62 255
0.034022518 -0.30794737 1.7650001 77 69 62 255
0.12111664 -0.30784228 1.7650001 115 119 119 255
0.12623756 -0.30853078 1.7690001 71 75 75 255
0.13108355 -0.30852127 1.7690001 77 81 81 255
0.13600595 -0.30868587 1.7700001 77 82 79 255
0.14077419 -0.3085013 1.7690001 78 83 80 255
0.1455365 -0.30831644 1.7680001 75 80 77 255
0.15054803 -0.30865443 1.7700001 74 79 76 255
0.15565775 -0.3091664 1.7730001 77 82 79 255
0.16105501 -0.31020114 1.779 76 81 77 255
0.16611153 -0.31053808 1.7810001 79 82 78 255
0.17098643 -0.31052592 1.7810001 76 79 75 255
0.17576203 -0.31033915 1.7800001 72 75 71 255
0.18043014 -0.30997774 1.7780001 76 79 75 255
0.18508671 -0.30961612 1.7760001 77 80 77 255
0.18951786 -0.30890551 1.7720001 75 80 77 255
0.19403619 -0.30836901 1.7690001 72 77 74 255
0.19876237 -0.3081809 1.7680001 73 78 75 255
0.20348245 -0.30799255 1.7670001 74 78 78 255
0.20784274 -0.30728102 1.7630001 80 85 82 255
0.21205993 -0.30639502 1.7580001 84 89 86 255
0.21637246 -0.30568311 1.7540001 81 88 85 255
0.22116686 -0.30566812 1.7540001 81 88 84 255
0.22608945 -0.30582711 1.7550001 84 91 87 255
0.23062213 -0.30546311 1.7530001 81 86 82 255
0.23554613 -0.30562159 1.7540001 79 84 80 255
0.24033786 -0.30560562 1.7540001 80 85 81 255
0.24540839 -0.30593786 1.756 65 68 64 255
0.25034666 -0.3060956 1.7570001 71 74 70 255
0.25514454 -0.30607891 1.7570001 53 56 52 255
0.26008961 -0.30623624 1.7580001 69 73 66 255
0.26413539 -0.30534816 1.7530001 80 84 77 255
0.26861334 -0.30498251 1.751 50 56 49 255
0.27307963 -0.30461669 1.7490001 57 63 56 255
0.27785212 -0.30459911 1.7490001 72 78 71 255
0.28230059 -0.30423298 1.7470001 79 84 80 255
0.28690177 -0.30404088 1.7460001 79 84 80 255
0.29166383 -0.30402273 1.7460001 78 83 79 255
0.29625541 -0.30383033 1.7450001 79 82 78 255
0.30101326 -0.30381191 1.7450001 78 81 77 255
0.30612084 -0.30414146 1.7470001 80 83 80 255
0.31123853 -0.30447084 1.7490001 79 82 78 255
0.31618583 -0.30462599 1.7500001 80 83 79 255
0.32077095 -0.30443287 1.7490001 77 82 78 255
0.32572216 -0.30458772 1.7500001 78 83 79 255
0.33011147 -0.30422023 1.748 79 84 80 255
0.33487236 -0.30420083 1.748 78 83 79 255
0.33904964 -0.30365926 1.7450001 80 85 82 255
0.34380093 -0.30363965 1.7450001 79 84 80 255
0.34855142 -0.30361995 1.7450001 81 86 82 255
0.35350367 -0.30377415 1.7460001 79 84 80 255
0.35825551 -0.30375427 1.7460001 77 82 78 255
0.36321455 -0.30390829 1.7470001 77 82 78 255
0.36796764 -0.30388826 1.7470001 80 83 79 255
0.37293339 -0.3040421 1.748 82 85 82 255
0.37768784 -0.30402195 1.748 80 83 80 255
0.38222277 -0.30382782 1.7470001 76 81 77 255
0.38653016 -0.30345985 1.7450001 75 80 76 255
0.39127439 -0.30343962 1.7450001 78 83 80 255
0.39624491 -0.30359325 1.7460001 77 82 79 255
0.40144986 -0.30392069 1.748 78 83 79 255
0.40596792 -0.30372655 1.7470001 76 81 78 255
0.41047993 -0.30353245 1.7460001 72 77 73 255
0.41569927 -0.30385983 1.748 80 83 79 255
0.42140999 -0.30453485 1.7520001 77 82 78 255
0.42689857 -0.30503604 1.7550001 73 78 75 255
0.43191093 -0.30518955 1.756 75 80 77 255
0.43667942 -0.30516925 1.756 74 79 75 255
0.44119602 -0.3049753 1.7550001 71 76 72 255
0.44621482 -0.30512893 1.756 73 78 74 255
0.45149541 -0.30545643 1.7580001 74 77 73 255
0.45652673 -0.30561012 1.7590001 71 74 70 255
0.4613007 -0.30559018 1.7590001 70 73 69 255
0.46554437 -0.3052229 1.7570001 72 75 71 255
0.47004426 -0.30502945 1.756 76 77 73 255
0.47480872 -0.30500987 1.756 70 73 69 255
0.47984597 -0.3051641 1.7570001 65 68 64 255
0.48433647 -0.30497107 1.756 65 68 64 255
0.48882124 -0.30477819 1.7550001 63 68 65 255
0.49301895 -0.3044118 1.7530001 70 77 76 255
0.49748936 -0.30421931 1.7520001 79 85 87 255
0.50166744 -0.30385333 1.7500001 86 92 95 255
0.50525546 -0.30314031 1.7460001 90 95 101 255
0.5085296 -0.30225399 1.7410001 91 97 100 255
0.51236594 -0.30171517 1.738 88 94 97 255
0.51707822 -0.30169734 1.738 84 88 90 255
0.5223909 -0.3020269 1.7400001 79 83 83 255
0.52710831 -0.30200949 1.7400001 67 70 67 255
0.53090864 -0.30147165 1.7370001 69 71 71 255
0.53500092 -0.30110765 1.7350001 69 73 73 255
0.53846014 -0.30039683 1.7310001 79 83 85 255
0.54189759 -0.29968634 1.7270001 84 90 92 255
0.54657936 -0.29967028 1.7270001 82 86 86 255
0.55413377 -0.3012161 1.7360001 78 82 82 255
0.56141531 -0.30258855 1.7440001 78 81 77 255
0.5664677 -0.30274665 1.7450001 30 34 27 255
0.56923437 -0.30169067 1.7390001 41 45 38 255
0.5726288 -0.30098209 1.7350001 57 61 54 255
0.57666713 -0.30062079 1.733 66 69 65 255
0.58069479 -0.30025989 1.7310001 72 75 72 255
0.58437365 -0.29972589 1.728 72 74 74 255
0.58837742 -0.29936573 1.7260001 70 74 74 255
0.59202707 -0.29883254 1.723 74 78 78 255
0.59566075 -0.29829973 1.72 85 89 89 255
0.5999766 -0.29811424 1.7190001 78 85 84 255
0.60393572 -0.29775572 1.7170001 66 73 72 255
0.60859329 -0.29774442 1.7170001 76 83 80 255
0.61289418 -0.29756016 1.7160001 88 91 87 255
0.61754996 -0.29754966 1.7160001 86 90 83 255
0.62220645 -0.29753962 1.7160001 28 29 23 255
0.62649822 -0.29735667 1.715 21 23 15 255
0.62894517 -0.2963073 1.7090001 24 27 15 255
0.6321016 -0.29560512 1.705 40 43 29 255
0.63411665 -0.29438338 1.6980001 41 44 30 255
0.63759929 -0.29385564 1.6950001 22 25 13 255
0.64182419 -0.29367515 1.6940001 24 26 16 255
0.64680761 -0.29384187 1.6950001 27 29 19 255
0.64910728 -0.2927956 1.6890001 26 28 18 255
0.65137523 -0.29174989 1.6830001 28 30 20 255
0.65633988 -0.29191822 1.6840001 22 24 14 255
0.66052616 -0.29174036 1.6830001 23 26 14 255
0.65996557 -0.28948289 1.6700001 24 27 15 255
0.66013139 -0.28757274 1.659 31 34 22 255
0.66184115 -0.2863566 1.6520001 27 30 16 255
0.66674089 -0.28652772 1.6530001 24 27 13 255
0.66921079 -0.2856594 1.6480001 23 26 12 255
0.67165476 -0.28479168 1.6430001 23 26 12 255
0.67448455 -0.28409788 1.6390001 25 28 14 255
0.66632289 -0.27699202 1.598 27 32 21 255
0.6690017 -0.27630007 1.5940001 25 30 19 255
0.67419487 -0.27664876 1.5960001 26 30 22 255
0.67812496 -0.27647808 1.595 28 33 22 255
0.67349374 -0.27284119 1.5740001 26 31 19 255
0.68683535 -0.27648532 1.595 26 31 19 255
0.69682676 -0.27874348 1.608 31 36 24 255
0.70296633 -0.27944222 1.6120001 31 36 24 255
0.70737451 -0.2794483 1.6120001 29 36 25 255
0.71399242 -0.2803219 1.6170001 18 26 18 255
0.71708536 -0.27980933 1.6140001 32 41 36 255
0.72016406 -0.27929744 1.6110001 137 147 146 255
0.72322857 -0.27878633 1.608 149 158 161 255
0.72718388 -0.27862266 1.6070001 167 176 181 255
0.7293151 -0.27776623 1.6020001 172 180 187 255
0.73004723 -0.27639031 1.5940001 177 183 190 255
0.73073786 -0.27501509 1.5860001 178 184 191 255
0.73231411 -0.27398732 1.58 180 186 193 255
0.73339355 -0.27278683 1.5730001 182 188 195 255
0.73443729 -0.2715871 1.5660001 184 190 197 255
0.73402989 -0.26986769 1.5560001 184 190 197 255
0.73499364 -0.26866928 1.549 185 191 198 255
0.73496717 -0.26712465 1.5400001 185 190 196 255
0.7368139 -0.26627454 1.5350001 184 189 195 255
0.73718774 -0.26490474 1.5270001 185 190 196 255
0.73946261 -0.2642296 1.5230001 186 191 198 255
0.73927671 -0.26268762 1.5140001 187 191 201 255
0.74002647 -0.26149341 1.5070001 188 192 202 255
0.74123448 -0.2604734 1.501 188 192 202 255
1.0922277 -0.27568814 1.5600001 203 207 217 255
1.0842113 -0.2704455 1.5280001 205 209 220 255
1.1061424 -0.27483827 1.552 205 209 220 255
1.120366 -0.27728936 1.5650001 203 207 218 255
1.1246213 -0.27726379 1.5640001 205 209 220 255
-0.72984457 -0.31655869 1.7980001 168 171 175 255
-0.72172326 -0.31515172 1.7900001 209 213 213 255
-0.71084368 -0.31251299 1.7750001 226 230 230 255
-0.7020359 -0.31075513 1.7650001 195 200 196 255
-0.69328374 -0.30899784 1.7550001 201 207 200 255
-0.68733341 -0.30847359 1.7520001 196 204 197 255
-0.6814006 -0.3079499 1.7490001 186 194 187 255
-0.67703265 -0.30813107 1.7500001 189 197 190 255
-0.67150795 -0.30778456 1.748 185 191 183 255
-0.66637647 -0.30761468 1.7470001 182 188 180 255
-0.66049397 -0.30709314 1.7440001 175 184 173 255
-0.65500468 -0.30674821 1.7420001 170 179 167 255
-0.64915371 -0.30622762 1.7390001 168 175 163 255
-0.64443171 -0.30623585 1.7390001 167 174 162 255
-0.63860691 -0.30571625 1.7360001 161 168 156 255
-0.63389444 -0.3057254 1.7360001 160 165 151 255
-0.62918276 -0.30573502 1.7360001 159 164 150 255
-0.62519103 -0.30609733 1.738 161 166 152 255
-0.62047499 -0.30610785 1.738 157 162 148 255
-0.61540538 -0.30594271 1.7370001 158 163 149 255
-0.60998994 -0.30560178 1.7350001 161 167 150 255
-0.60493481 -0.30543739 1.7340001 157 163 146 255
-0.60023153 -0.30544955 1.7340001 163 169 152 255
-0.59587222 -0.30563828 1.7350001 161 167 149 255
-0.59082627 -0.30547506 1.7340001 173 181 164 255
-0.58511007 -0.3049598 1.7310001 179 187 170 255
-0.57941043 -0.30444491 1.728 177 185 168 255
-0.57372719 -0.30393025 1.725 169 177 162 255
-0.56905013 -0.30394456 1.725 163 171 156 255
-0.56404614 -0.30378294 1.7240001 151 159 142 255
-0.55937207 -0.30379784 1.7240001 161 169 152 255
-0.55373281 -0.30328435 1.7210001 170 176 159 255
-0.54874802 -0.30312359 1.72 164 170 153 255
-0.54345232 -0.30278686 1.7180001 157 165 148 255
-0.53879482 -0.30280289 1.7180001 147 155 138 255
-0.53413719 -0.30281916 1.7180001 143 151 134 255
-0.52886307 -0.30248317 1.7160001 150 158 143 255
-0.52359986 -0.30214736 1.7140001 171 179 162 255
-0.51865005 -0.30198807 1.7130001 168 176 159 255
-0.5140056 -0.30200523 1.7130001 143 149 131 255
-0.5096584 -0.30219898 1.7140001 141 150 131 255
-0.50412691 -0.30168763 1.7110001 148 157 138 255
-0.4991954 -0.30152911 1.71 166 175 156 255
-0.4936907 -0.30101809 1.7070001 152 161 142 255
-0.48934793 -0.30121258 1.7080001 152 161 142 255
-0.48443195 -0.30105454 1.7070001 170 179 160 255
-0.4800832 -0.30124938 1.7080001 163 172 153 255
-0.47545031 -0.30126798 1.7080001 159 168 149 255
-0.47054145 -0.30111039 1.7070001 172 180 163 255
-0.46563762 -0.30095288 1.7060001 167 175 158 255
-0.4601984 -0.30044267 1.7030001 164 172 155 255
-0.45557755 -0.30046174 1.7030001 160 169 150 255
-0.45069155 -0.30030453 1.702 152 161 142 255
-0.4458105 -0.30014738 1.7010001 158 167 148 255
-0.44119376 -0.30016682 1.7010001 156 165 146 255
-0.43631992 -0.30000979 1.7 143 152 133 255
-0.43145099 -0.29985285 1.6990001 143 152 133 255
-0.42683822 -0.29987249 1.6990001 145 151 133 255
-0.42222497 -0.29989213 1.6990001 139 146 125 255
-0.41761112 -0.29991183 1.6990001 134 141 120 255
-0.41299677 -0.29993162 1.6990001 145 150 129 255
-0.40862218 -0.30012795 1.7 144 149 128 255
-0.40376636 -0.29997122 1.6990001 145 150 129 255
-0.39915025 -0.29999104 1.6990001 153 158 137 255
-0.3947657 -0.3001875 1.7 131 137 119 255
-0.38991618 -0.30003074 1.6990001 131 137 119 255
-0.38484472 -0.2996974 1.697 144 152 135 255
-0.37978348 -0.29936397 1.6950001 165 173 156 255
-0.37517518 -0.29938379 1.6950001 153 163 146 255
-0.37034759 -0.29922688 1.6940001 174 184 167 255
-0.36552477 -0.29906994 1.6930001 134 145 126 255
-0.36070675 -0.29891288 1.692 126 137 118 255
-0.35610396 -0.29893249 1.692 178 187 168 255
-0.35129282 -0.29877537 1.6910001 129 137 122 255
-0.34669137 -0.29879484 1.6910001 147 155 140 255
-0.34188697 -0.29863748 1.6900001 155 162 150 255
-0.33708736 -0.29848009 1.6890001 166 173 161 255
-0.33229247 -0.29832253 1.6880001 160 167 155 255
-0.32769644 -0.29834163 1.6880001 129 136 124 255
-0.32309976 -0.29836065 1.6880001 149 154 142 255
-0.31831369 -0.29820278 1.687 156 161 149 255
-0.31353235 -0.2980448 1.6860001 182 187 173 255
-0.30875573 -0.29788664 1.6850001 150 155 143 255
-0.30380338 -0.29755154 1.6830001 139 146 134 255
-0.29903901 -0.29739308 1.682 156 164 149 255
-0.29392928 -0.2968809 1.6790001 171 179 164 255
-0.28969684 -0.29725257 1.6810001 135 144 132 255
-0.2851136 -0.29727051 1.6810001 152 162 147 255
-0.2808634 -0.29764193 1.6830001 152 160 145 255
-0.27610919 -0.29748267 1.682 142 150 135 255
-0.27135968 -0.29732326 1.6810001 139 147 132 255
-0.26645625 -0.29698676 1.6790001 148 156 141 255
-0.26140705 -0.29647309 1.6760001 163 171 154 255
-0.25683329 -0.29648995 1.6760001 168 177 158 255
-0.25210828 -0.29632965 1.6750001 130 139 120 255
-0.24753588 -0.2963461 1.6750001 134 142 125 255
-0.24296281 -0.29636234 1.6750001 165 174 155 255
-0.23838906 -0.29637837 1.6750001 158 166 151 255
-0.23381463 -0.29639417 1.6750001 154 162 147 255
-0.22910272 -0.29623282 1.674 158 166 151 255
-0.22439562 -0.29607123 1.6730001 164 172 157 255
-0.2195619 -0.29573241 1.6710001 150 158 143 255
-0.21486717 -0.29557028 1.6700001 167 175 158 255
-0.21030317 -0.29558495 1.6700001 137 143 125 255
-0.2056154 -0.29542235 1.669 117 124 103 255
-0.20105293 -0.29543647 1.669 134 141 120 255
-0.19648986 -0.29545036 1.669 140 146 128 255
-0.19181119 -0.29528698 1.6680001 146 152 134 255
-0.18713741 -0.29512331 1.6670001 150 156 138 255
-0.182359 -0.29478231 1.6650001 158 164 147 255
-0.17780453 -0.29479513 1.6650001 167 173 156 255
-0.17324953 -0.29480767 1.6650001 159 165 147 255
-0.16879527 -0.29499701 1.6660001 159 165 147 255
-0.16403925 -0.29465485 1.664 159 165 147 255
-0.15938956 -0.2944895 1.6630001 163 169 151 255
-0.15474477 -0.2943238 1.6620001 162 168 150 255
-0.15028572 -0.294512 1.6630001 151 157 139 255
-0.14573307 -0.29452282 1.6630001 166 172 154 255
-0.14109504 -0.29435626 1.6620001 165 171 153 255
-0.13654418 -0.29436648 1.6620001 161 167 149 255
-0.13183405 -0.29402214 1.6600001 156 160 142 255
-0.12721108 -0.29385459 1.659 156 162 144 255
-0.12266713 -0.29386389 1.659 153 159 141 255
-0.11819395 -0.29405001 1.6600001 173 175 158 255
-0.11385183 -0.29459009 1.6630001 7 5 0 255
-0.10942715 -0.29495272 1.6650001 48 40 24 255
-0.10499116 -0.29531509 1.6670001 70 56 39 255
-0.10042335 -0.29532281 1.6670001 72 54 38 255
-0.095912702 -0.2955074 1.6680001 89 62 47 255
-0.091286711 -0.29533726 1.6670001 91 64 49 255
-0.086613864 -0.29498971 1.6650001 94 67 53 255
-0.081951693 -0.29464173 1.6630001 100 73 59 255
-0.077300191 -0.29429346 1.6610001 97 73 57 255
-0.072746985 -0.29429916 1.6610001 86 62 46 255
-0.068070352 -0.293773 1.6580001 96 72 56 255
-0.063524872 -0.293778 1.6580001 94 70 54 255
-0.058836866 -0.29307392 1.654 91 69 53 255
-0.054236259 -0.29272389 1.6520001 86 63 49 255
-0.049706604 -0.29272789 1.6520001 86 63 51 255
-0.045231458 -0.2930859 1.654 87 63 54 255
-0.04069598 -0.29308921 1.654 89 64 50 255
-0.036225948 -0.29362378 1.6570001 87 62 48 255
-0.031796694 -0.29468963 1.6630001 83 59 43 255
-0.02728528 -0.29522353 1.6660001 80 56 40 255
-0.022702772 -0.29504824 1.6650001 75 51 35 255
-0.018114777 -0.29469541 1.6630001 77 54 40 255
-0.013570287 -0.29505104 1.6650001 80 57 43 255
-0.0090093724 -0.29522914 1.6660001 80 57 43 255
-0.0044482681 -0.29576123 1.669 83 60 46 255
0.00012899573 -0.2955842 1.6680001 83 61 45 255
0.0047092345 -0.29593846 1.6700001 78 57 43 255
0.0093393624 -0.2975328 1.6790001 77 56 42 255
0.01406035 -0.3000128 1.6930001 74 58 43 255
0.018880174 -0.30284688 1.7090001 77 61 51 255
0.023663575 -0.30408564 1.7160001 66 52 43 255
0.13653375 -0.31475508 1.7770001 76 79 83 255
0.14100254 -0.31385916 1.7720001 67 73 75 255
0.14569043 -0.31349435 1.7700001 65 71 73 255
0.15079215 -0.31401482 1.7730001 73 77 79 255
0.15590978 -0.31453487 1.7760001 79 83 83 255
0.16122438 -0.3154088 1.7810001 74 78 78 255
0.16628602 -0.31575105 1.7830001 78 81 78 255
0.17135809 -0.31609294 1.7850001 76 79 75 255
0.17634182 -0.31625745 1.7860001 72 75 71 255
0.18102606 -0.31589043 1.784 74 77 74 255
0.18559457 -0.31534609 1.7810001 75 79 79 255
0.19003911 -0.31462443 1.7770001 73 77 77 255
0.1944612 -0.31390259 1.7730001 74 78 78 255
0.19919802 -0.31371155 1.7720001 74 78 78 255
0.20392877 -0.31352031 1.771 76 80 80 255
0.20853554 -0.31315178 1.7690001 82 86 86 255
0.21301013 -0.31260598 1.766 84 89 86 255
0.21759103 -0.31223702 1.7640001 84 89 86 255
0.22228645 -0.3120448 1.7630001 86 91 88 255
0.22684689 -0.31167537 1.761 85 90 86 255
0.2312642 -0.31112874 1.7580001 80 85 81 255
0.23593304 -0.31093583 1.7570001 81 86 82 255
0.24086975 -0.31109667 1.7580001 77 82 78 255
0.24609068 -0.31161109 1.761 69 72 68 255
0.2510424 -0.31177142 1.7620001 64 67 63 255
0.25585371 -0.31175452 1.7620001 47 51 44 255
0.26022047 -0.31120667 1.7590001 64 68 61 255
0.26411811 -0.31012791 1.7530001 76 82 75 255
0.26844251 -0.30957979 1.7500001 55 61 54 255
0.27306205 -0.3093853 1.7490001 69 75 68 255
0.27815199 -0.30972126 1.751 80 85 81 255
0.28309056 -0.3098802 1.7520001 81 86 82 255
0.28770521 -0.30968517 1.751 79 84 80 255
0.29248074 -0.30966681 1.751 77 82 78 255
0.29691598 -0.30929464 1.7490001 82 85 81 255
0.30168462 -0.30927601 1.7490001 80 83 79 255
0.30645248 -0.30925721 1.7490001 82 85 81 255
0.31175345 -0.30976868 1.7520001 79 84 80 255
0.31652808 -0.30974957 1.7520001 75 80 76 255
0.32130191 -0.30973029 1.7520001 77 82 78 255
0.32626116 -0.30988771 1.7530001 78 83 79 255
0.33084741 -0.30969143 1.7520001 80 85 81 255
0.33542749 -0.30949503 1.751 76 81 77 255
0.33980718 -0.30912182 1.7490001 78 83 79 255
0.34456921 -0.30910206 1.7490001 77 82 79 255
0.34953028 -0.30925888 1.7500001 82 85 81 255
0.35429361 -0.30923888 1.7500001 80 83 79 255
0.35926139 -0.30939549 1.751 79 84 80 255
0.36402601 -0.30937532 1.751 78 83 79 255
0.36921123 -0.30970848 1.7530001 80 83 79 255
0.37376654 -0.30951151 1.7520001 79 84 80 255
0.37874794 -0.30966786 1.7530001 76 81 77 255
0.38264009 -0.30894089 1.7490001 76 81 77 255
0.38673136 -0.30839062 1.7460001 78 83 79 255
0.39080566 -0.30784041 1.743 78 83 80 255
0.39577067 -0.30799663 1.7440001 79 84 81 255
0.40074059 -0.30815285 1.7450001 80 85 81 255
0.40548286 -0.30813247 1.7450001 75 80 76 255
0.40998942 -0.30793551 1.7440001 76 81 77 255
0.41544113 -0.30844483 1.7470001 79 82 78 255
0.4209086 -0.30895406 1.7500001 78 81 77 255
0.42663494 -0.30963981 1.7540001 77 82 79 255
0.43189058 -0.30997247 1.756 75 80 77 255
0.43665913 -0.30995211 1.756 70 75 71 255
