ply
format ascii 1.0
comment PCL generated
element vertex 965
property float x
property float y
property float z
property uchar red
property uchar green
property uchar blue
property uchar alpha
element camera 0
property float view_px
property float view_py
property float view_pz
property float x_axisx
property float x_axisy
property float x_axisz
property float y_axisx
property float y_axisy
property float y_axisz
property float z_axisx
property float z_axisy
property float z_axisz
property float focal
property float scalex
property float scaley
property float centerx
property float centery
property int viewportx
property int viewporty
property float k1
property float k2
end_header
-0.520266 -0.16478352 1.8490001 130 135 104 255
-0.51553279 -0.16488566 1.8500001 170 177 146 255
-0.51079351 -0.16498785 1.8510001 169 176 145 255
-0.5060482 -0.16509011 1.8520001 114 121 89 255
-0.50048524 -0.16492501 1.8500001 147 152 120 255
-0.49493241 -0.16475989 1.848 140 146 111 255
-0.48992008 -0.16477315 1.848 163 167 131 255
-0.48490691 -0.16478641 1.848 138 142 107 255
-0.48015276 -0.1648889 1.8490001 144 150 114 255
-0.47513545 -0.16490224 1.8490001 132 138 103 255
-0.47037166 -0.1650048 1.8500001 138 143 111 255
-0.46535009 -0.16501819 1.8500001 153 158 126 255
-0.46057659 -0.16512078 1.8510001 137 143 108 255
-0.45530462 -0.16504499 1.8500001 132 138 103 255
-0.45003727 -0.16496918 1.8490001 136 142 107 255
-0.44501525 -0.16498257 1.8490001 135 141 105 255
-0.44023034 -0.16508521 1.8500001 151 157 121 255
-0.43520385 -0.16509859 1.8500001 134 138 100 255
-0.42994398 -0.16502272 1.8490001 126 130 92 255
-0.4249185 -0.16503607 1.8490001 128 133 93 255
-0.4198921 -0.16504937 1.8490001 155 160 120 255
-0.41531363 -0.16524123 1.8510001 134 138 100 255
-0.41072333 -0.16543305 1.853 149 153 115 255
-0.40590233 -0.16553558 1.8540001 138 143 103 255
-0.40085879 -0.1655488 1.8540001 136 139 99 255
-0.39602777 -0.16565128 1.8550001 135 139 101 255
-0.39119041 -0.16575371 1.8560001 116 120 82 255
-0.3863467 -0.16585612 1.8570001 132 137 97 255
-0.38149658 -0.16595846 1.858 137 142 102 255
-0.37643746 -0.16597143 1.858 124 129 89 255
-0.37157729 -0.16607368 1.8590001 134 142 99 255
-0.36671072 -0.16617586 1.8600001 107 115 72 255
-0.36203218 -0.16636732 1.8620001 173 181 136 255
-0.35695833 -0.16638002 1.8620001 130 138 93 255
-0.35150564 -0.16621393 1.8600001 123 131 86 255
-0.34606284 -0.16604771 1.858 112 120 75 255
-0.3404465 -0.165792 1.8550001 116 124 79 255
-0.33484554 -0.16553617 1.8520001 118 126 83 255
-0.32943812 -0.16536959 1.8500001 122 129 90 255
-0.32386523 -0.16511346 1.8470001 107 113 77 255
-0.31830785 -0.16485719 1.8440001 74 79 48 255
-0.31276584 -0.16460079 1.8410001 62 65 41 255
-0.30723932 -0.16434424 1.8380001 75 77 57 255
-0.30205709 -0.16426636 1.8370001 70 74 56 255
-0.29671773 -0.16409895 1.835 70 74 56 255
-0.29122937 -0.16384195 1.8320001 106 110 92 255
-0.057765923 -0.1573689 1.756 190 185 179 255
-0.053092342 -0.15781949 1.761 193 188 181 255
-0.048308868 -0.15800104 1.7630001 188 183 176 255
-0.04341558 -0.15782385 1.761 129 124 114 255
-0.038533106 -0.15764646 1.7590001 62 54 45 255
-0.033642307 -0.15737922 1.756 66 54 45 255
-0.028767854 -0.15711179 1.7530001 67 51 41 255
-0.023841452 -0.15639597 1.7450001 77 60 48 255
-0.019002575 -0.15603845 1.7410001 83 62 50 255
-0.014193771 -0.1557703 1.738 95 70 56 255
-0.0094176531 -0.15577084 1.738 121 98 86 255
-0.0046414961 -0.15577115 1.738 154 124 115 255
0.70252568 -0.16019438 1.802 159 165 158 255
0.69210172 -0.15672168 1.7630001 162 166 159 255
0.68383873 -0.15378287 1.7300001 11 15 7 255
0.68057168 -0.1520001 1.71 29 34 23 255
0.68601263 -0.15217321 1.7120001 36 41 30 255
0.6801697 -0.14985786 1.6860001 34 36 26 255
0.67378736 -0.14647269 1.6480001 31 34 20 255
0.68814051 -0.14860238 1.6720001 30 33 19 255
0.69143957 -0.14833266 1.669 32 36 19 255
0.69889361 -0.14895199 1.6760001 33 37 20 255
0.71184343 -0.15072696 1.6960001 36 40 23 255
0.71434242 -0.15028042 1.6910001 38 41 27 255
0.70916271 -0.14823458 1.6680001 33 38 26 255
0.71284497 -0.14805536 1.6660001 31 36 24 255
0.71824008 -0.14823194 1.6680001 35 40 29 255
0.72321445 -0.14831999 1.669 33 40 29 255
0.72383559 -0.14751972 1.6600001 46 55 44 255
0.72528684 -0.14689755 1.6530001 92 100 92 255
0.72581875 -0.146098 1.6440001 122 130 123 255
0.72941303 -0.1459209 1.6420001 149 157 150 255
0.73299825 -0.14574414 1.6400001 165 172 168 255
0.73567516 -0.14539003 1.636 177 184 180 255
0.73742747 -0.14485855 1.6300001 180 187 184 255
0.73869389 -0.14423858 1.623 183 190 187 255
0.74129778 -0.14388557 1.6190001 186 193 192 255
0.74157906 -0.14308859 1.6100001 185 192 191 255
0.74273992 -0.1424697 1.603 187 191 191 255
0.7410683 -0.14131793 1.59 189 193 193 255
0.74120337 -0.14052203 1.5810001 192 197 194 255
0.74176294 -0.13981538 1.5730001 192 197 194 255
0.74228108 -0.13910908 1.5650001 194 199 196 255
0.74371207 -0.13858093 1.559 192 199 198 255
0.74367326 -0.13778649 1.5500001 194 201 200 255
0.74310529 -0.13690352 1.5400001 196 203 202 255
0.73957324 -0.13548747 1.524 196 203 202 255
0.7369321 -0.13424952 1.5100001 196 202 204 255
-0.73695409 -0.17206231 1.8780001 221 225 218 255
-0.72679543 -0.17087737 1.8650001 238 242 235 255
-0.71786904 -0.1699675 1.8550001 235 240 228 255
-0.70976639 -0.16924113 1.8470001 208 216 201 255
-0.70285249 -0.16878988 1.8420001 205 213 196 255
-0.69672412 -0.16852212 1.8390001 185 191 173 255
-0.69098896 -0.16834627 1.8370001 184 190 172 255
-0.68563855 -0.1682623 1.8360001 188 194 176 255
-0.67881131 -0.16781197 1.8310001 189 196 175 255
-0.67311579 -0.16763684 1.8290001 196 203 182 255
-0.66706616 -0.16737024 1.8260001 191 198 176 255
-0.66284633 -0.1675622 1.8280001 189 196 174 255
-0.65753639 -0.16747938 1.8270001 191 197 172 255
-0.65294653 -0.16758014 1.8280001 193 201 176 255
-0.64764261 -0.16749777 1.8270001 192 200 174 255
-0.64304787 -0.16759895 1.8280001 171 177 151 255
-0.63844806 -0.16770038 1.8290001 159 166 137 255
-0.63384295 -0.16780199 1.83 149 154 123 255
-0.62923253 -0.16790381 1.8310001 137 142 111 255
-0.62461692 -0.16800587 1.8320001 133 138 106 255
-0.6210106 -0.16838323 1.8360001 114 120 85 255
-0.6163761 -0.16848569 1.8370001 131 137 101 255
-0.61240178 -0.16877174 1.84 159 165 129 255
-0.6074208 -0.16878283 1.84 150 156 120 255
-0.60309464 -0.16897756 1.8420001 144 148 112 255
-0.59843278 -0.16908072 1.8430001 143 147 111 255
-0.59312141 -0.16900055 1.8420001 149 154 122 255
-0.58749592 -0.16882876 1.84 147 152 121 255
-0.58219779 -0.16874887 1.8390001 155 158 127 255
-0.57784635 -0.16894439 1.8410001 152 155 124 255
-0.57348377 -0.16914004 1.8430001 153 156 125 255
-0.56911004 -0.16933586 1.845 150 153 121 255
-0.56411374 -0.16934825 1.845 150 154 119 255
-0.55942005 -0.16945256 1.8460001 148 152 117 255
-0.55442029 -0.16946518 1.8460001 147 150 118 255
-0.55001533 -0.16966154 1.848 143 148 117 255
-0.54500926 -0.16967438 1.848 137 142 111 255
-0.54000276 -0.16968732 1.848 139 144 113 255
-0.53470618 -0.1696085 1.8470001 140 145 114 255
-0.52998817 -0.16971345 1.848 145 150 119 255
-0.52441192 -0.16954294 1.8460001 142 147 116 255
-0.51969004 -0.16964805 1.8470001 132 137 106 255
-0.5146836 -0.16966136 1.8470001 170 177 146 255
-0.51022828 -0.16985847 1.8490001 170 177 146 255
-0.50494194 -0.16978005 1.848 141 148 117 255
-0.49966034 -0.16970167 1.8470001 137 144 113 255
-0.49438342 -0.16962332 1.8460001 144 151 120 255
-0.48911133 -0.16954498 1.845 149 154 123 255
-0.4841063 -0.1695586 1.845 156 161 130 255
-0.47936022 -0.16966414 1.8460001 151 156 125 255
-0.47435105 -0.16967779 1.8460001 142 147 116 255
-0.4693411 -0.1696915 1.8460001 141 146 115 255
-0.46407884 -0.16961326 1.845 162 167 136 255
-0.45931891 -0.16971892 1.8460001 138 143 112 255
-0.45430666 -0.16973266 1.8460001 131 138 107 255
-0.44929355 -0.16974638 1.8460001 134 141 110 255
-0.44427964 -0.16976012 1.8460001 136 142 107 255
-0.43950289 -0.16986582 1.8470001 156 162 127 255
-0.43424934 -0.16978756 1.8460001 135 141 106 255
-0.42923287 -0.16980125 1.8460001 131 137 101 255
-0.42444539 -0.16990691 1.8470001 133 140 101 255
-0.41965157 -0.17001259 1.848 158 162 124 255
-0.41507584 -0.17021024 1.8500001 142 148 112 255
-0.41004497 -0.17022385 1.8500001 133 137 99 255
-0.40523216 -0.17032947 1.8510001 132 136 98 255
-0.40019679 -0.17034301 1.8510001 142 144 106 255
-0.3955875 -0.17054057 1.853 126 130 94 255
-0.39075559 -0.17064609 1.8540001 132 136 100 255
-0.38591734 -0.17075154 1.8550001 146 150 114 255
-0.38086748 -0.17076492 1.8550001 139 145 109 255
-0.37541139 -0.17059408 1.853 140 146 110 255
-0.37056488 -0.17069936 1.8540001 122 131 92 255
-0.36590913 -0.17089668 1.8560001 121 130 91 255
-0.36104715 -0.17100185 1.8570001 160 171 132 255
-0.35560367 -0.17083068 1.8550001 169 178 138 255
-0.3499811 -0.17056729 1.8520001 111 121 78 255
-0.34456021 -0.17039588 1.8500001 114 124 81 255
-0.33914933 -0.17022437 1.848 119 126 86 255
-0.33374834 -0.17005271 1.8460001 146 155 116 255
-0.32817933 -0.16978881 1.8430001 166 174 139 255
-0.3226257 -0.16952474 1.84 173 180 149 255
-0.31708753 -0.16926058 1.8370001 106 113 82 255
-0.31190455 -0.1691805 1.8360001 62 67 36 255
-0.30655894 -0.16900815 1.8340001 65 72 43 255
-0.30155221 -0.16902001 1.8340001 67 73 47 255
-0.29589772 -0.16866305 1.83 105 111 85 255
-0.29058212 -0.16849028 1.8280001 69 75 49 255
-0.28512037 -0.16822518 1.825 74 80 54 255
-0.28013456 -0.16823645 1.825 78 84 58 255
-0.27499706 -0.1681554 1.8240001 69 75 50 255
-0.27016026 -0.16825859 1.825 81 87 62 255
-0.26502651 -0.16817726 1.8240001 80 85 63 255
-0.26003987 -0.16818798 1.8240001 68 73 52 255
-0.06718044 -0.16162671 1.7500001 68 54 44 255
-0.062302019 -0.16144498 1.748 65 50 37 255
-0.057500128 -0.16144775 1.748 61 46 33 255
-0.0526377 -0.16126558 1.7460001 67 51 36 255
-0.047895644 -0.16145264 1.748 72 56 41 255
-0.043019146 -0.16117766 1.7450001 84 63 49 255
-0.038202759 -0.16108719 1.7440001 84 63 49 255
-0.033353396 -0.16081174 1.7410001 87 64 50 255
-0.028569611 -0.16081318 1.7410001 84 59 45 255
-0.023731057 -0.16044493 1.7370001 83 58 44 255
-0.018936215 -0.16026118 1.7350001 96 68 57 255
-0.014135955 -0.15989248 1.7310001 116 86 75 255
-0.0093792919 -0.15989304 1.7310001 113 85 76 255
0.71110785 -0.16481844 1.7990001 161 165 158 255
0.69529259 -0.16004924 1.7470001 36 40 32 255
0.69146115 -0.15701678 1.7140001 37 39 31 255
0.68799132 -0.15518053 1.6940001 33 35 25 255
0.69054663 -0.15471871 1.6890001 34 37 25 255
0.69472229 -0.15462366 1.6880001 34 37 23 255
0.70179367 -0.1551701 1.6940001 36 39 25 255
0.70639694 -0.15516725 1.6940001 35 40 26 255
0.70974255 -0.15488999 1.6910001 40 45 31 255
0.71391791 -0.1547962 1.6900001 37 42 30 255
0.71171194 -0.15332887 1.674 31 36 25 255
0.71926171 -0.15396856 1.6810001 33 40 29 255
0.72340631 -0.15387584 1.6800001 25 32 21 255
0.72668046 -0.15360031 1.677 39 48 37 255
0.72688764 -0.15268399 1.6670001 80 89 78 255
0.72835839 -0.15204282 1.6600001 104 112 104 255
0.7284683 -0.15112725 1.6500001 147 155 148 255
0.73119068 -0.15076159 1.646 151 159 152 255
0.73344642 -0.15030472 1.641 168 175 171 255
0.73567677 -0.14984822 1.636 177 184 180 255
0.73742944 -0.14930053 1.6300001 180 187 184 255
0.73824114 -0.14857002 1.6220001 181 188 185 255
0.73946911 -0.14793147 1.6150001 184 191 190 255
0.73973972 -0.1471101 1.6060001 185 192 191 255
0.74089009 -0.14647232 1.5990001 188 192 192 255
0.73967403 -0.14537691 1.5870001 191 195 195 255
0.74073881 -0.14473987 1.58 193 197 197 255
0.74129605 -0.14401162 1.572 194 199 196 255
0.74181187 -0.14328374 1.5640001 194 199 196 255
0.74228638 -0.14255624 1.5560001 191 198 195 255
0.74223977 -0.14173748 1.5470001 193 200 197 255
0.74166387 -0.14082748 1.5370001 197 204 203 255
0.73860937 -0.1394597 1.5220001 196 203 202 255
0.73547506 -0.13809223 1.5070001 197 204 203 255
-0.72600979 -0.17577064 1.863 240 244 237 255
-0.71786255 -0.17502233 1.8550001 227 234 223 255
-0.7101438 -0.17436861 1.848 209 216 204 255
-0.70399004 -0.17409258 1.845 208 216 199 255
-0.69785339 -0.17381682 1.8420001 215 223 206 255
-0.6917336 -0.17354129 1.8390001 206 212 194 255
-0.68675107 -0.17354913 1.8390001 198 204 186 255
-0.67991543 -0.17308535 1.8340001 198 204 186 255
-0.6738435 -0.17281055 1.8310001 189 195 177 255
-0.66778815 -0.17253594 1.8280001 189 195 177 255
-0.66320014 -0.17263915 1.8290001 193 199 181 255
-0.65824705 -0.17264821 1.8290001 191 198 177 255
-0.65329438 -0.17265747 1.8290001 173 180 158 255
-0.64869648 -0.1727614 1.83 161 169 144 255
-0.64374167 -0.17277111 1.83 146 152 126 255
-0.63878715 -0.17278107 1.83 145 152 123 255
-0.63383275 -0.17279123 1.83 144 149 117 255
-0.62956583 -0.17299044 1.8320001 135 140 108 255
-0.62494731 -0.17309543 1.8330001 134 140 105 255
-0.62099987 -0.17338954 1.8360001 169 175 140 255
-0.61636513 -0.17349492 1.8370001 161 167 132 255
-0.61239064 -0.17378944 1.84 147 153 118 255
-0.60740954 -0.17380078 1.84 146 152 117 255
-0.60308319 -0.17400123 1.8420001 147 153 118 255
-0.59777176 -0.17391844 1.8410001 148 154 119 255
-0.59278756 -0.17393029 1.8410001 145 150 118 255
-0.58716476 -0.17375331 1.8390001 157 162 131 255
-0.58218575 -0.17376545 1.8390001 161 164 133 255
-0.57783413 -0.17396669 1.8410001 156 159 127 255
-0.57347143 -0.17416809 1.8430001 148 151 119 255
-0.56909752 -0.17436966 1.845 145 149 114 255
-0.56440687 -0.17447689 1.8460001 146 150 115 255
-0.55971038 -0.17458424 1.8470001 144 148 113 255
-0.55470788 -0.17459717 1.8470001 143 146 114 255
-0.5500024 -0.17470475 1.848 141 146 115 255
-0.5449962 -0.1747179 1.848 144 149 118 255
-0.53969747 -0.17463663 1.8470001 142 147 116 255
-0.53440356 -0.17455539 1.8460001 153 158 127 255
-0.52940124 -0.17456879 1.8460001 161 166 135 255
-0.52411449 -0.17448771 1.845 158 163 132 255
-0.51939523 -0.17459586 1.8460001 138 143 112 255
-0.51467007 -0.17470409 1.8470001 147 154 125 255
-0.50993884 -0.17481241 1.848 169 176 147 255
-0.50465506 -0.17473158 1.8470001 180 187 156 255
-0.49937615 -0.17465079 1.8460001 127 134 103 255
-0.49383411 -0.17447542 1.8440001 149 156 125 255
-0.48856741 -0.1743947 1.8430001 146 153 122 255
-0.48330536 -0.17431399 1.8420001 165 172 141 255
-0.47856736 -0.17442258 1.8430001 138 145 114 255
-0.47356632 -0.17443657 1.8430001 141 148 117 255
-0.46881869 -0.17454523 1.8440001 141 148 117 255
-0.46381342 -0.17455927 1.8440001 161 166 135 255
-0.45855859 -0.17447865 1.8430001 137 142 111 255
-0.45355439 -0.1744927 1.8430001 136 141 110 255
-0.44903627 -0.17469615 1.845 132 137 106 255
-0.44426575 -0.17480491 1.8460001 156 161 129 255
-0.43925101 -0.17481898 1.8460001 161 167 132 255
-0.43376499 -0.17464362 1.8440001 134 140 105 255
-0.428754 -0.17465767 1.8440001 125 133 98 255
-0.42397192 -0.17476639 1.845 145 151 115 255
-0.41918358 -0.17487511 1.8460001 159 165 129 255
-0.41461325 -0.17507856 1.848 129 135 100 255
-0.40958789 -0.17509252 1.848 130 134 98 255
-0.40478057 -0.17520119 1.8490001 131 135 99 255
-0.39953452 -0.17512031 1.848 150 154 118 255
-0.39471993 -0.17522891 1.8490001 124 128 93 255
-0.38968819 -0.17524268 1.8490001 133 139 104 255
-0.38486364 -0.1753512 1.8500001 143 149 114 255
-0.38003269 -0.17545965 1.8510001 136 143 111 255
-0.37479019 -0.17537846 1.8500001 147 154 122 255
-0.36975205 -0.175392 1.8500001 133 141 106 255
-0.36471298 -0.17540547 1.8500001 152 162 127 255
-0.35967296 -0.17541885 1.8500001 168 178 143 255
-0.35386527 -0.17505284 1.8460001 152 163 124 255
-0.34845635 -0.17487635 1.8440001 115 124 85 255
-0.34324363 -0.17479458 1.8430001 118 127 88 255
-0.33803543 -0.17471272 1.8420001 123 131 95 255
-0.33247015 -0.17444102 1.8390001 122 130 95 255
-0.32674226 -0.17407431 1.835 125 135 102 255
-0.32121062 -0.17380233 1.8320001 119 126 95 255
-0.31552175 -0.1734353 1.8280001 170 177 146 255
-0.31053331 -0.17344764 1.8280001 176 183 152 255
-0.30537692 -0.173365 1.8270001 178 185 156 255
-0.30022493 -0.17328218 1.8260001 187 194 165 255
-0.29459247 -0.17291453 1.8220001 156 163 134 255
-0.28929886 -0.17273653 1.8200001 162 169 140 255
-0.28417152 -0.1726533 1.8190001 72 77 46 255
-0.27950925 -0.17285468 1.8210001 87 94 63 255
-0.2745336 -0.17286609 1.8210001 104 111 82 255
-0.26970512 -0.17297229 1.8220001 98 105 76 255
-0.26487026 -0.17307834 1.8230001 85 91 65 255
-0.26002911 -0.17318428 1.8240001 81 87 62 255
-0.25476211 -0.17300521 1.8220001 83 86 64 255
-0.24964236 -0.17292093 1.8210001 79 84 62 255
-0.24412414 -0.17255156 1.817 82 87 66 255
-0.2388902 -0.17237195 1.8150001 77 83 65 255
-0.087043822 -0.16764887 1.7630001 78 69 58 255
-0.081922665 -0.16708229 1.7570001 82 68 58 255
-0.076921903 -0.16670567 1.7530001 92 71 59 255
-0.071983919 -0.1664239 1.7500001 96 78 63 255
-0.06710051 -0.166237 1.748 97 74 60 255
-0.062263455 -0.16614497 1.7470001 86 64 48 255
-0.057398748 -0.16595761 1.7450001 82 60 44 255
-0.052514642 -0.16567491 1.7420001 83 59 43 255
-0.047701597 -0.16558218 1.7410001 87 63 47 255
-0.04289386 -0.16548924 1.7400001 91 67 51 255
-0.038135245 -0.16558628 1.7410001 89 65 49 255
-0.03329435 -0.16530265 1.738 89 60 45 255
-0.028502626 -0.16520901 1.7370001 87 60 46 255
-0.023716275 -0.16511515 1.7360001 80 52 41 255
-0.018935323 -0.16502108 1.7350001 95 64 55 255
0.7188611 -0.16923828 1.794 167 173 165 255
0.71283799 -0.16668659 1.7670001 88 92 84 255
0.71276134 -0.16555029 1.7550001 17 21 13 255
0.71262074 -0.16441439 1.743 15 21 13 255
0.71241617 -0.16327888 1.7310001 16 23 12 255
0.71587622 -0.16299266 1.728 25 32 21 255
0.71640217 -0.16204652 1.7180001 24 31 19 255
0.71519649 -0.16072351 1.7040001 21 28 16 255
0.71476084 -0.1595895 1.692 20 29 18 255
0.71766257 -0.15921041 1.6880001 13 21 13 255
0.72182769 -0.15911464 1.687 33 41 33 255
0.72469723 -0.1587363 1.6830001 85 93 85 255
0.72711331 -0.15826403 1.6780001 81 89 82 255
0.72688746 -0.1572262 1.6670001 124 132 125 255
0.72879738 -0.15666036 1.6610001 139 147 140 255
0.72935182 -0.15581195 1.6520001 153 161 154 255
0.73252439 -0.1555298 1.649 161 168 164 255
0.73389471 -0.15487079 1.6420001 174 181 178 255
0.73612821 -0.1544008 1.6370001 176 183 180 255
0.73697907 -0.15364824 1.6290001 180 187 184 255
0.73733336 -0.15280177 1.6200001 184 191 190 255
0.73809838 -0.15204997 1.6120001 187 194 193 255
0.7388218 -0.15129857 1.6040001 187 194 193 255
0.73996717 -0.15064189 1.5970001 188 195 194 255
0.73921204 -0.14960827 1.5860001 192 196 196 255
0.73886806 -0.14866938 1.5760001 194 199 196 255
0.73988628 -0.14801386 1.5690001 196 201 198 255
0.74039429 -0.14726439 1.5610001 195 200 197 255
0.74038392 -0.14642096 1.552 194 199 196 255
0.73888743 -0.14529487 1.5400001 195 202 199 255
0.73877513 -0.14445218 1.531 196 203 200 255
0.7361899 -0.14313811 1.5170001 195 202 201 255
0.73597038 -0.14229615 1.508 197 204 203 255
-0.72600335 -0.18084702 1.863 235 239 231 255
-0.71862984 -0.18027118 1.8570001 236 241 230 255
-0.71090549 -0.17959853 1.8500001 228 235 223 255
-0.70512754 -0.17941149 1.848 222 230 213 255
-0.69898242 -0.17912768 1.845 211 219 202 255
-0.69247818 -0.17874704 1.8410001 207 216 197 255
-0.68711638 -0.17865793 1.84 201 210 191 255
-0.68064857 -0.17827779 1.8360001 190 196 178 255
-0.67493892 -0.17809208 1.8340001 203 209 191 255
-0.66851002 -0.17771238 1.83 191 198 177 255
-0.66355366 -0.17772137 1.83 168 175 154 255
-0.65895754 -0.17782772 1.8310001 136 143 122 255
-0.65471357 -0.17803144 1.8330001 142 147 125 255
-0.6501047 -0.1781383 1.8340001 150 156 131 255
-0.64478707 -0.17805113 1.8330001 156 162 136 255
-0.63912612 -0.17786701 1.8310001 157 161 133 255
-0.63416874 -0.17787738 1.8310001 174 179 147 255
-0.62955523 -0.17798512 1.8320001 179 184 152 255
-0.62527746 -0.17819023 1.8340001 157 162 131 255
-0.62098885 -0.17839555 1.8360001 146 151 120 255
-0.61668944 -0.1786011 1.8380001 143 150 119 255
-0.61237925 -0.17880686 1.84 146 153 124 255
-0.60739791 -0.17881846 1.84 150 157 128 255
-0.60274404 -0.17892741 1.8410001 153 158 127 255
-0.59743512 -0.17884214 1.84 155 160 128 255
-0.59245354 -0.17885426 1.84 157 163 128 255
-0.58715254 -0.17876929 1.8390001 146 152 117 255
-0.58280653 -0.17897615 1.8410001 152 156 120 255
-0.57876319 -0.17928036 1.8440001 149 153 117 255
-0.57439226 -0.17948754 1.8460001 145 149 113 255
-0.56970167 -0.17959765 1.8470001 146 150 114 255
-0.56469971 -0.17961064 1.8470001 146 148 112 255
-0.55969733 -0.17962377 1.8470001 144 145 111 255
-0.55469471 -0.17963701 1.8470001 146 149 117 255
-0.54939389 -0.17955308 1.8460001 149 152 121 255
-0.54409814 -0.17946926 1.845 151 156 125 255
-0.53880739 -0.17938551 1.8440001 148 155 126 255
-0.53381103 -0.17939915 1.8440001 147 154 125 255
-0.52910084 -0.17951015 1.845 163 170 141 255
-0.52410084 -0.17952396 1.845 165 174 145 255
-0.51938152 -0.17963517 1.8460001 167 173 147 255
-0.51437759 -0.17964911 1.8460001 125 134 105 255
-0.50992483 -0.17985779 1.848 166 175 146 255
-0.50436783 -0.17967723 1.8460001 181 188 159 255
-0.49936211 -0.17969139 1.8460001 125 132 101 255
-0.49355224 -0.17941353 1.8430001 137 144 113 255
-0.48828828 -0.17933041 1.8420001 150 157 126 255
-0.48276645 -0.17914991 1.84 151 158 127 255
-0.47803393 -0.17926158 1.8410001 156 163 132 255
-0.4727813 -0.17917849 1.84 134 141 110 255
-0.46829608 -0.17938761 1.8420001 146 153 122 255
-0.46329615 -0.17940196 1.8420001 144 151 120 255
-0.45829555 -0.17941634 1.8420001 147 154 123 255
-0.45280194 -0.17923591 1.84 140 147 118 255
-0.4482919 -0.17944513 1.8420001 136 143 112 255
-0.44352955 -0.17955694 1.8430001 164 171 140 255
-0.43876091 -0.17966878 1.8440001 158 163 132 255
-0.43375078 -0.17968316 1.8440001 130 135 104 255
-0.42873976 -0.17969753 1.8440001 129 136 104 255
-0.42372799 -0.17971189 1.8440001 169 175 140 255
-0.41848817 -0.17962876 1.8430001 133 139 104 255
-0.41370174 -0.17974053 1.8440001 133 139 104 255
-0.40890887 -0.17985226 1.845 131 137 102 255
-0.40410978 -0.17996401 1.8460001 126 132 96 255
-0.39908808 -0.17997819 1.8460001 153 159 124 255
-0.39406553 -0.17999233 1.8460001 129 135 100 255
-0.38925278 -0.18010394 1.8470001 141 147 112 255
-0.38422573 -0.18011801 1.8470001 141 147 112 255
-0.37899235 -0.18003447 1.8460001 165 172 141 255
-0.37356097 -0.17985331 1.8440001 132 141 110 255
-0.36833936 -0.17976959 1.8430001 142 151 120 255
-0.36351657 -0.17988089 1.8440001 169 178 147 255
-0.3581042 -0.17969945 1.8420001 172 182 149 255
-0.35231838 -0.17932273 1.8380001 119 129 94 255
-0.34674239 -0.17904349 1.835 117 127 92 255
-0.34174055 -0.17905682 1.835 127 135 100 255
-0.33673778 -0.17907009 1.835 122 129 97 255
-0.33119175 -0.17879045 1.8320001 138 147 116 255
-0.32583916 -0.17860825 1.83 136 143 112 255
-0.32014596 -0.17823073 1.8260001 121 128 97 255
-0.31447363 -0.17785303 1.8220001 124 131 100 255
-0.30967155 -0.17796326 1.8230001 130 139 108 255
-0.3043617 -0.17778049 1.8210001 168 177 148 255
-0.29922625 -0.17769521 1.8200001 162 171 142 255
-0.29344869 -0.17721927 1.8150001 114 123 92 255
-0.28817433 -0.17703603 1.8130001 125 134 105 255
-0.28306624 -0.17695029 1.812 168 175 144 255
-0.27826971 -0.17705972 1.8130001 178 187 156 255
-0.27331606 -0.17707138 1.8130001 165 174 145 255
-0.26850957 -0.17718054 1.8140001 123 132 101 255
-0.26384205 -0.17738727 1.8160001 100 107 76 255
-0.25916272 -0.17759384 1.8180001 79 86 55 255
-0.25419196 -0.17760493 1.8180001 90 95 64 255
-0.24922039 -0.17761585 1.8180001 89 94 63 255
-0.24357621 -0.17713808 1.8130001 102 109 80 255
-0.2383534 -0.17695323 1.8110001 105 112 83 255
-0.23314075 -0.17676818 1.8090001 100 108 83 255
-0.22793819 -0.17658293 1.807 94 101 79 255
-0.22262241 -0.17629978 1.8040001 89 98 77 255
-0.21732226 -0.17601639 1.8010001 77 86 67 255
-0.10254033 -0.17413342 1.7800001 190 185 174 255
-0.096885525 -0.17276859 1.766 81 68 55 255
-0.091776259 -0.17228399 1.761 105 78 63 255
-0.086694069 -0.17179912 1.756 107 83 65 255
-0.081732258 -0.17150971 1.7530001 102 76 58 255
-0.076830462 -0.17131786 1.751 101 75 57 255
-0.071939334 -0.1711258 1.7490001 98 70 51 255
-0.067058906 -0.17093349 1.7470001 94 66 47 255
-0.062153548 -0.17064311 1.7440001 91 64 42 255
-0.057330191 -0.17054817 1.743 89 64 42 255
-0.052512109 -0.170453 1.7420001 88 60 41 255
-0.047726698 -0.17045546 1.7420001 83 57 39 255
-0.042916436 -0.17035982 1.7410001 69 49 33 255
-0.038155306 -0.17045966 1.7420001 61 45 30 255
0.038601678 -0.17124239 1.7500001 99 69 58 255
0.043607872 -0.17202318 1.7580001 109 78 67 255
0.72170854 -0.17363632 1.789 151 157 150 255
0.72087979 -0.17227314 1.7750001 160 164 157 255
0.72202039 -0.17139563 1.766 159 165 157 255
0.72229028 -0.17032441 1.7550001 165 172 161 255
0.72374451 -0.16954471 1.7470001 163 170 159 255
0.72348845 -0.16837721 1.7350001 164 173 162 255
0.72400808 -0.16740419 1.725 161 170 159 255
0.71982807 -0.16536409 1.7040001 157 165 157 255
0.71893644 -0.16410075 1.6910001 157 165 157 255
0.7196871 -0.16322595 1.682 154 162 155 255
0.7225433 -0.16283678 1.6780001 149 157 150 255
0.72537947 -0.16244796 1.674 150 158 151 255
0.72688735 -0.16176842 1.6670001 151 159 152 255
0.72879761 -0.16118632 1.6610001 155 163 156 255
0.72935241 -0.16031347 1.6520001 161 168 164 255
0.731637 -0.1598292 1.6470001 171 178 174 255
0.73300231 -0.15915121 1.6400001 179 186 183 255
0.73523074 -0.15866774 1.6350001 182 189 186 255
0.73426688 -0.15750533 1.623 184 191 188 255
0.73369479 -0.15644035 1.6120001 187 194 193 255
0.73352265 -0.15547283 1.6020001 189 196 195 255
0.73698282 -0.1552821 1.6 188 195 192 255
0.73811764 -0.15460651 1.5930001 188 195 192 255
0.73875034 -0.15383428 1.585 190 195 192 255
0.73934156 -0.15306243 1.577 192 197 194 255
0.73941988 -0.15219395 1.5680001 194 199 196 255
0.73992556 -0.1514229 1.5600001 192 199 196 255
0.73800462 -0.1501669 1.5470001 194 201 198 255
0.73841399 -0.14939664 1.539 194 201 198 255
0.73781687 -0.1484326 1.529 195 202 199 255
0.73668242 -0.14737189 1.5180001 196 203 202 255
0.73646605 -0.14650568 1.5090001 197 204 203 255
-0.72911435 -0.18672168 1.8710001 182 186 179 255
-0.71939695 -0.1855308 1.8590001 234 241 230 255
-0.71205109 -0.18493895 1.853 229 236 224 255
-0.70626485 -0.18474664 1.8510001 221 229 212 255
-0.70011127 -0.18445477 1.848 213 221 204 255
-0.69359863 -0.18406337 1.8440001 203 212 193 255
-0.68748164 -0.18377204 1.8410001 179 188 169 255
-0.68212301 -0.18368061 1.84 221 230 211 255
-0.67603427 -0.1833898 1.8370001 148 157 138 255
-0.6703276 -0.18319905 1.835 160 169 148 255
-0.66390711 -0.18280886 1.8310001 162 171 150 255
-0.65966785 -0.18301795 1.8330001 187 194 173 255
-0.65470392 -0.18302763 1.8330001 157 164 142 255
-0.65009475 -0.1831374 1.8340001 179 187 162 255
-0.64477688 -0.18304765 1.8330001 182 188 162 255
-0.63981384 -0.18305805 1.8330001 187 194 165 255
-0.63519722 -0.18316852 1.8340001 160 165 134 255
-0.63057536 -0.18327919 1.835 143 148 117 255
-0.62628925 -0.18349001 1.8370001 142 147 116 255
-0.62165403 -0.18360113 1.8380001 145 150 119 255
-0.61701351 -0.18371248 1.8390001 150 157 126 255
-0.61236757 -0.18382402 1.84 152 159 130 255
-0.60738617 -0.18383586 1.84 162 169 140 255
-0.60240465 -0.18384787 1.84 155 160 129 255
-0.59742308 -0.18386008 1.84 156 161 129 255
-0.5927633 -0.18397236 1.8410001 154 158 122 255
-0.58809793 -0.18408482 1.8420001 151 155 119 255
-0.58374357 -0.18429741 1.8440001 147 151 113 255
-0.57906431 -0.18441018 1.845 144 148 110 255
-0.57437927 -0.18452314 1.8460001 145 149 113 255
-0.56938016 -0.18453629 1.8460001 144 148 112 255
-0.56499225 -0.1847495 1.848 150 154 118 255
-0.55998701 -0.18476292 1.848 150 153 121 255
-0.55468124 -0.1846765 1.8470001 143 146 115 255
-0.54908276 -0.18449013 1.845 151 156 125 255
-0.54378957 -0.18440387 1.8440001 157 164 135 255
-0.53879362 -0.18441772 1.8440001 153 161 135 255
-0.53408664 -0.18453166 1.845 150 158 132 255
-0.52937371 -0.18464573 1.8460001 157 166 137 255
-0.52408683 -0.18455982 1.845 162 170 144 255
-0.51880473 -0.18447398 1.8440001 173 181 155 255
-0.51380622 -0.18448825 1.8440001 135 143 117 255
-0.50935882 -0.18470266 1.8460001 162 170 144 255
-0.50380719 -0.18451697 1.8440001 183 190 161 255
-0.4988068 -0.18453144 1.8440001 156 163 132 255
-0.49327007 -0.18434578 1.8420001 122 131 100 255
-0.48800874 -0.18426023 1.8410001 141 148 117 255
-0.48248973 -0.18407461 1.8390001 145 152 121 255
-0.47775978 -0.1841893 1.84 171 178 147 255
-0.47276682 -0.18420395 1.84 133 140 109 255
-0.46777305 -0.1842186 1.84 151 158 127 255
-0.46277863 -0.18423329 1.84 142 149 118 255
-0.45753467 -0.18414786 1.8390001 146 153 122 255
-0.45254132 -0.18416256 1.8390001 133 140 109 255
-0.44779056 -0.1842774 1.84 142 149 118 255
-0.44351497 -0.1845926 1.8430001 168 175 144 255
-0.43874636 -0.18470751 1.8440001 163 170 139 255
-0.43350101 -0.18462205 1.8430001 130 137 106 255
-0.4282603 -0.18453658 1.8420001 154 161 129 255
-0.42302409 -0.18445106 1.8410001 152 157 125 255
-0.41779253 -0.1843655 1.84 130 135 103 255
-0.41301423 -0.18448031 1.8410001 138 145 113 255
-0.40822962 -0.18459512 1.8420001 126 133 101 255
-0.40300086 -0.18450946 1.8410001 161 169 134 255
-0.39820904 -0.18462417 1.8420001 142 148 113 255
-0.39298394 -0.18453839 1.8410001 141 148 116 255
-0.38797408 -0.18455277 1.8410001 152 160 125 255
-0.38275534 -0.18446684 1.84 165 170 138 255
-0.37754115 -0.18438087 1.8390001 139 146 115 255
-0.37233147 -0.18429478 1.8380001 138 147 116 255
-0.36732617 -0.18430889 1.8380001 144 155 126 255
-0.36251703 -0.18442321 1.8390001 182 193 164 255
-0.35672957 -0.184036 1.835 178 189 158 255
-0.35115469 -0.18374896 1.8320001 115 126 95 255
-0.34559515 -0.18346177 1.8290001 122 132 99 255
-0.34042349 -0.18337506 1.8280001 141 151 118 255
-0.33525643 -0.18328826 1.8270001 139 148 117 255
-0.32991308 -0.183101 1.825 165 174 143 255
-0.32475778 -0.18301393 1.8240001 147 156 125 255
-0.31925637 -0.18272607 1.8210001 115 124 93 255
-0.31394303 -0.18253839 1.8190001 128 137 108 255
-0.30897945 -0.18255129 1.8190001 138 147 118 255
-0.30384773 -0.18246368 1.8180001 178 187 158 255
-0.29855624 -0.18227558 1.8160001 143 152 123 255
-0.29278967 -0.18178618 1.8110001 130 139 110 255
-0.28736746 -0.18149737 1.8080001 128 136 110 255
-0.28242943 -0.18150955 1.8080001 130 137 108 255
-0.27749044 -0.18152156 1.8080001 145 154 125 255
-0.27239987 -0.18143307 1.807 160 169 140 255
-0.2673139 -0.1813444 1.8060001 182 191 160 255
-0.26237783 -0.18135597 1.8060001 189 196 165 255
-0.25786853 -0.18166868 1.8090001 104 111 80 255
-0.25306231 -0.18178038 1.8100001 80 87 56 255
-0.24824987 -0.18189198 1.8110001 89 96 65 255
-0.24302806 -0.18170206 1.8090001 101 108 79 255
-0.23781638 -0.18151194 1.807 104 111 82 255
-0.2327437 -0.1814221 1.8060001 103 111 85 255
-0.22767569 -0.18133208 1.8050001 97 105 79 255
-0.22248897 -0.18114141 1.8030001 120 130 107 255
-0.21719177 -0.18085004 1.8000001 104 111 89 255
-0.2119102 -0.18055846 1.7970001 108 116 91 255
-0.20698991 -0.18056811 1.7970001 111 118 96 255
-0.20173153 -0.18027613 1.794 111 116 94 255
-0.19681798 -0.18028539 1.794 131 136 114 255
-0.19190371 -0.18029447 1.794 80 85 64 255
-0.11255948 -0.17940581 1.784 190 185 178 255
-0.10724038 -0.17870724 1.7770001 89 81 72 255
-0.10190169 -0.17790787 1.7690001 93 78 63 255
-0.096771076 -0.17740989 1.7640001 103 85 69 255
-0.091615431 -0.17681111 1.7580001 108 82 63 255
-0.086541727 -0.17631266 1.7530001 108 79 58 255
-0.08158838 -0.17601509 1.7500001 104 77 55 255
-0.076695055 -0.17581783 1.748 100 73 51 255
-0.071812406 -0.17562038 1.7460001 95 68 46 255
-0.066978835 -0.17552324 1.7450001 92 65 43 255
-0.062186111 -0.17552647 1.7450001 82 57 35 255
-0.057426032 -0.17563002 1.7460001 79 54 32 255
-0.052690368 -0.17583397 1.748 76 53 33 255
-0.047861315 -0.17573591 1.7470001 62 42 24 255
-0.04301291 -0.17553699 1.7450001 201 186 171 255
0.024065822 -0.17524184 1.7420001 174 164 155 255
0.028802088 -0.17493871 1.7390001 74 59 46 255
0.033656918 -0.17533953 1.743 98 65 52 255
0.038665932 -0.17634368 1.7530001 107 77 62 255
0.043704927 -0.17724696 1.7620001 100 73 59 255
0.72574914 -0.17830667 1.7870001 156 162 155 255
0.72733152 -0.17750436 1.779 153 161 154 255
0.72681391 -0.17620356 1.766 153 161 154 255
0.72705555 -0.17510273 1.7550001 150 158 151 255
0.72723871 -0.17400232 1.7440001 150 158 151 255
0.72736347 -0.1729023 1.733 148 156 149 255
0.72320557 -0.17080498 1.7120001 147 155 148 255
0.72021037 -0.16900742 1.6940001 147 155 148 255
0.72054166 -0.16800839 1.6840001 150 158 151 255
0.72211194 -0.16730906 1.677 150 158 151 255
0.72494572 -0.16690943 1.6730001 151 159 152 255
0.72601527 -0.16611113 1.6650001 157 164 160 255
0.72792047 -0.16551277 1.659 164 171 167 255
0.72891182 -0.16471528 1.651 172 179 176 255
0.73208237 -0.16441701 1.6480001 179 186 183 255
0.73345089 -0.1637201 1.641 181 188 187 255
0.73568237 -0.16322313 1.636 184 188 188 255
0.73426932 -0.1619284 1.623 184 191 188 255
0.73415279 -0.16093339 1.613 186 193 190 255
0.73306799 -0.15973924 1.6010001 190 195 192 255
0.73606527 -0.15944345 1.598 191 196 193 255
0.73673165 -0.15864919 1.59 190 195 192 255
0.73782259 -0.15795514 1.5830001 190 195 192 255
0.7384088 -0.1571617 1.575 193 198 195 255
0.73801047 -0.1561691 1.5650001 192 199 196 255
0.73803407 -0.1552767 1.5560001 193 200 197 255
0.73753387 -0.15428491 1.5460001 192 199 196 255
0.73842061 -0.15359287 1.539 193 200 197 255
0.73782402 -0.15260187 1.529 195 202 201 255
0.73766047 -0.15171105 1.5200001 195 202 201 255
0.73745006 -0.15082061 1.511 197 204 203 255
0.73719317 -0.1499306 1.5020001 197 204 203 255
-0.72171199 -0.19121133 1.8650001 239 246 235 255
-0.71319675 -0.19029567 1.8560001 226 233 222 255
-0.70625734 -0.1897904 1.8510001 219 227 212 255
-0.69972467 -0.18938795 1.8470001 211 219 202 255
-0.69321448 -0.18898575 1.8430001 172 181 162 255
-0.68784672 -0.18889144 1.8420001 222 231 212 255
-0.68174368 -0.18859234 1.8390001 206 215 196 255
-0.67639339 -0.18849859 1.8380001 150 159 138 255
-0.67031848 -0.1882 1.835 168 177 156 255
-0.66498548 -0.18810675 1.8340001 191 201 178 255
-0.66037804 -0.18821892 1.835 180 187 165 255
-0.65576553 -0.18833134 1.8360001 192 200 175 255
-0.65114802 -0.18844403 1.8370001 190 198 172 255
-0.64687717 -0.18865956 1.8390001 156 165 136 255
-0.64154845 -0.18856756 1.8380001 138 145 114 255
-0.63691813 -0.18868098 1.8390001 139 146 115 255
-0.63125163 -0.18848681 1.8370001 149 154 123 255
-0.62627798 -0.18849808 1.8370001 147 152 121 255
-0.62130439 -0.18850952 1.8370001 166 173 142 255
-0.61700183 -0.18872644 1.8390001 155 162 133 255
-0.61235577 -0.18884093 1.84 152 159 128 255
-0.60737407 -0.18885301 1.84 157 164 133 255
-0.60239244 -0.18886527 1.84 164 169 138 255
-0.59806001 -0.18908301 1.8420001 138 143 111 255
-0.59371656 -0.18930094 1.8440001 138 143 111 255
-0.58904296 -0.18941641 1.845 142 146 111 255
-0.58436376 -0.18953206 1.8460001 147 153 118 255
-0.57936507 -0.18954518 1.8460001 145 150 118 255
-0.57467723 -0.18966115 1.8470001 143 148 116 255
-0.56967521 -0.18967457 1.8470001 155 160 128 255
-0.56497878 -0.18979084 1.848 157 162 131 255
-0.55997336 -0.18980452 1.848 142 149 120 255
-0.55466753 -0.18971565 1.8470001 141 148 119 255
-0.54877132 -0.1894214 1.8440001 153 159 133 255
-0.54348075 -0.18933271 1.8430001 156 164 138 255
-0.53848743 -0.18934682 1.8430001 158 166 140 255
-0.53407246 -0.18956654 1.845 161 169 143 255
-0.52935946 -0.18968363 1.8460001 159 168 139 255
-0.52378845 -0.18949254 1.8440001 155 165 139 255
-0.51850897 -0.18940428 1.8430001 168 177 148 255
-0.51323444 -0.18931608 1.8420001 170 178 152 255
-0.50851649 -0.18943347 1.8430001 131 141 115 255
-0.50324619 -0.1893454 1.8420001 186 196 170 255
-0.49825117 -0.18936016 1.8420001 177 186 157 255
-0.49271983 -0.18916933 1.84 128 137 106 255
-0.48746386 -0.18908137 1.8390001 136 145 114 255
-0.48247498 -0.18909627 1.8390001 147 156 125 255
-0.47774497 -0.18921401 1.84 171 178 147 255
-0.47249511 -0.18912612 1.8390001 137 144 113 255
-0.46724987 -0.18903826 1.8380001 143 150 119 255
-0.46251228 -0.18915612 1.8390001 142 149 118 255
-0.4575198 -0.18917114 1.8390001 151 160 129 255
-0.45252648 -0.18918617 1.8390001 134 143 114 255
-0.44753239 -0.18920119 1.8390001 152 163 134 255
-0.44277811 -0.1893191 1.84 168 177 148 255
-0.43801767 -0.18943705 1.8410001 158 167 138 255
-0.43301567 -0.18945208 1.8410001 135 142 111 255
-0.42754793 -0.18926129 1.8390001 151 158 127 255
-0.42232001 -0.18917336 1.8380001 140 145 113 255
-0.41709661 -0.18908536 1.8370001 131 136 104 255
-0.41255084 -0.18930617 1.8390001 143 150 118 255
-0.40777162 -0.18942399 1.84 130 137 106 255
-0.4025484 -0.18933593 1.8390001 169 176 145 255
-0.39754584 -0.18935074 1.8390001 145 154 123 255
-0.39232898 -0.18926251 1.8380001 161 170 139 255
-0.38711661 -0.18917423 1.8370001 149 156 125 255
-0.38170081 -0.18898289 1.835 149 156 125 255
-0.37629503 -0.18879145 1.8330001 134 143 112 255
-0.37110177 -0.18870291 1.8320001 140 149 120 255
-0.36611289 -0.18871732 1.8320001 152 161 130 255
-0.36132014 -0.18883462 1.8330001 182 191 160 255
-0.35535473 -0.18833372 1.8280001 179 188 157 255
-0.3499907 -0.18814176 1.8260001 121 131 98 255
-0.34463662 -0.18794969 1.8240001 124 133 102 255
-0.33929247 -0.18775748 1.8220001 147 156 125 255
-0.33395833 -0.18756513 1.8200001 149 160 131 255
-0.32881498 -0.18747574 1.8190001 164 175 146 255
-0.3236762 -0.18738621 1.8180001 138 149 120 255
-0.31836659 -0.18719347 1.8160001 113 124 95 255
-0.31306702 -0.1870006 1.8140001 146 157 128 255
-0.30845687 -0.18721993 1.8160001 154 162 136 255
-0.30333349 -0.18712987 1.8150001 175 183 157 255
-0.29772153 -0.18673036 1.8110001 134 142 116 255
-0.29213047 -0.18633065 1.807 138 146 120 255
-0.28671941 -0.18603389 1.8040001 136 144 119 255
-0.28179237 -0.18604632 1.8040001 141 149 124 255
-0.27655751 -0.1858523 1.802 141 149 124 255
-0.27163422 -0.18586443 1.802 134 142 117 255
-0.26656207 -0.18577328 1.8010001 153 162 133 255
-0.26149452 -0.18568194 1.8000001 163 172 141 255
-0.25657418 -0.18569359 1.8000001 180 189 158 255
-0.25179273 -0.18580824 1.8010001 177 184 153 255
-0.24700503 -0.18592277 1.802 85 92 61 255
-0.24221101 -0.18603712 1.8030001 91 98 69 255
-0.23701595 -0.18584177 1.8010001 99 105 79 255
-0.231831 -0.18564621 1.7990001 135 143 117 255
-0.22678229 -0.18555363 1.7980001 139 147 121 255
-0.22161496 -0.18535767 1.7960001 95 103 77 255
-0.21669908 -0.18536793 1.7960001 94 103 74 255
-0.21166451 -0.18527479 1.7950001 98 105 74 255
-0.20674989 -0.18528466 1.7950001 99 106 75 255
-0.20138474 -0.18488142 1.7910001 125 130 99 255
-0.1964796 -0.18489091 1.7910001 132 137 106 255
-0.1913598 -0.18469368 1.789 128 133 102 255
-0.18666719 -0.18490922 1.7910001 83 89 63 255
-0.181557 -0.18471161 1.789 132 138 113 255
-0.17645709 -0.18451375 1.7870001 137 144 123 255
-0.12131669 -0.18273531 1.7690001 126 136 121 255
-0.11626481 -0.18243134 1.766 5 4 0 255
-0.11135516 -0.18233378 1.7650001 83 63 47 255
-0.10651089 -0.18233924 1.7650001 108 81 66 255
-0.101551 -0.18213788 1.7630001 111 85 66 255
-0.09649197 -0.18172961 1.7590001 106 81 59 255
-0.091350295 -0.18111449 1.7530001 104 77 54 255
-0.086389296 -0.18080904 1.7500001 105 78 55 255
-0.081351183 -0.18029669 1.7450001 103 76 54 255
-0.076559581 -0.1803007 1.7450001 97 70 48 255
-0.071685404 -0.18009782 1.743 86 61 39 255
-0.066898696 -0.18010135 1.743 73 47 28 255
-0.062111698 -0.18010464 1.743 67 41 22 255
-0.05742313 -0.1804177 1.7460001 61 38 18 255
-0.052778129 -0.18093719 1.751 59 39 21 255
-0.047995869 -0.18104312 1.7520001 55 41 24 255
0.014592737 -0.18126094 1.7540001 188 178 169 255
0.019278791 -0.18001999 1.7420001 79 51 40 255
0.023981713 -0.17939883 1.7360001 99 67 52 255
0.028800623 -0.17970748 1.7390001 95 63 48 255
0.033674516 -0.18022257 1.7440001 86 59 44 255
0.038663972 -0.18115076 1.7530001 88 64 48 255
0.72452652 -0.18286794 1.784 157 163 156 255
0.72650987 -0.18214633 1.7770001 161 169 162 255
0.72722197 -0.18111764 1.7670001 163 171 164 255
0.72829527 -0.18019184 1.7580001 159 167 160 255
0.72973794 -0.17936894 1.7500001 156 164 157 255
0.72862035 -0.17793149 1.7360001 149 157 150 255
0.72531581 -0.175982 1.7170001 152 160 153 255
0.7219094 -0.17403293 1.6980001 152 160 153 255
0.72182417 -0.17290421 1.687 152 160 153 255
0.72469479 -0.17249335 1.6830001 157 165 158 255
0.72667873 -0.17187794 1.677 159 167 160 255
0.72688746 -0.17085293 1.6670001 159 166 162 255
0.72704345 -0.16982837 1.6570001 170 177 173 255
0.72891265 -0.16921416 1.651 178 185 182 255
0.73119533 -0.16870287 1.646 178 185 182 255
0.73345256 -0.168192 1.641 181 188 187 255
0.73568451 -0.16768155 1.636 183 188 185 255
0.7360816 -0.16676155 1.6270001 185 192 189 255
0.73597646 -0.16573946 1.6170001 187 194 191 255
0.73398715 -0.16430776 1.603 188 193 190 255
0.73514789 -0.16359399 1.5960001 189 194 191 255
0.7353459 -0.16267565 1.5870001 191 196 193 255
0.7368952 -0.16206522 1.5810001 190 195 192 255
0.73841399 -0.16145523 1.575 192 197 194 255
0.7375446 -0.1603331 1.5640001 194 201 198 255
0.73709154 -0.15931387 1.554 194 201 198 255
0.73610914 -0.15819253 1.5430001 198 203 200 255
0.73842758 -0.15778928 1.539 195 200 197 255
0.73783135 -0.15677126 1.529 196 203 202 255
0.73815358 -0.15595874 1.521 195 202 201 255
0.73745835 -0.15494154 1.511 195 202 199 255
0.73769265 -0.15412983 1.503 194 201 200 255
-0.72363985 -0.19681916 1.8700001 176 182 174 255
-0.71357381 -0.19545808 1.8570001 227 234 223 255
-0.70701283 -0.19504452 1.853 209 217 202 255
-0.7004745 -0.19463129 1.8490001 180 188 173 255
-0.69433469 -0.19432357 1.8460001 216 227 208 255
-0.6885851 -0.19412142 1.8440001 217 226 207 255
-0.68284714 -0.19391957 1.8420001 197 206 187 255
-0.67712039 -0.19371794 1.84 194 203 182 255
-0.67177039 -0.1936219 1.8390001 184 194 171 255
-0.6664263 -0.1935261 1.8380001 182 192 169 255
-0.66180772 -0.19364117 1.8390001 139 149 124 255
-0.65718418 -0.19375651 1.84 145 153 128 255
-0.65255553 -0.19387209 1.8410001 140 148 122 255
-0.64827347 -0.19409327 1.8430001 141 149 123 255
-0.64293379 -0.19399877 1.8420001 153 162 133 255
-0.63759971 -0.19390447 1.8410001 162 169 140 255
-0.63227123 -0.1938104 1.84 180 187 158 255
-0.62728924 -0.19382186 1.84 160 167 138 255
-0.62230724 -0.19383356 1.84 159 166 137 255
-0.61766106 -0.19395083 1.8410001 157 164 135 255
-0.61300927 -0.1940683 1.8420001 153 160 129 255
-0.60835207 -0.19418597 1.8430001 151 158 127 255
-0.6040169 -0.19440924 1.845 151 156 124 255
-0.59967071 -0.19463269 1.8470001 159 164 132 255
-0.59499162 -0.19475098 1.848 147 150 118 255
-0.5899877 -0.19476403 1.848 144 147 115 255
-0.58498365 -0.19477729 1.848 141 146 114 255
-0.5796656 -0.19468531 1.8470001 145 150 118 255
-0.57435262 -0.19459343 1.8460001 150 157 126 255
-0.56904477 -0.1945017 1.845 155 162 131 255
-0.56496501 -0.1948318 1.848 156 163 132 255
-0.56026256 -0.19495122 1.8490001 153 160 131 255
-0.55525404 -0.19496533 1.8490001 150 157 128 255
-0.5490548 -0.19455776 1.845 158 166 140 255
-0.5431717 -0.19425571 1.8420001 156 164 138 255
-0.53847307 -0.19437556 1.8430001 158 166 140 255
-0.53405803 -0.19460103 1.845 162 171 142 255
-0.52963173 -0.19482663 1.8470001 162 171 142 255
-0.52405787 -0.1946304 1.845 161 171 145 255
-0.51877558 -0.1945397 1.8440001 154 165 136 255
-0.51321965 -0.19434358 1.8420001 167 177 151 255
-0.5082258 -0.19435851 1.8420001 141 151 125 255
-0.50323129 -0.19437353 1.8420001 186 196 170 255
-0.49796572 -0.19428307 1.8410001 171 181 155 255
-0.49270487 -0.19419263 1.84 154 165 134 255
-0.48744884 -0.19410226 1.8390001 124 135 104 255
-0.48272225 -0.194223 1.84 130 139 108 255
-0.47772995 -0.19423826 1.84 169 176 144 255
-0.47299382 -0.19435911 1.8410001 158 165 133 255
-0.46748891 -0.19416325 1.8390001 140 147 116 255
-0.46274856 -0.19428417 1.84 138 145 113 255
-0.4575046 -0.19419394 1.8390001 152 159 128 255
-0.45226517 -0.19410366 1.8380001 140 149 118 255
-0.44751719 -0.19422466 1.8390001 157 166 137 255
-0.44252232 -0.19424 1.8390001 175 184 153 255
-0.43752661 -0.19425535 1.8390001 163 172 141 255
-0.43229493 -0.19416507 1.8380001 144 151 120 255
-0.42660284 -0.19386344 1.835 144 151 120 255
-0.42161554 -0.19387874 1.835 136 141 109 255
-0.41662741 -0.19389398 1.835 131 136 104 255
-0.4123114 -0.19422622 1.8380001 142 149 118 255
-0.40753496 -0.19434711 1.8390001 142 149 118 255
-0.40231451 -0.19425662 1.8380001 180 189 158 255
-0.39688241 -0.19406034 1.8360001 162 171 140 255
-0.3914603 -0.19386399 1.8340001 138 145 114 255
-0.38625893 -0.19377328 1.8330001 148 155 124 255
-0.3808541 -0.19357675 1.8310001 149 156 125 255
-0.37525398 -0.19327441 1.8280001 145 154 123 255
-0.37027693 -0.19328913 1.8280001 129 138 109 255
-0.36549887 -0.19340958 1.8290001 148 159 130 255
-0.36051732 -0.19342418 1.8290001 176 187 156 255
-0.35495168 -0.1931214 1.8260001 168 177 146 255
-0.34920982 -0.19271272 1.8220001 120 129 98 255
-0.34386677 -0.19251546 1.8200001 135 144 113 255
-0.33871984 -0.19242384 1.8190001 145 154 123 255
-0.33339405 -0.19222632 1.817 165 174 145 255
-0.32807818 -0.19202864 1.8150001 152 163 134 255
-0.32277238 -0.19183086 1.8130001 149 160 131 255
-0.31765184 -0.19173871 1.812 120 130 104 255
-0.31253591 -0.19164646 1.8110001 140 150 124 255
-0.30793405 -0.19187155 1.8130001 147 157 132 255
-0.30265191 -0.19167319 1.8110001 177 187 162 255
-0.29705101 -0.19126299 1.807 125 135 112 255
-0.29163274 -0.19095844 1.8040001 141 151 128 255
-0.28638887 -0.19075957 1.802 134 144 121 255
-0.28146747 -0.19077227 1.802 150 160 137 255
-0.27623826 -0.19057307 1.8000001 148 156 131 255
-0.27116984 -0.19047958 1.7990001 126 136 111 255
-0.26625404 -0.19049181 1.7990001 169 178 149 255
-0.26104686 -0.19029208 1.7970001 146 155 124 255
-0.25584978 -0.19009218 1.7950001 141 150 119 255
-0.25080258 -0.18999799 1.794 163 170 139 255
-0.24603416 -0.19011545 1.7950001 179 186 157 255
-0.24125946 -0.19023275 1.7960001 144 150 124 255
-0.23621531 -0.19013803 1.7950001 95 103 77 255
-0.23104697 -0.1899372 1.7930001 168 176 150 255
-0.22576265 -0.18963024 1.7900001 118 126 100 255
-0.22074077 -0.18953493 1.789 124 133 102 255
-0.21596488 -0.18965133 1.7900001 165 172 141 255
-0.21082905 -0.18944968 1.7880001 131 138 107 255
-0.20581859 -0.18935378 1.7870001 118 125 94 255
-0.20047554 -0.18893975 1.7830001 113 118 87 255
-0.19548282 -0.18884343 1.7820001 121 126 95 255
-0.19081573 -0.18906482 1.784 123 128 97 255
-0.18624124 -0.189392 1.7870001 91 98 69 255
-0.18114223 -0.18918909 1.7850001 147 154 125 255
-0.17595476 -0.18887994 1.7820001 144 152 126 255
-0.17087911 -0.18867655 1.7800001 149 157 132 255
-0.16581376 -0.18847293 1.7780001 143 150 128 255
-0.16084929 -0.18837507 1.7770001 145 155 132 255
-0.15580192 -0.18817098 1.7750001 136 146 123 255
-0.15076491 -0.18796666 1.7730001 145 157 132 255
-0.14565603 -0.18765607 1.7700001 150 162 139 255
-0.14056306 -0.18734522 1.7670001 142 154 131 255
-0.13556278 -0.18714018 1.7650001 145 157 134 255
-0.13072111 -0.18714695 1.7650001 146 157 136 255
-0.1258076 -0.18704745 1.7640001 168 179 160 255
-0.12103625 -0.18715979 1.7650001 0 11 0 255
-0.11592977 -0.18674171 1.761 60 50 33 255
-0.11103407 -0.1866415 1.7600001 91 67 49 255
-0.10608307 -0.18643497 1.7580001 105 77 58 255
