ply
format ascii 1.0
comment PCL generated
element vertex 1013
property float x
property float y
property float z
property uchar red
property uchar green
property uchar blue
property uchar alpha
element camera 0
property float view_px
property float view_py
property float view_pz
property float x_axisx
property float x_axisy
property float x_axisz
property float y_axisx
property float y_axisy
property float y_axisz
property float z_axisx
property float z_axisy
property float z_axisz
property float focal
property float scalex
property float scaley
property float centerx
property float centery
property int viewportx
property int viewporty
property float k1
property float k2
end_header
0.66840267 0.23784338 1.6350001 22 28 11 255
0.67243952 0.23769552 1.6340001 21 27 10 255
0.67398691 0.23667538 1.6270001 23 29 12 255
0.67716527 0.23623762 1.6240001 24 30 13 255
0.68074858 0.23594582 1.6220001 24 30 13 255
0.68558961 0.23609093 1.623 25 31 14 255
0.69128799 0.23652753 1.626 25 31 14 255
0.69743222 0.23711015 1.6300001 22 28 11 255
0.69800204 0.23580223 1.6210001 23 29 12 255
0.69592464 0.23362209 1.6060001 23 27 10 255
0.69551128 0.23202431 1.595 24 30 13 255
0.70030522 0.23217274 1.5960001 29 33 16 255
0.70643109 0.23275819 1.6 27 33 16 255
0.71169209 0.23305328 1.6020001 27 33 16 255
0.71741313 0.23349448 1.605 20 30 15 255
0.72090405 0.23320889 1.603 5 15 0 255
0.72483867 0.23306942 1.6020001 155 165 156 255
0.72603875 0.23205762 1.595 141 152 145 255
0.72766083 0.2311919 1.5890001 149 160 155 255
0.72833085 0.23003575 1.5810001 154 164 161 255
0.72988617 0.22917116 1.575 156 166 163 255
0.73001266 0.22787069 1.5660001 160 170 169 255
0.73009217 0.22657076 1.557 163 173 172 255
0.73059648 0.2254169 1.549 164 174 171 255
0.73295707 0.22484577 1.5450001 169 177 174 255
0.73434401 0.22398417 1.539 171 179 178 255
0.73522067 0.22297762 1.5320001 171 179 178 255
0.73557901 0.22182614 1.524 174 181 183 255
0.73443997 0.22023854 1.5130001 175 182 184 255
0.73421943 0.21894257 1.5040001 175 182 184 255
-0.72286522 0.23524538 1.6480001 169 176 164 255
-0.71313518 0.23352966 1.636 157 163 145 255
-0.70737129 0.23309928 1.6330001 126 133 112 255
-0.70119488 0.23252667 1.6290001 119 127 101 255
-0.69675291 0.2325256 1.6290001 113 121 95 255
-0.69188768 0.23238231 1.628 117 125 99 255
-0.68660718 0.23209684 1.626 166 173 151 255
-0.68133914 0.23181191 1.6240001 142 149 127 255
-0.67608345 0.23152748 1.6220001 150 159 140 255
-0.67084014 0.23124354 1.6200001 171 180 161 255
-0.66519767 0.23081736 1.6170001 164 175 156 255
-0.66039002 0.23067711 1.6160001 163 174 155 255
-0.6543715 0.23010914 1.6120001 169 178 159 255
-0.64797252 0.22939883 1.6070001 168 177 158 255
-0.6420024 0.22883171 1.603 162 171 150 255
-0.63764626 0.22883603 1.603 167 176 155 255
-0.63250107 0.22855532 1.6010001 154 163 144 255
-0.62775999 0.22841774 1.6 143 153 136 255
-0.62263578 0.22813781 1.598 144 154 139 255
-0.61829716 0.22814384 1.598 155 165 148 255
-0.61395925 0.22815022 1.598 159 170 151 255
-0.60924077 0.22801423 1.5970001 161 172 153 255
-0.60414958 0.22773588 1.595 160 171 152 255
-0.59869403 0.22731504 1.5920001 167 178 159 255
-0.5936287 0.22703734 1.59 154 165 146 255
-0.58931613 0.2270456 1.59 146 157 138 255
-0.58463633 0.2269114 1.5890001 144 155 136 255
-0.57996237 0.22677751 1.5880001 140 151 132 255
-0.57529438 0.22664396 1.5870001 146 157 138 255
-0.57063222 0.22651072 1.5860001 154 165 146 255
-0.56633306 0.22652061 1.5860001 165 174 155 255
-0.56132549 0.22624512 1.5840001 153 162 143 255
-0.55597746 0.22582708 1.5810001 153 164 145 255
-0.55064607 0.22540931 1.5780001 156 167 148 255
-0.54671615 0.22556317 1.5790001 150 161 142 255
-0.54312456 0.22586018 1.5810001 151 162 143 255
-0.53884071 0.22587177 1.5810001 162 172 155 255
-0.5332045 0.2253121 1.577 155 165 148 255
-0.52826107 0.22503841 1.575 148 158 141 255
-0.52266312 0.22447914 1.5710001 167 177 160 255
-0.51939678 0.22492033 1.5740001 151 162 143 255
-0.51480526 0.2247902 1.5730001 147 158 139 255
-0.51086825 0.22494608 1.5740001 152 161 142 255
-0.5056383 0.22453052 1.5710001 147 156 135 255
-0.50074375 0.22425801 1.5690001 151 162 143 255
-0.49617642 0.22412862 1.5680001 151 162 143 255
-0.49161449 0.22399943 1.567 157 168 149 255
-0.48705775 0.2238704 1.5660001 166 177 158 255
-0.48219806 0.22359854 1.5640001 170 181 162 255
-0.47704342 0.22318389 1.5610001 165 176 157 255
-0.47220761 0.22291227 1.559 148 157 136 255
-0.46708241 0.22249781 1.5560001 133 142 121 255
-0.4625681 0.22236946 1.5550001 134 144 121 255
-0.45776415 0.2220982 1.5530001 140 150 127 255
-0.45326284 0.22197007 1.552 147 159 136 255
-0.44847733 0.22169901 1.5500001 143 153 130 255
-0.44341561 0.22128499 1.5470001 140 152 129 255
-0.43893775 0.22115713 1.5460001 136 146 123 255
-0.43474615 0.22117244 1.5460001 130 140 115 255
-0.43083254 0.22133087 1.5470001 127 137 114 255
-0.42691323 0.22148946 1.5480001 145 155 132 255
-0.42244184 0.22136198 1.5470001 150 159 138 255
-0.41770515 0.22109146 1.5450001 151 160 139 255
-0.41324642 0.22096404 1.544 141 150 131 255
-0.40905765 0.22097982 1.544 140 149 130 255
-0.40460616 0.22085255 1.5430001 137 146 127 255
-0.40067855 0.22101158 1.544 133 144 125 255
-0.39571789 0.22059807 1.5410001 137 148 129 255
-0.3912811 0.22047086 1.5400001 128 139 118 255
-0.38659784 0.22020054 1.5380001 144 153 132 255
-0.38291949 0.2205029 1.5400001 139 148 127 255
-0.37849191 0.22037573 1.539 138 147 126 255
-0.37382594 0.22010538 1.5370001 154 163 142 255
-0.36965126 0.22012141 1.5370001 143 152 131 255
-0.36500046 0.21985105 1.5350001 149 160 139 255
-0.36106506 0.22001031 1.536 147 159 136 255
-0.35689124 0.22002633 1.536 146 158 135 255
-0.35248724 0.21989913 1.5350001 146 158 135 255
-0.34808797 0.21977186 1.534 142 154 131 255
-0.34369352 0.21964456 1.5330001 146 156 133 255
-0.33952531 0.21966051 1.5330001 147 157 134 255
-0.33557519 0.21981968 1.534 145 154 133 255
-0.33140296 0.21983555 1.534 144 153 134 255
-0.32723007 0.21985137 1.534 141 150 131 255
-0.32284585 0.21972382 1.5330001 143 152 133 255
-0.31846642 0.21959619 1.5320001 139 148 129 255
-0.31429687 0.21961182 1.5320001 143 154 135 255
-0.31012669 0.2196274 1.5320001 142 153 134 255
-0.30575606 0.21949953 1.531 142 153 134 255
-0.3013902 0.21937157 1.5300001 144 155 134 255
-0.29741761 0.2195303 1.531 147 158 137 255
-0.29324734 0.21954554 1.531 144 154 131 255
-0.28945401 0.21984752 1.5330001 140 150 127 255
-0.28527686 0.2198626 1.5330001 135 146 125 255
-0.28128237 0.22002099 1.534 136 147 126 255
-0.27728173 0.2201793 1.5350001 137 148 129 255
-0.27291912 0.22005065 1.534 153 164 145 255
-0.2689116 0.22020875 1.5350001 146 157 138 255
-0.26455298 0.22007979 1.534 145 156 137 255
-0.26036891 0.22009422 1.534 148 159 138 255
-0.25585014 0.21982151 1.5320001 135 145 122 255
-0.25134155 0.21954866 1.5300001 138 148 123 255
-0.24700467 0.21941908 1.529 137 147 121 255
-0.24283144 0.21943291 1.529 140 150 124 255
-0.23834535 0.2191595 1.5270001 141 151 125 255
-0.2344829 0.21946004 1.529 139 149 123 255
-0.23030758 0.21947339 1.529 139 149 124 255
-0.22642739 0.21977368 1.531 137 147 124 255
-0.22210014 0.21964316 1.5300001 132 144 121 255
-0.21834742 0.22008671 1.5330001 129 141 118 255
-0.21471727 0.22067373 1.5370001 124 135 114 255
-0.21147554 0.22169136 1.544 121 132 113 255
-0.20846337 0.2229961 1.5530001 119 130 111 255
0.27581045 0.23675208 1.6500001 98 106 99 255
0.28048155 0.2368802 1.651 73 81 74 255
0.2856752 0.23743856 1.6550001 71 79 71 255
0.28966251 0.23699249 1.6520001 70 78 70 255
0.29345462 0.23640293 1.6480001 67 75 67 255
0.29668179 0.23538296 1.641 72 80 72 255
0.30060413 0.23493676 1.6380001 78 86 78 255
0.30488184 0.23477735 1.6370001 86 94 86 255
0.30990922 0.23519148 1.6400001 79 87 80 255
0.31476051 0.23546202 1.6420001 76 84 77 255
0.31981638 0.23587586 1.6450001 77 85 78 255
0.32370496 0.23542924 1.6420001 74 82 75 255
0.32777631 0.23512596 1.6400001 73 81 74 255
0.33203858 0.23496598 1.6390001 75 83 76 255
0.33650002 0.23494931 1.6390001 74 82 74 255
0.34116879 0.23507594 1.6400001 74 82 74 255
0.34542069 0.23491579 1.6390001 76 84 77 255
0.35009339 0.23504226 1.6400001 73 81 74 255
0.35433844 0.23488201 1.6390001 72 80 73 255
0.35857734 0.23472178 1.6380001 75 83 76 255
0.36325327 0.23484804 1.6390001 75 83 76 255
0.36748531 0.23468775 1.6380001 72 80 73 255
0.37171116 0.23452742 1.6370001 75 83 76 255
0.37570116 0.23422383 1.6350001 75 83 76 255
0.38037714 0.23435001 1.636 72 80 73 255
0.38482255 0.23433292 1.636 72 80 72 255
0.38998124 0.23474552 1.6390001 72 80 72 255
0.39419296 0.23458521 1.6380001 72 80 72 255
0.39937195 0.23499767 1.641 72 80 72 255
0.40407452 0.23512375 1.6420001 73 81 73 255
0.41002592 0.23596576 1.6480001 72 80 72 255
0.41500327 0.23623496 1.6500001 73 82 71 255
0.42024505 0.23664731 1.6530001 69 78 67 255
0.42396086 0.23620073 1.6500001 67 76 65 255
0.42791954 0.23589742 1.6480001 70 79 68 255
0.43186671 0.23559415 1.646 70 78 70 255
0.43633273 0.23557727 1.646 64 72 64 255
0.44053039 0.23541735 1.6450001 63 71 63 255
0.4441812 0.23497133 1.6420001 63 71 63 255
0.44781518 0.23452541 1.6390001 67 75 68 255
0.45170835 0.23422277 1.6370001 62 70 63 255
0.45531157 0.23377714 1.6340001 68 76 68 255
0.45889807 0.2333317 1.631 67 75 67 255
0.46246797 0.23288642 1.628 70 78 70 255
0.46659479 0.23272741 1.6270001 68 76 68 255
0.47071567 0.23256852 1.626 68 76 68 255
0.47512314 0.23255278 1.626 72 80 72 255
0.47894046 0.23225118 1.6240001 71 79 71 255
0.48274657 0.23194978 1.6220001 71 79 71 255
0.4859409 0.23136254 1.618 74 82 75 255
0.49002245 0.23120452 1.6170001 79 87 80 255
0.49348688 0.23076071 1.6140001 78 86 79 255
0.49786022 0.23074602 1.6140001 74 82 75 255
0.50316685 0.23116037 1.6170001 76 84 77 255
0.50911742 0.23186076 1.6220001 77 85 78 255
0.51572818 0.23284711 1.6290001 80 88 81 255
0.52301532 0.23411946 1.6380001 83 91 84 255
0.52970707 0.23510595 1.6450001 84 92 84 255
0.5364368 0.23609255 1.6520001 86 95 84 255
0.54320443 0.23707928 1.659 82 92 81 255
0.55133057 0.23863772 1.6700001 68 78 67 255
0.55885065 0.23991047 1.6790001 58 68 57 255
0.5664196 0.24118328 1.6880001 89 99 90 255
0.57429785 0.23871683 1.6710001 161 169 162 255
0.57224423 0.23599072 1.6520001 98 106 99 255
0.57183355 0.23397937 1.6380001 78 84 77 255
0.57486534 0.23339689 1.6340001 46 52 45 255
0.57858485 0.23310044 1.6320001 38 46 39 255
0.5869379 0.23466104 1.6430001 81 89 82 255
0.60219002 0.23893538 1.6730001 76 84 77 255
0.6118027 0.24092467 1.687 165 173 166 255
0.6119923 0.2392012 1.6750001 60 68 61 255
0.61395758 0.23819219 1.6680001 64 72 65 255
0.61736882 0.23775482 1.6650001 73 81 73 255
0.62039077 0.23717503 1.6610001 76 84 76 255
0.62414414 0.23688123 1.659 76 84 76 255
0.62750852 0.23644511 1.6560001 82 90 82 255
0.63162053 0.23629488 1.6550001 82 90 82 255
0.63495916 0.23585953 1.6520001 91 96 85 255
0.64099205 0.23642404 1.6560001 35 40 29 255
0.64626783 0.23670338 1.6580001 22 25 13 255
0.64723778 0.23541273 1.649 31 34 20 255
0.64815986 0.23412257 1.6400001 27 29 12 255
0.65301353 0.23426047 1.641 22 26 9 255
0.6566717 0.23397057 1.6390001 24 28 11 255
0.65749651 0.23268187 1.6300001 23 27 10 255
0.66030395 0.23210743 1.626 22 26 9 255
0.66431731 0.23196171 1.6250001 21 25 8 255
0.6683265 0.23181643 1.6240001 23 27 10 255
0.67026025 0.23095794 1.618 23 27 10 255
0.67257977 0.23024274 1.613 23 27 10 255
0.67487341 0.22952801 1.608 22 28 11 255
0.68094319 0.23009847 1.6120001 23 29 12 255
0.68533564 0.2300985 1.6120001 26 32 15 255
0.69315261 0.23124099 1.6200001 24 30 13 255
0.69240284 0.22952916 1.608 22 27 13 255
0.68985617 0.22724691 1.5920001 25 30 16 255
0.69027615 0.22596435 1.5830001 25 31 14 255
0.69766933 0.22696626 1.59 24 30 13 255
0.70157063 0.22682682 1.5890001 26 32 15 255
0.70635676 0.22697341 1.59 26 32 15 255
0.71383238 0.22797716 1.5970001 19 29 12 255
0.71864998 0.22812498 1.598 9 19 4 255
0.72257024 0.2279879 1.5970001 124 134 123 255
0.72466648 0.22728038 1.5920001 142 153 146 255
0.72490579 0.22600237 1.5830001 147 158 153 255
0.72740149 0.22543877 1.5790001 156 166 163 255
0.72848737 0.22444743 1.572 156 166 163 255
0.72907114 0.22331391 1.5640001 162 172 171 255
0.72820675 0.22175257 1.5530001 164 174 171 255
0.72964275 0.22090574 1.5470001 166 176 175 255
0.7315228 0.22020228 1.5420001 166 176 175 255
0.73242366 0.2192138 1.5350001 169 177 176 255
0.73328876 0.21822596 1.5280001 172 180 179 255
0.73460072 0.21738146 1.5220001 173 180 182 255
0.7339409 0.21596625 1.5120001 173 180 182 255
0.73322874 0.21455155 1.5020001 176 182 184 255
-0.72471452 0.22991678 1.6420001 189 195 178 255
-0.71672148 0.22879353 1.6340001 154 160 142 255
-0.71051747 0.22823091 1.6300001 118 125 104 255
-0.70606989 0.22822894 1.6300001 115 122 101 255
-0.70076317 0.22794752 1.628 116 123 102 255
-0.69546908 0.22766662 1.626 166 173 152 255
-0.69018757 0.22738624 1.6240001 176 185 166 255
-0.68491852 0.22710641 1.6220001 133 142 123 255
-0.67924237 0.22668703 1.6190001 169 178 159 255
-0.67358387 0.22626816 1.6160001 169 178 159 255
-0.6679433 0.22584981 1.613 164 173 154 255
-0.66149759 0.22515188 1.608 161 172 153 255
-0.65589762 0.22473443 1.605 160 171 152 255
-0.65072131 0.22445749 1.603 163 174 155 255
-0.64475048 0.2239009 1.5990001 164 173 154 255
-0.63960356 0.22362483 1.5970001 143 154 135 255
-0.63526416 0.22362921 1.5970001 149 158 139 255
-0.63092583 0.22363403 1.5970001 154 165 146 255
-0.62580365 0.22335918 1.595 159 169 152 255
-0.62069339 0.22308476 1.5930001 156 166 149 255
-0.61636871 0.2230908 1.5930001 165 175 158 255
-0.61166072 0.22295719 1.5920001 163 174 155 255
-0.60734034 0.22296397 1.5920001 157 168 149 255
-0.60226309 0.22269101 1.59 153 162 143 255
-0.59757358 0.2225585 1.5890001 142 151 132 255
-0.59214336 0.22214617 1.5860001 141 150 131 255
-0.58784205 0.22215439 1.5860001 145 156 137 255
-0.58317327 0.22202288 1.585 146 157 138 255
-0.57924098 0.22217184 1.5860001 149 160 141 255
-0.57421619 0.22190088 1.5840001 161 172 153 255
-0.56956249 0.22177032 1.5830001 156 167 148 255
-0.56491464 0.22164002 1.582 155 164 145 255
-0.56062704 0.22165015 1.582 150 159 140 255
-0.55528468 0.22124022 1.5790001 151 160 141 255
-0.55065697 0.22111081 1.5780001 151 162 143 255
-0.54603475 0.22098163 1.577 154 165 146 255
-0.54176176 0.22099283 1.577 159 169 152 255
-0.53748906 0.22100431 1.577 152 162 145 255
-0.5325402 0.22073573 1.575 150 160 143 255
-0.52726692 0.2203272 1.572 160 171 152 255
-0.52201003 0.21991892 1.5690001 151 162 143 255
-0.51874942 0.2203518 1.572 149 160 141 255
-0.51481807 0.22050464 1.5730001 148 159 140 255
-0.51023203 0.22037728 1.572 156 167 148 255
-0.5050078 0.21996981 1.5690001 159 170 151 255
-0.49916145 0.219282 1.5640001 164 175 154 255
-0.49429134 0.21901494 1.562 170 181 160 255
-0.48943213 0.21874806 1.5600001 168 180 157 255
-0.48520553 0.21876179 1.5600001 170 182 159 255
-0.48036221 0.21849521 1.5580001 135 146 125 255
-0.47552961 0.21822879 1.5560001 128 137 116 255
-0.47131333 0.21824294 1.5560001 128 137 116 255
-0.46679673 0.21811703 1.5550001 140 149 128 255
-0.46228519 0.21799122 1.554 152 161 140 255
-0.45748413 0.21772526 1.552 145 155 132 255
-0.45298564 0.21759969 1.5510001 143 153 130 255
-0.44820294 0.21733393 1.549 144 153 132 255
-0.44343066 0.21706821 1.5470001 140 149 128 255
-0.43923682 0.21708323 1.5470001 140 149 128 255
-0.43448013 0.21681771 1.5450001 139 148 127 255
-0.43029094 0.21683294 1.5450001 148 157 136 255
-0.42582548 0.21670789 1.544 148 158 135 255
-0.42136502 0.21658289 1.5430001 145 154 133 255
-0.41690964 0.21645796 1.5420001 140 149 128 255
-0.41272676 0.21647348 1.5420001 140 149 130 255
-0.4085435 0.21648908 1.5420001 137 146 127 255
-0.4043597 0.21650469 1.5420001 129 138 119 255
-0.40043488 0.21666081 1.5430001 133 142 123 255
-0.39547697 0.21625531 1.5400001 151 162 143 255
-0.39104289 0.21613061 1.539 141 152 133 255
-0.38661376 0.21600598 1.5380001 145 156 137 255
-0.38243812 0.21602176 1.5380001 150 161 142 255
-0.37801597 0.21589716 1.5370001 148 157 138 255
-0.37311223 0.21549155 1.534 153 162 141 255
-0.36894569 0.21550736 1.534 136 147 126 255
-0.36454082 0.2153827 1.5330001 151 162 141 255
-0.36084595 0.21567954 1.5350001 145 156 135 255
-0.35644248 0.21555483 1.534 145 156 135 255
-0.35204387 0.21543014 1.5330001 141 152 131 255
-0.34719616 0.21502431 1.5300001 140 151 130 255
-0.34281254 0.21489948 1.529 146 158 135 255
-0.33865514 0.21491516 1.529 143 153 130 255
-0.33471593 0.21507138 1.5300001 147 156 135 255
-0.33077058 0.21522759 1.531 142 151 130 255
-0.32639244 0.2151026 1.5300001 139 148 127 255
-0.32180843 0.21483693 1.5280001 142 151 132 255
-0.31744254 0.21471179 1.5270001 141 150 131 255
-0.31328657 0.21472718 1.5270001 144 153 134 255
-0.30892748 0.21460187 1.526 142 153 134 255
-0.30477279 0.21461709 1.526 143 152 133 255
-0.3002235 0.21435095 1.524 141 150 129 255
-0.29665568 0.21478799 1.5270001 140 149 128 255
-0.29249626 0.21480301 1.5270001 142 151 130 255
-0.2885249 0.21495862 1.5280001 146 156 133 255
-0.28417519 0.21483277 1.5270001 141 153 130 255
-0.28038031 0.21512887 1.529 140 151 130 255
-0.27639323 0.21528421 1.5300001 135 146 127 255
-0.27204412 0.21515803 1.529 138 149 130 255
-0.26787493 0.21517242 1.529 138 149 130 255
-0.26353258 0.21504599 1.5280001 147 158 139 255
-0.25936469 0.21506013 1.5280001 146 157 136 255
-0.25502917 0.21493341 1.5270001 148 158 135 255
-0.2508626 0.21494727 1.5270001 136 146 121 255
-0.24653378 0.21482025 1.526 139 149 123 255
-0.24220979 0.21469308 1.5250001 144 154 128 255
-0.23789053 0.21456571 1.524 151 161 135 255
-0.23388278 0.2147198 1.5250001 147 157 131 255
-0.22956757 0.2145921 1.524 140 150 127 255
-0.22555302 0.21474589 1.5250001 134 144 119 255
-0.2210968 0.21447706 1.5230001 134 146 121 255
-0.21722059 0.21477135 1.5250001 134 146 121 255
-0.21333276 0.21506548 1.5270001 122 134 111 255
-0.20957036 0.21550037 1.5300001 120 132 109 255
-0.20605938 0.2162168 1.5350001 130 141 120 255
-0.20291494 0.21735574 1.5430001 105 116 97 255
0.25346106 0.23245974 1.651 68 76 69 255
0.2579689 0.23244536 1.651 54 62 55 255
0.2619991 0.23200849 1.6480001 53 61 54 255
0.26601216 0.23157148 1.6450001 55 63 56 255
0.26984358 0.2309936 1.641 58 66 59 255
0.2744883 0.23111942 1.6420001 89 97 90 255
0.27913773 0.2312451 1.6430001 71 79 72 255
0.28379187 0.2313706 1.6440001 74 82 74 255
0.28809997 0.23121452 1.6430001 76 84 76 255
0.29204574 0.23077688 1.6400001 75 83 75 255
0.29579356 0.23019844 1.636 78 86 78 255
0.29933524 0.22947927 1.631 77 85 78 255
0.30378029 0.22946358 1.631 87 95 88 255
0.3087914 0.22986977 1.6340001 77 85 78 255
0.31381819 0.23027581 1.6370001 76 84 77 255
0.31847173 0.23040037 1.6380001 75 81 74 255
0.32273555 0.2302435 1.6370001 74 80 73 255
0.3267934 0.22994599 1.6350001 75 83 76 255
0.33083954 0.22964838 1.6330001 76 84 77 255
0.3350794 0.22949138 1.6320001 76 84 77 255
0.33993721 0.22975613 1.6340001 74 82 74 255
0.34459436 0.2298802 1.6350001 72 80 72 255
0.34946972 0.23014478 1.6370001 74 82 75 255
0.35327423 0.22970636 1.6340001 74 82 75 255
0.35771847 0.22968966 1.6340001 72 80 73 255
0.36149707 0.22925128 1.631 72 80 73 255
0.36615607 0.22937509 1.6320001 71 79 72 255
0.37036568 0.22921777 1.631 72 80 73 255
0.37502876 0.22934151 1.6320001 72 80 73 255
0.37946403 0.22932467 1.6320001 71 79 71 255
0.38436911 0.22958885 1.6340001 71 79 71 255
0.38880849 0.22957198 1.6340001 68 76 68 255
0.39300656 0.22941463 1.6330001 69 77 69 255
0.39768535 0.22953829 1.6340001 68 76 68 255
0.40236887 0.22966193 1.6350001 68 76 68 255
0.40755486 0.23006645 1.6380001 72 81 70 255
0.41275656 0.23047096 1.641 73 82 71 255
0.41771963 0.23073499 1.6430001 71 80 69 255
0.42217916 0.2307182 1.6430001 70 79 68 255
0.4263784 0.23056097 1.6420001 73 82 71 255
0.4310964 0.23068467 1.6430001 73 81 73 255
0.43608439 0.23094881 1.6450001 69 77 69 255
0.44027928 0.23079179 1.6440001 66 74 66 255
0.4439272 0.23035416 1.641 64 72 64 255
0.44783163 0.230057 1.6390001 63 71 64 255
0.45172465 0.22975996 1.6370001 61 69 62 255
0.45560646 0.22946306 1.6350001 63 71 63 255
0.45891422 0.22888562 1.631 67 75 67 255
0.46276799 0.22858904 1.6290001 74 80 72 255
0.46689734 0.22843289 1.628 68 76 68 255
0.47131041 0.22841719 1.628 68 76 68 255
0.47513872 0.22812103 1.626 66 74 66 255
0.47895586 0.22782505 1.6240001 69 77 69 255
0.48305941 0.22766952 1.623 74 82 74 255
0.486857 0.22737388 1.6210001 76 84 76 255
0.49034038 0.22693817 1.618 77 85 78 255
0.49380741 0.22650269 1.6150001 75 83 76 255
0.49694934 0.22592717 1.6110001 79 87 80 255
0.50100303 0.2257726 1.6100001 77 85 78 255
0.50567889 0.22589865 1.6110001 73 81 74 255
0.5109933 0.22630534 1.6140001 74 82 75 255
0.51696241 0.22699255 1.6190001 78 86 79 255
0.52424663 0.22824064 1.628 82 90 82 255
0.53222901 0.2297692 1.6390001 85 94 83 255
0.54027104 0.23129781 1.6500001 87 95 87 255
0.54804248 0.23268628 1.6600001 87 96 85 255
0.55520242 0.23379451 1.6680001 87 96 85 255
0.56139916 0.23448238 1.6730001 56 65 54 255
0.5672847 0.23503028 1.677 28 36 29 255
0.57080531 0.2345974 1.674 168 176 169 255
0.56949818 0.23220295 1.6570001 69 77 70 255
0.57017744 0.23064978 1.646 82 88 81 255
0.57149559 0.22937728 1.6370001 80 86 79 255
0.5745244 0.22880578 1.6330001 38 44 37 255
0.57682276 0.22795443 1.6270001 22 28 20 255
0.58230418 0.22836433 1.6300001 81 89 82 255
0.59068179 0.22989525 1.641 82 90 82 255
0.60020745 0.23184665 1.6550001 69 77 70 255
0.60469437 0.23183706 1.6550001 71 79 72 255
0.60770935 0.2312675 1.651 66 74 66 255
0.61107403 0.23083839 1.6480001 67 75 67 255
0.61404949 0.23026958 1.6440001 64 73 62 255
0.61813265 0.2301214 1.6430001 76 85 74 255
0.62183201 0.22983351 1.641 79 88 77 255
0.62590307 0.22968611 1.6400001 79 87 79 255
0.62958497 0.22939901 1.6380001 82 87 76 255
0.63403112 0.22939244 1.6380001 90 95 84 255
0.64120644 0.23036651 1.6450001 15 18 6 255
0.64606589 0.23050079 1.646 35 36 22 255
0.6453985 0.22867496 1.6330001 27 29 12 255
0.64744705 0.22782989 1.6270001 24 28 11 255
0.65066606 0.22740534 1.6240001 22 26 9 255
0.65427321 0.22712128 1.6220001 23 26 12 255
0.65502805 0.22585753 1.613 22 26 9 255
0.65941429 0.22585443 1.613 21 25 8 255
0.66339046 0.22571184 1.6120001 19 23 6 255
0.66736233 0.22556965 1.6110001 22 26 9 255
0.67049617 0.22514795 1.608 22 26 9 255
0.67361516 0.22472674 1.605 22 26 9 255
0.67967623 0.22528614 1.6090001 20 26 9 255
0.68405992 0.22528601 1.6090001 21 26 12 255
0.69015676 0.22584642 1.613 22 27 13 255
0.68981797 0.22430713 1.6020001 22 27 13 255
0.69028765 0.2230484 1.5930001 23 28 14 255
0.69201809 0.22221024 1.5870001 22 28 11 255
0.69678891 0.22235271 1.5880001 24 30 13 255
0.70156717 0.22249579 1.5890001 25 31 14 255
0.70635283 0.22263943 1.59 29 33 16 255
0.71382779 0.22362383 1.5970001 20 28 11 255
0.71954417 0.22404872 1.6 14 24 9 255
0.72211194 0.22349398 1.5960001 29 39 28 255
0.72374964 0.22265974 1.59 144 156 147 255
0.72489876 0.22168604 1.5830001 143 156 151 255
0.72785449 0.22127306 1.58 150 163 159 255
0.72801572 0.2200204 1.5710001 154 164 163 255
0.72859603 0.21890831 1.5630001 157 167 166 255
0.72819734 0.21751671 1.5530001 161 171 170 255
0.73057592 0.21696597 1.549 164 174 173 255
0.73198646 0.21613574 1.5430001 169 177 176 255
0.7319352 0.21488582 1.534 171 179 178 255
0.73327678 0.21405672 1.5280001 172 180 179 255
0.73410553 0.2130881 1.521 173 180 182 255
0.73441315 0.21197996 1.5130001 175 182 184 255
-0.74887627 0.23011719 1.6760001 137 142 128 255
-0.72875267 0.22530761 1.641 186 192 175 255
-0.72073907 0.22420581 1.6330001 148 154 136 255
-0.71496427 0.22379105 1.6300001 123 129 111 255
-0.70920771 0.22337686 1.6270001 121 127 109 255
-0.70433557 0.22323778 1.626 142 148 130 255
-0.69817948 0.22268742 1.6220001 154 163 144 255
-0.6916191 0.22200029 1.6170001 177 186 167 255
-0.68593764 0.22158825 1.6140001 155 163 146 255
-0.68069631 0.22131401 1.6120001 169 179 162 255
-0.67546749 0.22104031 1.6100001 163 174 155 255
-0.66983402 0.22062972 1.6070001 160 171 152 255
-0.66421837 0.22021966 1.6040001 157 168 149 255
-0.65862036 0.21981004 1.6010001 156 167 148 255
-0.65263128 0.21926357 1.5970001 156 167 148 255
-0.64707112 0.21885483 1.5940001 162 173 154 255
-0.64152849 0.21844654 1.5910001 151 162 143 255
-0.63680422 0.21831326 1.59 154 165 146 255
-0.63248432 0.21831769 1.59 159 170 151 255
-0.62895554 0.2185972 1.5920001 159 170 151 255
-0.62423974 0.21846515 1.5910001 164 175 156 255
-0.61953038 0.21833351 1.59 152 163 144 255
-0.61482728 0.21820225 1.5890001 147 158 137 255
-0.61013043 0.21807133 1.5880001 145 156 137 255
-0.60543978 0.21794082 1.5870001 147 156 137 255
-0.60075527 0.21781066 1.5860001 141 150 131 255
-0.59645307 0.2178182 1.5860001 143 152 133 255
-0.59177804 0.21768869 1.585 146 155 136 255
-0.58673847 0.21742219 1.5830001 148 159 140 255
-0.58207816 0.21729337 1.582 151 162 143 255
-0.57778907 0.21730222 1.582 156 167 148 255
-0.57313806 0.21717401 1.5810001 154 165 146 255
-0.5688526 0.21718347 1.5810001 146 157 138 255
-0.56456751 0.21719323 1.5810001 156 165 146 255
-0.56028289 0.2172033 1.5810001 157 166 147 255
-0.55529523 0.21693888 1.5790001 160 169 150 255
-0.55031872 0.21667469 1.577 161 170 151 255
-0.54569954 0.21654817 1.5760001 157 168 149 255
-0.54074246 0.21628445 1.5740001 156 166 149 255
-0.53647816 0.21629584 1.5740001 155 165 148 255
-0.53153759 0.21603258 1.572 157 167 150 255
-0.52660811 0.21576957 1.5700001 150 161 142 255
-0.52135688 0.21536931 1.567 155 166 147 255
-0.51777196 0.2156565 1.5690001 167 178 159 255
-0.51352161 0.21566899 1.5690001 168 179 160 255
-0.50862205 0.21540675 1.567 169 180 161 255
-0.50308961 0.2148698 1.5630001 166 177 158 255
-0.49789795 0.2144704 1.5600001 161 172 151 255
-0.49272245 0.21407115 1.557 153 164 143 255
-0.48787692 0.21380955 1.5550001 135 147 124 255
-0.4836641 0.21382311 1.5550001 123 135 112 255
-0.47914279 0.2136993 1.554 130 139 118 255
-0.47462675 0.21357563 1.5530001 136 145 124 255
-0.47072169 0.21372718 1.554 153 162 141 255
-0.46621066 0.21360382 1.5530001 155 164 143 255
-0.46170467 0.21348056 1.552 149 158 137 255
-0.45661429 0.2130823 1.549 148 158 135 255
-0.45212412 0.21295926 1.5480001 147 157 134 255
-0.44763896 0.21283633 1.5470001 144 154 131 255
-0.44315895 0.21271352 1.5460001 140 150 127 255
-0.43896794 0.21272835 1.5460001 134 145 124 255
-0.43449521 0.2126057 1.5450001 139 150 129 255
-0.4297491 0.2123455 1.5430001 160 171 152 255
-0.42501333 0.21208535 1.5410001 146 157 138 255
-0.42083415 0.21210051 1.5410001 129 140 121 255
-0.41638428 0.21197812 1.5400001 149 158 139 255
-0.4119392 0.21185574 1.539 148 157 136 255
-0.40749919 0.21173345 1.5380001 155 165 142 255
-0.40332627 0.21174887 1.5380001 163 173 150 255
-0.39967191 0.21203968 1.5400001 148 158 135 255
-0.394979 0.21177985 1.5380001 138 147 126 255
-0.39080444 0.21179536 1.5380001 147 158 139 255
-0.38612664 0.2115355 1.536 153 164 145 255
-0.38195649 0.21155109 1.536 134 145 126 255
-0.3770479 0.21115352 1.5330001 134 145 126 255
-0.3723982 0.21089359 1.531 158 169 150 255
-0.36799935 0.21077144 1.5300001 131 142 123 255
-0.36408088 0.21092477 1.531 152 163 144 255
-0.35968626 0.21080261 1.5300001 142 153 134 255
-0.35576108 0.21095596 1.531 142 153 132 255
-0.35114092 0.21069595 1.529 145 156 135 255
-0.34653097 0.21043587 1.5270001 132 143 122 255
-0.34215546 0.21031351 1.526 150 159 138 255
-0.33822772 0.21046682 1.5270001 135 147 124 255
-0.3342939 0.21062009 1.5280001 139 150 129 255
-0.32992184 0.21049762 1.5270001 141 150 129 255
-0.32555455 0.21037512 1.526 141 150 129 255
-0.32140255 0.21039039 1.526 141 152 131 255
-0.31704208 0.21026775 1.5250001 144 155 136 255
-0.31289151 0.21028294 1.5250001 144 155 136 255
-0.30853775 0.21016012 1.524 140 151 132 255
-0.30418876 0.21003723 1.5230001 133 144 125 255
-0.30004147 0.21005215 1.5230001 139 150 129 255
-0.2960878 0.21020493 1.524 142 153 132 255
-0.2919364 0.21021968 1.524 139 150 129 255
-0.28759551 0.21009645 1.5230001 144 155 134 255
-0.28344542 0.21011104 1.5230001 141 152 131 255
-0.27947798 0.21026345 1.524 142 153 134 255
-0.27532378 0.21027787 1.524 140 151 132 255
-0.2711688 0.2102921 1.524 135 146 125 255
-0.26701313 0.2103063 1.524 135 146 125 255
-0.26285675 0.21032034 1.524 128 139 118 255
-0.25869972 0.21033426 1.524 136 146 121 255
-0.25454193 0.21034804 1.524 139 149 124 255
-0.25038347 0.21036172 1.524 146 156 131 255
-0.24606268 0.21023719 1.5230001 144 154 129 255
-0.24174669 0.21011253 1.5220001 143 153 128 255
-0.23743546 0.20998769 1.521 143 153 130 255
-0.23343576 0.21013883 1.5220001 142 152 129 255
-0.22912858 0.21001366 1.521 143 153 130 255
-0.22497417 0.21002641 1.521 129 139 116 255
-0.22052871 0.20976284 1.5190001 139 149 126 255
-0.21652083 0.20991334 1.5200001 129 139 116 255
-0.21250677 0.2100637 1.521 130 140 117 255
-0.20834966 0.21007578 1.521 130 140 117 255
-0.20446043 0.21036397 1.5230001 126 136 113 255
-0.20095414 0.21106638 1.5280001 114 124 101 255
-0.19741984 0.21176867 1.5330001 100 110 87 255
-0.19410963 0.21274714 1.5400001 125 136 115 255
0.24282835 0.22645769 1.6400001 115 123 116 255
0.24730778 0.22644393 1.6400001 94 101 97 255
0.25224707 0.22684421 1.6430001 78 86 79 255
0.25704575 0.2271062 1.6450001 57 65 58 255
0.26121867 0.2268158 1.6430001 61 69 62 255
0.26489472 0.22611116 1.6380001 60 68 61 255
0.26854277 0.22540645 1.6330001 99 107 100 255
0.27266428 0.22511575 1.631 80 88 81 255
0.27728385 0.22523899 1.6320001 73 81 73 255
0.28225338 0.22563809 1.6350001 70 78 70 255
0.28653705 0.22548501 1.6340001 74 82 74 255
0.29063645 0.22519386 1.6320001 78 86 79 255
0.29454336 0.22476462 1.6290001 77 85 78 255
0.29824963 0.22419739 1.6250001 75 83 76 255
0.30249211 0.22404398 1.6240001 88 96 89 255
0.30786231 0.22471817 1.6290001 71 79 72 255
0.31268385 0.22497833 1.631 67 75 68 255
0.31732109 0.22510044 1.6320001 69 75 68 255
0.32117438 0.22467075 1.6290001 74 80 73 255
0.32521048 0.22437897 1.6270001 74 82 75 255
0.32943755 0.22422503 1.626 77 85 78 255
0.33386374 0.22420892 1.626 72 80 73 255
0.33891332 0.22460641 1.6290001 73 81 74 255
0.34334621 0.22459014 1.6290001 72 80 72 255
0.34799182 0.2247117 1.6300001 75 83 75 255
0.35220975 0.22455744 1.6290001 74 82 75 255
0.35664043 0.22454104 1.6290001 68 76 69 255
0.36084872 0.22438672 1.628 70 78 71 255
0.36505091 0.22423244 1.6270001 69 77 69 255
0.36924684 0.22407809 1.626 69 77 69 255
0.37389639 0.22419937 1.6270001 73 81 73 255
0.37855065 0.22432064 1.628 71 79 71 255
0.38368011 0.22471738 1.631 71 79 71 255
0.38811138 0.22470078 1.631 68 76 68 255
0.39230129 0.2245464 1.6300001 69 77 69 255
0.39648512 0.22439207 1.6290001 68 76 68 255
0.40090898 0.22437549 1.6290001 68 76 68 255
0.40558103 0.22449666 1.6300001 74 81 70 255
0.41050947 0.22475556 1.6320001 72 79 68 255
0.41519386 0.22487673 1.6330001 72 79 68 255
0.41988313 0.22499792 1.6340001 68 77 66 255
0.42509666 0.22539453 1.6370001 69 78 67 255
0.42980105 0.22551575 1.6380001 69 76 65 255
0.43477541 0.22577468 1.6400001 67 73 65 255
0.43842101 0.22534533 1.6370001 67 75 67 255
0.44313201 0.22546671 1.6380001 66 74 66 255
0.44730136 0.22531286 1.6370001 64 72 65 255
0.45174077 0.22529674 1.6370001 64 72 65 255
0.45534384 0.22486788 1.6340001 60 68 60 255
0.45893016 0.22443917 1.631 66 72 64 255
0.46306786 0.22428578 1.6300001 69 75 68 255
0.46719983 0.22413258 1.6290001 65 71 63 255
0.47161546 0.22411704 1.6290001 66 72 64 255
0.47515413 0.22368892 1.626 67 73 66 255
0.47867617 0.22326098 1.623 69 77 69 255
0.48277688 0.22310835 1.6220001 73 81 73 255
0.48657158 0.22281834 1.6200001 73 81 73 255
0.49065819 0.22266603 1.6190001 75 83 75 255
0.49412769 0.22223888 1.6160001 74 82 74 255
0.49758065 0.22181191 1.613 76 84 77 255
0.50101715 0.2213852 1.6100001 77 85 78 255
0.50475115 0.22109617 1.608 72 80 73 255
0.50847423 0.22080737 1.6060001 72 80 73 255
0.51314431 0.22093128 1.6070001 78 86 79 255
0.51878572 0.22146772 1.6110001 76 84 76 255
0.52672189 0.22296658 1.6220001 81 89 81 255
0.53570008 0.22487782 1.636 84 92 84 255
0.54508424 0.22692651 1.651 82 90 82 255
0.55221963 0.22801313 1.659 75 84 73 255
0.55872738 0.228825 1.6650001 56 65 54 255
0.56357622 0.22894987 1.6660001 36 44 37 255
0.56774873 0.22880019 1.6650001 45 53 46 255
0.56607306 0.2263148 1.6470001 56 64 57 255
0.56707126 0.22492912 1.6370001 80 86 79 255
0.56941211 0.2240935 1.631 81 87 80 255
0.57312793 0.22380777 1.6290001 21 27 19 255
0.57612425 0.2232476 1.6250001 22 28 20 255
0.58017093 0.2230999 1.6240001 55 61 53 255
0.58493245 0.22322726 1.6250001 77 85 77 255
0.59223855 0.22431648 1.6330001 79 87 79 255
0.5988577 0.22513118 1.6390001 77 85 77 255
0.6047737 0.22567144 1.6430001 68 76 68 255
0.60811633 0.22525059 1.6400001 59 67 59 255
0.61144322 0.22483008 1.6370001 66 75 64 255
0.61475456 0.22440995 1.6340001 73 82 71 255
0.61842918 0.22412755 1.6320001 77 86 75 255
0.62209368 0.22384557 1.6300001 78 87 76 255
0.62497938 0.2232893 1.626 77 84 73 255
0.6286183 0.2230081 1.6240001 84 89 78 255
0.63380641 0.22327656 1.626 43 46 34 255
0.6405763 0.22409467 1.6320001 23 26 12 255
0.64303225 0.22340275 1.6270001 33 35 18 255
0.64347231 0.22202471 1.6170001 23 27 10 255
0.64586246 0.22133371 1.6120001 23 27 10 255
0.65024322 0.22132966 1.6120001 24 27 13 255
0.65340698 0.22091413 1.6090001 21 24 10 255
0.65859962 0.22118558 1.6110001 19 22 8 255
0.66256982 0.22104555 1.6100001 21 24 10 255
0.66695005 0.2210433 1.6100001 21 24 10 255
0.66924673 0.22035505 1.605 22 26 9 255
0.67319643 0.22021645 1.6040001 23 27 10 255
0.67883188 0.22062753 1.6070001 24 27 13 255
0.68193418 0.22021535 1.6040001 23 28 14 255
0.68630534 0.22021551 1.6040001 24 29 15 255
0.68723333 0.21911789 1.5960001 19 24 10 255
0.69331926 0.21966827 1.6 21 26 12 255
0.69463229 0.21870898 1.5930001 22 27 13 255
0.69898021 0.21871126 1.5930001 22 28 11 255
0.70068103 0.21789032 1.5870001 27 31 14 255
0.70634902 0.21830559 1.59 27 31 14 255
0.71114147 0.21844681 1.5910001 23 29 12 255
0.71729064 0.21900053 1.595 20 28 11 255
0.71893924 0.21818182 1.5890001 7 18 5 255
0.72192276 0.21777555 1.5860001 148 160 151 255
0.72260249 0.2166833 1.5780001 141 154 149 255
0.72600454 0.21641551 1.5760001 149 162 158 255
0.72615415 0.21518703 1.567 154 164 163 255
0.72812146 0.21450841 1.562 158 168 167 255
0.72865707 0.21341833 1.554 164 172 171 255
0.73056632 0.21274088 1.549 166 174 173 255
0.73055303 0.21151458 1.5400001 169 177 176 255
0.73144716 0.21056354 1.5330001 169 176 178 255
0.73278534 0.20975038 1.5270001 173 180 182 255
0.73361075 0.20880045 1.5200001 172 179 181 255
0.73294425 0.20743896 1.5100001 174 181 183 255
-0.73233962 0.22056952 1.6390001 186 194 177 255
-0.72430813 0.21948914 1.631 134 143 124 255
-0.71897054 0.21921679 1.6290001 132 141 122 255
-0.71364582 0.21894501 1.6270001 123 132 113 255
-0.70789808 0.21853925 1.6240001 172 181 162 255
-0.70173532 0.21799944 1.6200001 162 170 153 255
-0.69516551 0.21732557 1.6150001 173 183 166 255
-0.68776929 0.21638308 1.608 172 182 165 255
-0.68211281 0.21597938 1.605 167 177 160 255
-0.67647433 0.2155762 1.6020001 163 173 158 255
-0.67169267 0.21544258 1.6010001 159 169 152 255
-0.66608423 0.21504033 1.598 161 172 153 255
-0.66090763 0.21477309 1.5960001 159 168 149 255
-0.65533185 0.21437176 1.5930001 158 167 148 255
-0.65059096 0.21424001 1.5920001 149 160 139 255
-0.64585674 0.21410866 1.5910001 160 171 152 255
-0.64112908 0.21397777 1.59 154 165 146 255
-0.63640803 0.21384731 1.5890001 155 166 147 255
-0.63209122 0.21385181 1.5890001 154 165 146 255
-0.62777537 0.21385671 1.5890001 153 164 145 255
-0.62346053 0.21386203 1.5890001 147 158 139 255
-0.61875689 0.21373312 1.5880001 137 148 129 255
-0.61405969 0.21360461 1.5870001 147 158 139 255
-0.6086002 0.21320724 1.5840001 146 155 136 255
-0.60430229 0.21321404 1.5840001 149 158 139 255
-0.60000509 0.21322121 1.5840001 156 165 146 255
-0.59608465 0.21336332 1.585 157 166 147 255
-0.59141272 0.21323656 1.5840001 155 164 145 255
-0.58711749 0.21324469 1.5840001 154 165 146 255
-0.58208686 0.21298395 1.582 159 170 151 255
-0.57706767 0.21272349 1.58 158 169 150 255
-0.57205975 0.2124633 1.5780001 157 168 149 255
-0.56742287 0.21233806 1.577 161 171 154 255
-0.56279188 0.2122131 1.5760001 163 173 156 255
-0.55922991 0.21249239 1.5780001 157 167 150 255
-0.55460227 0.21236797 1.577 152 162 145 255
-0.55032945 0.21237852 1.577 155 166 147 255
-0.5453642 0.21211994 1.575 150 161 142 255
-0.54075372 0.2119963 1.5740001 157 168 149 255
-0.53614867 0.21187286 1.5730001 160 171 152 255
-0.53188741 0.21188438 1.5730001 165 176 157 255
-0.52628464 0.21135731 1.5690001 168 179 160 255
-0.52136898 0.21109982 1.567 169 180 161 255
-0.5167942 0.21097724 1.5660001 166 177 156 255
-0.51222491 0.21085487 1.5650001 155 167 144 255
-0.50701183 0.2104632 1.562 148 160 137 255
-0.50181496 0.21007168 1.559 153 165 142 255
-0.49695355 0.2098151 1.557 152 164 141 255
-0.49210274 0.20955864 1.5550001 132 143 122 255
-0.48757654 0.20943709 1.554 130 142 119 255
-0.48336655 0.20945047 1.554 137 149 126 255
-0.47884819 0.20932926 1.5530001 156 166 143 255
-0.47433496 0.20920815 1.552 169 179 156 255
-0.47012988 0.209222 1.552 164 174 151 255
-0.46592459 0.209236 1.552 144 153 132 255
-0.46112397 0.20898046 1.5500001 135 144 123 255
-0.45662871 0.20885986 1.549 145 154 135 255
-0.45184654 0.20860453 1.5470001 145 154 135 255
-0.44736427 0.20848417 1.5460001 137 148 129 255
-0.44288695 0.20836386 1.5450001 137 146 127 255
-0.43869877 0.20837855 1.5450001 158 169 148 255
-0.4342289 0.20825839 1.544 164 175 154 255
-0.429207 0.20786859 1.5410001 142 153 132 255
-0.42475256 0.20774856 1.5400001 127 138 117 255
-0.42030311 0.20762864 1.539 148 159 138 255
-0.41585866 0.20750874 1.5380001 161 172 153 255
-0.41141912 0.20738891 1.5370001 166 175 156 255
-0.40698454 0.2072691 1.536 140 149 128 255
-0.40307936 0.20741925 1.5370001 144 153 132 255
-0.39890873 0.20743451 1.5370001 144 153 134 255
-0.39448074 0.20731483 1.536 142 153 134 255
-0.39005759 0.20719516 1.5350001 138 149 130 255
-0.38563934 0.20707552 1.534 150 161 142 255
-0.38147467 0.2070909 1.534 146 157 138 255
-0.37681744 0.20683627 1.5320001 139 150 131 255
-0.37241367 0.20671661 1.531 151 162 143 255
-0.36777428 0.20646195 1.529 134 145 124 255
-0.36385858 0.20661235 1.5300001 143 154 135 255
-0.35946658 0.20649266 1.529 137 148 129 255
-0.35531178 0.20650804 1.529 143 154 135 255
-0.35069704 0.20625323 1.5270001 142 153 134 255
-0.34609249 0.20599836 1.5250001 143 154 135 255
-0.3417224 0.20587854 1.524 146 155 134 255
-0.33802158 0.20616396 1.526 139 149 126 255
-0.33409044 0.20631428 1.5270001 148 157 136 255
-0.32972103 0.20619434 1.526 142 151 130 255
-0.32514307 0.20593922 1.524 135 146 125 255
-0.32099649 0.20595425 1.524 141 152 133 255
-0.31643346 0.20569897 1.5220001 147 158 139 255
-0.31229094 0.20571387 1.5220001 144 155 136 255
-0.30774286 0.20545842 1.5200001 137 148 129 255
-0.30380413 0.20560835 1.521 141 152 131 255
-0.2996622 0.20562303 1.521 145 156 135 255
-0.29590824 0.20590809 1.5230001 139 150 129 255
-0.29156789 0.20578739 1.5220001 138 149 130 255
-0.28723231 0.20566665 1.521 137 148 127 255
-0.28271532 0.20541054 1.5190001 138 149 128 255
-0.27857533 0.20542477 1.5190001 142 153 132 255
-0.27425399 0.20530368 1.5180001 143 152 131 255
-0.27011529 0.20531771 1.5180001 149 160 139 255
-0.26615107 0.20546685 1.5190001 133 144 123 255
-0.26218072 0.20561594 1.5200001 132 143 122 255
-0.25803444 0.20562965 1.5200001 128 138 115 255
-0.25405446 0.20577846 1.521 125 135 110 255
-0.24957544 0.20552132 1.5190001 135 145 120 255
-0.24542972 0.20553459 1.5190001 140 150 125 255
-0.24096568 0.20527712 1.5170001 145 155 130 255
-0.23698018 0.20542544 1.5180001 142 154 131 255
-0.23283514 0.20543827 1.5180001 140 152 129 255
-0.22884004 0.20558631 1.5190001 136 146 123 255
-0.22454301 0.20546354 1.5180001 118 128 105 255
-0.22025071 0.20534055 1.5170001 129 139 116 255
-0.21610568 0.20535278 1.5170001 136 146 123 255
-0.21195999 0.20536482 1.5170001 128 138 115 255
-0.20795062 0.20551211 1.5180001 133 143 118 255
-0.20406939 0.20579457 1.5200001 140 150 125 255
-0.20043963 0.20634773 1.524 121 131 106 255
-0.19652978 0.20662995 1.526 102 112 87 255
-0.19260833 0.206912 1.5280001 133 145 120 255
-0.18855201 0.20705847 1.529 135 147 124 255
-0.18485136 0.20761108 1.5330001 132 143 124 255
-0.18077466 0.20775722 1.534 126 137 118 255
0.22218035 0.22380091 1.6530001 89 96 92 255
0.2268362 0.22392347 1.654 69 76 72 255
0.23135699 0.22391054 1.654 63 70 66 255
0.23530661 0.22335595 1.6500001 67 75 68 255
0.23865227 0.22225976 1.6420001 74 82 75 255
0.24210157 0.2212989 1.6350001 81 88 84 255
0.2465675 0.22128536 1.6350001 75 82 78 255
0.25133979 0.22154236 1.6370001 83 91 84 255
0.25627854 0.22193445 1.6400001 60 68 61 255
0.26043797 0.2216498 1.6380001 53 61 54 255
0.2642622 0.22109435 1.6340001 58 66 59 255
0.26806387 0.22053887 1.6300001 100 108 101 255
0.27201012 0.22011858 1.6270001 73 81 74 255
0.27661893 0.22023931 1.628 68 76 69 255
0.28105977 0.22022463 1.628 68 76 69 255
0.28549984 0.22020984 1.628 75 83 76 255
0.28922683 0.21965392 1.6240001 78 86 79 255
0.29347363 0.21950367 1.623 76 84 77 255
0.29734722 0.21908288 1.6200001 78 86 79 255
0.30213493 0.21933812 1.6220001 87 95 88 255
0.30749983 0.2199989 1.6270001 69 77 70 255
0.31231606 0.22025385 1.6290001 69 77 70 255
0.31636465 0.21996789 1.6270001 66 74 67 255
0.32020438 0.21954668 1.6240001 72 80 73 255
0.32422692 0.21926062 1.6220001 74 82 75 255
0.32864302 0.21924485 1.6220001 72 80 73 255
0.33326375 0.21936418 1.623 69 77 70 255
0.33809721 0.21961854 1.6250001 67 75 68 255
0.34230846 0.21946742 1.6240001 72 80 73 255
0.34694058 0.21958651 1.6250001 74 82 74 255
0.35136116 0.21957038 1.6250001 73 81 73 255
0.35599992 0.21968935 1.626 71 79 71 255
0.35997844 0.21940295 1.6240001 68 76 68 255
0.36416972 0.21925162 1.623 69 77 69 255
0.36835489 0.2191003 1.6220001 71 79 71 255
0.3734532 0.21948926 1.6250001 68 76 68 255
0.378102 0.21960799 1.626 71 79 71 255
0.38322613 0.21999682 1.6290001 70 78 70 255
0.38765192 0.21998046 1.6290001 66 74 66 255
0.39207712 0.2199641 1.6290001 68 77 66 255
0.39625818 0.21981271 1.628 65 74 63 255
0.40067929 0.21979634 1.628 65 72 61 255
0.40485099 0.21964502 1.6270001 68 75 64 255
0.4095197 0.21976371 1.628 68 75 64 255
0.4136847 0.21961248 1.6270001 69 75 67 255
0.41835764 0.2197312 1.628 68 74 66 255
0.4232952 0.21998495 1.6300001 70 76 68 255
0.42850533 0.2203736 1.6330001 67 73 65 255
0.43293589 0.22035748 1.6330001 65 71 63 255
0.43709809 0.22020645 1.6320001 66 72 64 255
0.44179547 0.22032538 1.6330001 66 74 67 255
0.44649765 0.22044429 1.6340001 62 70 63 255
0.45092887 0.22042844 1.6340001 64 70 63 255
0.45508102 0.22027776 1.6330001 63 69 61 255
0.45866448 0.21985741 1.6300001 61 67 59 255
0.46336758 0.21997671 1.631 67 73 65 255
0.46750215 0.2198264 1.6300001 61 67 59 255
0.4719204 0.21981105 1.6300001 61 67 60 255
0.47516936 0.21925643 1.626 67 73 66 255
0.47869125 0.21883686 1.623 66 74 67 255
0.48219654 0.21841747 1.6200001 58 66 58 255
0.48658636 0.21840274 1.6200001 65 73 65 255
0.49067283 0.21825333 1.6190001 74 82 74 255
0.49444792 0.2179693 1.6170001 74 82 74 255
0.49728647 0.21728109 1.6120001 78 86 79 255
0.50072002 0.21686269 1.6090001 77 85 78 255
0.50382328 0.21630974 1.605 76 84 77 255
0.5072214 0.21589181 1.6020001 77 85 78 255
0.51092237 0.21560884 1.6 75 82 78 255
0.51557863 0.21573035 1.6010001 70 78 71 255
0.5221886 0.21666048 1.608 72 80 73 255
0.53014648 0.21812966 1.6190001 77 85 78 255
0.53915429 0.22000301 1.6330001 77 85 78 255
0.54757226 0.22160695 1.6450001 76 84 76 255
0.55471295 0.22267209 1.6530001 52 58 51 255
0.55952907 0.22279447 1.654 49 55 48 255
0.56264585 0.22224361 1.6500001 46 52 44 255
0.56264764 0.22048086 1.6370001 42 48 40 255
0.56500411 0.21966134 1.631 83 87 79 255
0.56872487 0.21938087 1.6290001 83 88 77 255
0.57278687 0.21923532 1.628 23 28 17 255
0.57648915 0.21895546 1.626 25 30 19 255
0.57910925 0.21827193 1.6210001 34 40 32 255
0.58242244 0.21785803 1.618 69 77 69 255
0.58644521 0.21771377 1.6170001 78 86 78 255
0.59229004 0.21824303 1.6210001 79 87 80 255
0.59852505 0.21890716 1.626 72 80 72 255
0.60441685 0.21943694 1.6300001 60 68 60 255
0.60846329 0.21929392 1.6290001 62 70 62 255
0.61212885 0.21901666 1.6270001 65 73 65 255
0.61578411 0.21873973 1.6250001 74 83 72 255
0.61942917 0.2184632 1.623 80 87 76 255
0.62229556 0.21791786 1.6190001 78 85 74 255
0.62630218 0.21777673 1.618 78 85 73 255
0.63069397 0.21777055 1.618 86 89 77 255
0.6362642 0.21816854 1.6210001 15 18 4 255
0.63987559 0.21789399 1.6190001 24 27 13 255
0.64029348 0.21654317 1.6090001 25 28 14 255
0.64306206 0.2160003 1.605 25 29 12 255
0.64782685 0.21613079 1.6060001 23 26 12 255
0.6525982 0.21626167 1.6070001 21 24 10 255
0.65819377 0.21666214 1.6100001 21 24 10 255
0.66092616 0.21612103 1.6060001 21 24 10 255
0.66612363 0.21638782 1.608 21 24 10 255
0.66841435 0.21571307 1.603 21 24 10 255
0.67277783 0.21571164 1.603 21 24 10 255
0.67460829 0.21490331 1.5970001 24 27 13 255
0.67938346 0.21503742 1.598 23 26 12 255
0.68373775 0.21503744 1.598 24 27 13 255
0.68895489 0.2153071 1.6 25 28 14 255
0.69245124 0.21503899 1.598 24 27 13 255
0.69724673 0.21517514 1.5990001 25 28 14 255
0.70073295 0.21490808 1.5970001 24 28 11 255
0.70421004 0.21464154 1.595 24 28 11 255
0.7076782 0.21437553 1.5930001 28 32 15 255
0.71069038 0.2139755 1.59 23 29 12 255
0.71638656 0.2143835 1.5930001 18 26 9 255
0.71802914 0.21358086 1.5870001 12 21 9 255
0.72100663 0.21318252 1.5840001 92 102 93 255
0.72259605 0.21238093 1.5780001 140 154 146 255
0.72553682 0.2119837 1.575 148 161 157 255
0.72707343 0.21118325 1.5690001 155 165 164 255
0.72904563 0.21051796 1.5640001 159 167 166 255
0.73005503 0.20958398 1.557 162 170 169 255
0.73055696 0.20851597 1.549 166 174 173 255
0.72959429 0.20704463 1.5380001 166 174 173 255
0.73048234 0.20611228 1.531 168 176 175 255
0.73277432 0.20558438 1.5270001 172 180 179 255
0.73408163 0.20478779 1.521 173 181 180 255
0.73438805 0.20372248 1.5130001 174 182 181 255
0.73270059 0.20211904 1.501 175 182 184 255
-0.73591673 0.21584247 1.6370001 198 206 191 255
-0.72608024 0.21425618 1.6250001 142 150 135 255
-0.71986389 0.21372527 1.6210001 152 160 143 255
-0.71543688 0.21372232 1.6210001 168 176 159 255
-0.71013463 0.21345621 1.6190001 174 182 165 255
-0.70484507 0.21319064 1.6170001 164 172 155 255
-0.69826865 0.21253006 1.6120001 173 181 164 255
-0.69172138 0.21187004 1.6070001 171 181 164 255
-0.68477511 0.21107863 1.6010001 169 179 162 255
-0.67998821 0.21094695 1.6 165 175 158 255
-0.67351925 0.21028838 1.595 160 170 153 255
-0.66791809 0.20989396 1.5920001 161 171 154 255
-0.66233456 0.20949998 1.5890001 156 166 149 255
-0.65801114 0.209502 1.5890001 154 164 147 255
-0.65327758 0.20937261 1.5880001 153 164 145 255
-0.64936805 0.20950735 1.5890001 154 165 146 255
-0.64464241 0.20937881 1.5880001 160 171 152 255
-0.63952011 0.20911884 1.5860001 153 164 143 255
