ply
format ascii 1.0
comment PCL generated
element vertex 1025
property float x
property float y
property float z
property uchar red
property uchar green
property uchar blue
property uchar alpha
element camera 0
property float view_px
property float view_py
property float view_pz
property float x_axisx
property float x_axisy
property float x_axisz
property float y_axisx
property float y_axisy
property float y_axisz
property float z_axisx
property float z_axisy
property float z_axisz
property float focal
property float scalex
property float scaley
property float centerx
property float centery
property int viewportx
property int viewporty
property float k1
property float k2
end_header
-0.59667212 0.19074523 1.5420001 169 178 157 255
-0.59210461 0.19062778 1.5410001 171 180 159 255
-0.58716166 0.19038694 1.539 165 174 153 255
-0.582609 0.19027008 1.5380001 167 174 153 255
-0.57768637 0.19002983 1.536 162 169 148 255
-0.57314855 0.18991359 1.5350001 159 166 145 255
-0.56824607 0.1896739 1.5330001 163 170 148 255
-0.56372291 0.18955822 1.5320001 159 166 144 255
-0.55884027 0.18931906 1.5300001 159 169 144 255
-0.55469406 0.18932763 1.5300001 171 179 154 255
-0.55018848 0.18921272 1.529 176 184 158 255
-0.54604566 0.18922181 1.529 176 185 156 255
-0.54154897 0.18910743 1.5280001 145 154 125 255
-0.53670609 0.18886948 1.526 145 152 123 255
-0.53257239 0.1888793 1.526 151 158 129 255
-0.52809256 0.18876557 1.5250001 156 164 138 255
-0.5239619 0.18877584 1.5250001 157 165 139 255
-0.51914978 0.18853876 1.5230001 172 180 155 255
-0.51502484 0.18854944 1.5230001 169 177 152 255
-0.51022905 0.18831271 1.521 152 160 135 255
-0.50577694 0.1882 1.5200001 170 178 153 255
-0.50133032 0.18808745 1.5190001 174 182 157 255
-0.49656174 0.18785125 1.5170001 184 192 166 255
-0.491804 0.18761519 1.5150001 139 147 121 255
-0.487057 0.18737929 1.5130001 135 143 117 255
-0.48327839 0.18751508 1.5140001 171 177 151 255
-0.47854471 0.18727945 1.5120001 171 177 152 255
-0.47413558 0.18716784 1.511 150 156 131 255
-0.46910951 0.18680859 1.508 169 175 150 255
-0.46533298 0.18694501 1.5090001 166 172 146 255
-0.46093956 0.18683375 1.508 164 170 144 255
-0.45746017 0.18709435 1.5100001 145 151 125 255
-0.45306894 0.18698336 1.5090001 139 145 119 255
-0.44898039 0.18699639 1.5090001 163 170 141 255
-0.44459662 0.1868856 1.508 133 139 113 255
-0.44021809 0.18677492 1.5070001 210 216 190 255
-0.43555516 0.18654038 1.5050001 132 139 110 255
-0.43147612 0.18655382 1.5050001 156 165 136 255
-0.42768064 0.18669128 1.506 164 171 142 255
-0.42387938 0.1868289 1.5070001 150 159 130 255
-0.41979373 0.18684258 1.5070001 160 169 140 255
-0.41543177 0.18673237 1.506 177 186 155 255
-0.41052845 0.1863742 1.503 185 192 161 255
-0.40672269 0.18651207 1.5040001 140 145 114 255
-0.40264335 0.18652603 1.5040001 158 163 131 255
-0.39882851 0.18666407 1.5050001 191 196 164 255
-0.3942208 0.18643004 1.503 144 149 118 255
-0.3896234 0.18619601 1.501 176 181 150 255
-0.38555008 0.18621011 1.501 131 138 107 255
-0.38147616 0.18622422 1.501 189 196 165 255
-0.37740174 0.18623839 1.501 149 156 125 255
-0.041184094 0.18744588 1.5040001 69 55 38 255
-0.037497975 0.18969162 1.5220001 61 47 30 255
-0.0336034 0.191314 1.5350001 62 48 31 255
-0.029771317 0.1938086 1.5550001 71 59 42 255
-0.025960475 0.19730009 1.5830001 67 57 40 255
-0.022009408 0.20091602 1.6120001 65 57 41 255
-0.017789904 0.20328534 1.631 63 59 45 255
-0.013384365 0.20440803 1.6400001 65 62 48 255
-0.0089022657 0.20490725 1.6440001 62 60 49 255
-0.0043928246 0.20515695 1.646 57 60 48 255
0.00012761916 0.20540635 1.6480001 56 61 49 255
0.0046534003 0.20540622 1.6480001 53 60 49 255
0.0091903023 0.20565507 1.6500001 52 59 48 255
0.013738153 0.20590365 1.6520001 57 64 53 255
0.018307997 0.20627661 1.6550001 55 62 51 255
0.022880433 0.20652464 1.6570001 57 64 53 255
0.027480321 0.20689705 1.6600001 55 62 50 255
0.03203867 0.20689525 1.6600001 57 64 52 255
0.036618944 0.20701782 1.6610001 57 64 52 255
0.041179769 0.20701548 1.6610001 59 66 54 255
0.045823041 0.20738675 1.664 58 65 54 255
0.050452337 0.20763315 1.6660001 59 66 55 255
0.05512543 0.20800388 1.669 57 64 53 255
0.059779007 0.20824969 1.6710001 61 68 57 255
0.06425073 0.20787209 1.6680001 64 71 59 255
0.068747006 0.20761891 1.6660001 63 70 59 255
0.073408067 0.20786391 1.6680001 61 68 57 255
0.078220077 0.20848249 1.6730001 60 67 56 255
0.082811743 0.20847771 1.6730001 59 65 57 255
0.15388919 0.20525284 1.6480001 66 74 67 255
0.15773189 0.20437215 1.641 64 70 62 255
0.16153568 0.20349135 1.6340001 66 74 66 255
0.16560534 0.20298398 1.6300001 72 79 68 255
0.16996551 0.20285001 1.6290001 83 91 83 255
0.17442667 0.20284036 1.6290001 80 86 78 255
0.17932647 0.20332855 1.6330001 77 84 73 255
0.184135 0.20369199 1.636 77 83 75 255
0.1893052 0.20442867 1.6420001 76 85 74 255
0.19474363 0.20541404 1.6500001 74 83 72 255
0.19986291 0.20602566 1.6550001 70 77 66 255
0.20426789 0.20589015 1.654 72 80 72 255
0.20816179 0.20525655 1.649 77 85 77 255
0.21164067 0.20424943 1.641 70 78 71 255
0.21533854 0.20349115 1.6350001 69 77 70 255
0.21913734 0.20285723 1.6300001 86 94 87 255
0.22290808 0.20222318 1.6250001 102 110 103 255
0.22679064 0.20171347 1.6210001 91 99 92 255
0.2312212 0.2017014 1.6210001 76 84 77 255
0.23594181 0.20193799 1.623 78 84 76 255
0.24008016 0.20167674 1.6210001 68 75 64 255
0.24390516 0.20116653 1.6170001 60 66 58 255
0.24770758 0.20065624 1.613 90 96 88 255
0.25195631 0.20051904 1.6120001 88 94 86 255
0.25635785 0.20050608 1.6120001 62 70 63 255
0.26075861 0.20049298 1.6120001 54 62 55 255
0.26499411 0.20035537 1.6110001 46 54 47 255
0.26905623 0.20009328 1.6090001 104 112 105 255
0.2729367 0.19970678 1.6060001 85 93 85 255
0.27697268 0.1994445 1.6040001 74 82 74 255
0.28099698 0.19918214 1.6020001 69 78 67 255
0.28518778 0.19904405 1.6010001 65 73 65 255
0.28955317 0.19903015 1.6010001 64 72 65 255
0.29355064 0.19876756 1.5990001 74 82 75 255
0.29865426 0.19925065 1.603 88 94 87 255
0.30377892 0.19973361 1.6070001 73 79 71 255
0.30930814 0.20046493 1.613 71 77 69 255
0.31370237 0.20045045 1.613 72 79 68 255
0.31789866 0.20031165 1.6120001 75 82 71 255
0.32168883 0.19992423 1.6090001 74 80 72 255
0.32566452 0.19966105 1.6070001 71 77 69 255
0.32983401 0.19952206 1.6060001 79 85 78 255
0.33462155 0.19975571 1.608 79 85 78 255
0.33941922 0.19998927 1.6100001 72 80 72 255
0.34401342 0.2000985 1.6110001 77 85 77 255
0.3479636 0.19983509 1.6090001 78 87 76 255
0.35212108 0.19969584 1.608 73 82 71 255
0.35605079 0.19943242 1.6060001 75 84 73 255
0.36041766 0.19941734 1.6060001 78 85 74 255
0.36523804 0.19965051 1.608 75 82 71 255
0.3700687 0.19988367 1.6100001 73 79 71 255
0.37467682 0.19999258 1.6110001 76 82 74 255
0.37952504 0.20022562 1.613 77 83 75 255
0.38438347 0.20045862 1.6150001 77 83 75 255
0.38949272 0.20081563 1.618 76 83 72 255
0.3941308 0.20092444 1.6190001 74 81 70 255
0.39901975 0.20115732 1.6210001 74 81 70 255
0.40292343 0.20089382 1.6190001 76 83 72 255
0.40681559 0.20063037 1.6170001 73 80 69 255
0.41044194 0.20024292 1.6140001 75 82 71 255
0.41482255 0.20022775 1.6140001 73 80 69 255
0.41920254 0.20021258 1.6140001 75 82 71 255
0.42463163 0.20069362 1.618 71 78 67 255
0.42928642 0.20080255 1.6190001 74 80 72 255
0.43367824 0.20078748 1.6190001 69 75 67 255
0.43779892 0.20064846 1.618 71 77 69 255
0.44246027 0.20075753 1.6190001 72 79 68 255
0.44740254 0.20099065 1.6210001 72 79 68 255
0.45291257 0.20147175 1.6250001 73 80 69 255
0.45731819 0.20145699 1.6250001 71 78 67 255
0.46172321 0.2014423 1.6250001 69 76 65 255
0.46555418 0.20117979 1.623 70 77 65 255
0.46966353 0.20104139 1.6220001 75 82 70 255
0.47405922 0.20102702 1.6220001 68 75 63 255
0.47845462 0.20101276 1.6220001 71 78 66 255
0.48284963 0.20099863 1.6220001 72 79 68 255
0.48724443 0.20098464 1.6220001 65 72 61 255
0.49103254 0.20072295 1.6200001 58 65 54 255
0.49450383 0.20033753 1.6170001 61 68 57 255
0.49765012 0.19982846 1.613 78 85 74 255
0.50170815 0.19969119 1.6120001 74 82 74 255
0.50513273 0.19930638 1.6090001 83 91 84 255
0.50854081 0.19892175 1.6060001 81 89 82 255
0.51129383 0.19828966 1.6010001 83 91 84 255
0.51466382 0.1979055 1.598 93 100 96 255
0.51801741 0.19752157 1.595 90 95 91 255
0.52200973 0.19738553 1.5940001 89 95 88 255
0.52665699 0.19749734 1.595 82 88 81 255
0.5313096 0.19760935 1.5960001 78 84 76 255
0.53596777 0.19772154 1.5970001 75 81 73 255
0.54096955 0.19795771 1.5990001 75 82 71 255
0.54598236 0.19819407 1.6010001 78 85 74 255
0.55169362 0.19867821 1.605 78 85 74 255
0.5588125 0.19965766 1.613 76 81 69 255
0.56597495 0.20063725 1.6210001 81 86 74 255
0.57177347 0.2011219 1.6250001 26 29 15 255
0.57546651 0.20086418 1.623 30 34 17 255
0.57807714 0.20023549 1.618 34 39 25 255
0.58066112 0.19960713 1.613 52 57 43 255
0.58321834 0.19897909 1.608 51 58 47 255
0.58647978 0.19859891 1.605 83 90 79 255
0.58935714 0.19809528 1.6010001 76 82 74 255
0.59369677 0.19808689 1.6010001 75 81 73 255
0.59841043 0.19820254 1.6020001 80 87 76 255
0.60388255 0.19856592 1.605 78 85 74 255
0.6093716 0.19892956 1.608 79 86 75 255
0.61487758 0.19929351 1.6110001 75 82 71 255
0.61886305 0.19916297 1.6100001 73 82 71 255
0.62361795 0.19928014 1.6110001 75 82 71 255
0.6275996 0.19915031 1.6100001 82 87 76 255
0.63236159 0.19926819 1.6110001 85 90 78 255
0.63515371 0.19876797 1.6070001 15 18 6 255
0.63673121 0.19789709 1.6 23 26 14 255
0.63947374 0.19739769 1.5960001 22 25 11 255
0.64622939 0.19813548 1.6020001 22 25 11 255
0.65139437 0.19837894 1.6040001 20 23 9 255
0.65370959 0.19775705 1.5990001 20 23 9 255
0.65394104 0.1965172 1.5890001 23 26 12 255
0.6570192 0.19614349 1.5860001 21 24 10 255
0.66133326 0.19614124 1.5860001 21 24 10 255
0.6673274 0.19663407 1.59 22 25 11 255
0.67334485 0.19712733 1.5940001 22 26 9 255
0.67683458 0.19687904 1.5920001 24 28 11 255
0.6807428 0.19675484 1.5910001 26 30 13 255
0.68636948 0.19712578 1.5940001 23 27 10 255
0.69331408 0.19786815 1.6 25 29 12 255
0.69724083 0.19774537 1.5990001 30 34 16 255
0.69721484 0.19651003 1.5890001 26 30 12 255
0.6975776 0.19539882 1.58 26 30 13 255
0.69744885 0.19416441 1.5700001 27 31 13 255
0.70173705 0.19416721 1.5700001 25 29 11 255
0.71097392 0.19553095 1.5810001 25 31 13 255
0.71755826 0.19615318 1.5860001 13 23 6 255
0.72189629 0.19615756 1.5860001 27 37 22 255
0.72303116 0.19529667 1.5790001 144 154 145 255
0.72551191 0.19480737 1.575 144 153 146 255
0.72611946 0.1938238 1.567 161 170 165 255
0.72715163 0.19296443 1.5600001 163 172 167 255
0.72861671 0.19222926 1.554 170 177 173 255
0.72957981 0.19137092 1.5470001 174 181 178 255
0.73145556 0.19076046 1.5420001 176 183 180 255
0.729967 0.18928456 1.5300001 176 183 182 255
0.73033428 0.18830396 1.5220001 178 185 184 255
0.73066032 0.18732385 1.5140001 179 186 185 255
0.73240125 0.18671547 1.5090001 184 188 188 255
-0.76445961 0.1973065 1.631 193 195 187 255
-0.74694031 0.19391237 1.603 213 218 207 255
-0.73745191 0.19257545 1.5920001 209 216 205 255
-0.72802597 0.19123912 1.5810001 197 206 194 255
-0.72049373 0.19038726 1.5740001 194 203 191 255
-0.71345693 0.18965691 1.5680001 193 201 186 255
-0.70781189 0.18928999 1.5650001 188 196 181 255
-0.70218539 0.18892358 1.562 185 193 176 255
-0.69657725 0.18855768 1.559 179 188 169 255
-0.69098753 0.18819229 1.5560001 176 185 166 255
-0.68585736 0.18794832 1.554 174 183 162 255
-0.68117851 0.18782578 1.5530001 169 178 157 255
-0.67737859 0.18794559 1.554 166 175 154 255
-0.6722756 0.18770304 1.552 161 170 149 255
-0.66804588 0.18770282 1.552 163 173 150 255
-0.66296232 0.18746117 1.5500001 162 171 150 255
-0.65831614 0.18734086 1.549 163 170 149 255
-0.65325457 0.18710002 1.5470001 172 179 158 255
-0.64904445 0.18710154 1.5470001 164 173 152 255
-0.64483565 0.18710344 1.5470001 160 167 146 255
-0.64021409 0.18698479 1.5460001 168 175 154 255
-0.63601053 0.18698749 1.5460001 171 178 157 255
-0.6318081 0.18699056 1.5460001 171 178 157 255
-0.62760693 0.18699402 1.5460001 166 171 150 255
-0.62300348 0.18687688 1.5450001 165 172 151 255
-0.61800605 0.18663916 1.5430001 171 176 154 255
-0.61302054 0.1864018 1.5410001 172 177 155 255
-0.60883689 0.1864067 1.5410001 162 167 145 255
-0.60426182 0.18629096 1.5400001 169 176 154 255
-0.599693 0.18617555 1.539 169 176 154 255
-0.59551734 0.18618146 1.539 165 175 152 255
-0.59095824 0.18606669 1.5380001 172 182 159 255
-0.58640522 0.18595223 1.5370001 168 175 154 255
-0.58147955 0.18571708 1.5350001 166 173 151 255
-0.57694149 0.18560322 1.534 160 167 145 255
-0.57278275 0.18561064 1.534 159 166 144 255
-0.56825393 0.18549733 1.5330001 168 175 153 255
-0.56373101 0.1853843 1.5320001 167 175 150 255
-0.55884868 0.18515052 1.5300001 166 174 149 255
-0.55470282 0.18515903 1.5300001 171 177 151 255
-0.54983759 0.18492573 1.5280001 141 148 119 255
-0.5460549 0.18505576 1.529 140 147 116 255
-0.54120392 0.18482293 1.5270001 160 167 136 255
-0.53671575 0.18471138 1.526 158 165 134 255
-0.53258222 0.18472108 1.526 161 168 137 255
-0.5281027 0.18460998 1.5250001 159 167 141 255
-0.52362865 0.18449907 1.524 185 193 168 255
-0.51847851 0.18414621 1.521 147 154 132 255
-0.51435918 0.18415678 1.521 153 160 138 255
-0.50923365 0.18380427 1.5180001 162 170 145 255
-0.5051226 0.18381521 1.5180001 174 182 157 255
-0.50068146 0.18370521 1.5170001 182 190 165 255
-0.49624589 0.1835954 1.516 145 152 123 255
-0.4918156 0.18348576 1.5150001 137 144 115 255
-0.48739067 0.18337624 1.5140001 167 173 147 255
-0.48360959 0.18350919 1.5150001 153 159 133 255
-0.47887334 0.18327884 1.5130001 151 157 132 255
-0.47414783 0.18304864 1.511 165 171 146 255
-0.46943292 0.18281855 1.5090001 168 174 148 255
-0.4656539 0.18295205 1.5100001 163 167 139 255
-0.46125785 0.18284336 1.5090001 156 160 132 255
-0.45747292 0.18297715 1.5100001 143 148 117 255
-0.45308182 0.1828687 1.5090001 149 153 125 255
-0.4492909 0.18300273 1.5100001 155 162 133 255
-0.44460976 0.18277328 1.508 180 187 158 255
-0.44081551 0.18290754 1.5090001 195 202 171 255
-0.43672609 0.18292071 1.5090001 137 142 111 255
-0.43263626 0.18293399 1.5090001 143 148 117 255
-0.4291141 0.18318979 1.511 168 173 142 255
-0.42501807 0.18320325 1.511 165 170 139 255
-0.42120025 0.18333805 1.5120001 149 158 129 255
-0.41710058 0.18335164 1.5120001 177 186 155 255
-0.41218108 0.1830015 1.5090001 170 177 146 255
-0.40835917 0.18313651 1.5100001 137 142 110 255
-0.40453124 0.18327156 1.511 137 143 108 255
-0.40096256 0.18352802 1.5130001 152 155 123 255
-0.39607081 0.18317798 1.5100001 189 194 163 255
-0.39119491 0.18282796 1.5070001 155 160 129 255
-0.38633469 0.18247788 1.5040001 139 144 113 255
-0.38250688 0.18261316 1.5050001 136 141 110 255
-0.37892443 0.18286982 1.5070001 169 174 143 255
-0.37483314 0.18288383 1.5070001 160 167 136 255
-0.36975718 0.18241237 1.503 171 178 149 255
-0.028720027 0.18284532 1.5000001 71 55 39 255
-0.02494519 0.18540676 1.521 66 52 35 255
-0.021328008 0.19040596 1.562 65 51 34 255
-0.017540082 0.19601448 1.608 62 50 33 255
-0.013303548 0.19869721 1.6300001 73 62 47 255
-0.0088811368 0.19991684 1.6400001 70 64 48 255
-0.0043904185 0.20052674 1.6450001 62 59 43 255
0.0001274719 0.20064877 1.646 64 63 49 255
0.004650854 0.20077053 1.6470001 59 64 52 255
0.0091852807 0.20101392 1.649 56 61 49 255
0.013738974 0.20137896 1.6520001 56 63 51 255
0.0182759 0.201378 1.6520001 58 65 54 255
0.022840369 0.20162058 1.654 58 65 53 255
0.027432295 0.20198481 1.6570001 60 67 55 255
0.03200198 0.20210496 1.6580001 61 68 56 255
0.036554977 0.2021029 1.6580001 64 71 59 255
0.041107841 0.20210062 1.6580001 64 71 60 255
0.04568807 0.20221995 1.659 63 70 59 255
0.050364476 0.20270471 1.6630001 66 73 62 255
0.055062633 0.20318915 1.6670001 68 75 64 255
0.059746776 0.20355144 1.6700001 68 75 63 255
0.064331584 0.20354781 1.6700001 69 76 64 255
0.068916127 0.20354389 1.6700001 71 78 66 255
0.073500417 0.20353971 1.6700001 76 83 72 255
0.078084417 0.2035353 1.6700001 77 84 73 255
0.0825691 0.20328686 1.6680001 79 85 77 255
0.086885758 0.20267257 1.6630001 85 91 83 255
0.091119617 0.20193617 1.6570001 82 90 82 255
0.14424932 0.19990578 1.641 164 172 165 255
0.14874701 0.19989756 1.641 72 80 73 255
0.15324415 0.19988908 1.641 71 79 71 255
0.15764466 0.1997586 1.6400001 69 75 67 255
0.16154473 0.19901891 1.6340001 65 74 63 255
0.1656146 0.19852269 1.6300001 72 79 68 255
0.16966192 0.19802622 1.626 76 85 74 255
0.17400801 0.19789499 1.6250001 85 92 81 255
0.17867744 0.19812888 1.6270001 88 95 84 255
0.18335722 0.19836254 1.6290001 77 83 75 255
0.1882779 0.1988395 1.6330001 79 87 79 255
0.1934559 0.19955973 1.6390001 74 83 72 255
0.19830376 0.19991443 1.6420001 68 77 66 255
0.20267335 0.19978191 1.641 71 79 71 255
0.20653181 0.19916226 1.636 74 82 74 255
0.21049121 0.19866425 1.6320001 70 78 70 255
0.21455973 0.19828781 1.6290001 67 75 68 255
0.21861118 0.19791125 1.626 65 73 66 255
0.22223394 0.19716944 1.6200001 98 106 99 255
0.22610299 0.19667092 1.6160001 104 112 105 255
0.23080534 0.19690245 1.618 74 82 75 255
0.23595408 0.19749889 1.623 69 77 69 255
0.24009256 0.1972433 1.6210001 62 69 58 255
0.24376684 0.1966226 1.6160001 61 68 57 255
0.24741305 0.1960018 1.6110001 83 90 79 255
0.25165647 0.19586757 1.6100001 80 86 78 255
0.25605267 0.19585484 1.6100001 52 60 53 255
0.26028639 0.19572036 1.6090001 57 65 58 255
0.26434934 0.1954641 1.6070001 72 80 73 255
0.26840061 0.19520774 1.605 97 105 98 255
0.27261019 0.19507292 1.6040001 70 78 70 255
0.27681351 0.19493799 1.603 56 64 56 255
0.28065977 0.19455974 1.6 61 70 59 255
0.28448895 0.19418146 1.5970001 67 76 65 255
0.28884354 0.19416782 1.5970001 71 79 71 255
0.29301375 0.19403253 1.5960001 96 102 95 255
0.29792303 0.19438341 1.5990001 84 90 83 255
0.30284789 0.19473414 1.6020001 72 78 71 255
0.30836362 0.19544938 1.608 72 78 70 255
0.31293884 0.19555673 1.6090001 68 75 64 255
0.31732151 0.19554244 1.6090001 72 79 68 255
0.32110351 0.19516349 1.6060001 72 78 70 255
0.3248685 0.19478455 1.603 73 79 71 255
0.32882172 0.19452707 1.6010001 79 85 77 255
0.33359572 0.19475555 1.603 83 89 81 255
0.33816904 0.19486246 1.6040001 73 81 73 255
0.34296054 0.19509074 1.6060001 73 81 73 255
0.34732971 0.19507602 1.6060001 72 81 70 255
0.3512601 0.19481836 1.6040001 69 78 67 255
0.35495716 0.19443922 1.6010001 67 74 63 255
0.35931048 0.19442441 1.6010001 71 78 67 255
0.36411735 0.19465244 1.603 75 81 73 255
0.36893442 0.19488043 1.605 72 78 71 255
0.37376162 0.19510832 1.6070001 74 80 72 255
0.37836367 0.19521478 1.608 72 78 70 255
0.38344648 0.19556399 1.6110001 72 78 70 255
0.38878572 0.19603454 1.6150001 72 79 68 255
0.39390248 0.19638361 1.618 72 79 68 255
0.39854258 0.19648992 1.6190001 72 79 68 255
0.40293854 0.19647485 1.6190001 73 80 69 255
0.40683073 0.19621712 1.6170001 72 79 68 255
0.41071138 0.19595946 1.6150001 70 77 66 255
0.41458058 0.19570184 1.613 69 76 65 255
0.4192175 0.19580825 1.6140001 70 77 66 255
0.4238593 0.1959147 1.6150001 69 76 65 255
0.42850593 0.19602115 1.6160001 70 76 68 255
0.43288952 0.19600634 1.6160001 72 78 70 255
0.43727261 0.19599161 1.6160001 68 75 64 255
0.44192848 0.19609821 1.6170001 69 76 65 255
0.44631323 0.19608358 1.6170001 68 75 63 255
0.45153368 0.1964328 1.6200001 67 74 62 255
0.45648849 0.19666079 1.6220001 67 76 64 255
0.46116948 0.19676757 1.623 70 77 65 255
0.46556863 0.19675323 1.623 65 72 60 255
0.46967778 0.19661777 1.6220001 68 75 63 255
0.47436568 0.19672482 1.623 63 70 58 255
0.47817373 0.19646837 1.6210001 66 73 61 255
0.48286366 0.19657567 1.6220001 67 74 62 255
0.48725823 0.19656187 1.6220001 66 71 60 255
0.49165249 0.19654819 1.6220001 64 71 60 255
0.49451742 0.19592881 1.6170001 53 60 49 255
0.49797198 0.19555196 1.6140001 66 73 62 255
0.50172132 0.19529647 1.6120001 66 75 64 255
0.50545973 0.19504118 1.6100001 74 82 75 255
0.50887036 0.19466493 1.6070001 80 86 79 255
0.51194519 0.19416773 1.603 88 93 89 255
0.51532042 0.19379191 1.6 91 96 92 255
0.51867926 0.19341631 1.5970001 90 95 91 255
0.52267677 0.19328316 1.5960001 83 89 82 255
0.52732921 0.19339237 1.5970001 73 79 72 255
0.53165412 0.19338068 1.5970001 69 75 67 255
0.53597915 0.19336919 1.5970001 78 84 76 255
0.53962749 0.19311577 1.595 75 81 73 255
0.54462934 0.19334686 1.5970001 74 80 72 255
0.55032957 0.19382028 1.6010001 76 81 70 255
0.55813026 0.19502017 1.6110001 74 79 68 255
0.56528705 0.19597806 1.6190001 79 82 70 255
0.57107997 0.19645195 1.623 26 29 15 255
0.57405818 0.19595775 1.6190001 32 36 19 255
0.57665771 0.19534281 1.6140001 40 45 31 255
0.5795905 0.19484922 1.6100001 51 56 44 255
0.5828647 0.19447696 1.6070001 51 58 47 255
0.58539236 0.19386299 1.6020001 76 83 72 255
0.58862942 0.19349137 1.5990001 80 87 76 255
0.59296328 0.19348305 1.5990001 77 84 73 255
0.59729767 0.19347505 1.5990001 76 83 72 255
0.60200882 0.19358832 1.6 77 84 73 255
0.60710514 0.19382289 1.6020001 68 75 64 255
0.61221284 0.19405775 1.6040001 73 80 69 255
0.61694765 0.19417194 1.605 74 81 70 255
0.62168878 0.19428645 1.6060001 79 86 75 255
0.62643605 0.19440129 1.6070001 79 84 72 255
0.63040453 0.19427454 1.6060001 61 64 52 255
0.63357794 0.1939062 1.603 21 24 12 255
0.63395035 0.19269152 1.5930001 21 24 10 255
0.63747483 0.19244492 1.5910001 20 23 9 255
0.64381319 0.19304541 1.5960001 21 24 10 255
0.64936757 0.19340435 1.5990001 18 21 7 255
0.6512599 0.19267507 1.5930001 21 24 10 255
0.65147465 0.19146241 1.5830001 21 24 10 255
0.65495032 0.1912178 1.5810001 20 23 9 255
0.6605013 0.19157831 1.5840001 20 23 9 255
0.6669094 0.19218111 1.5890001 21 24 10 255
0.67123401 0.19217961 1.5890001 21 25 8 255
0.67598504 0.19229947 1.59 23 27 10 255
0.67945957 0.19205697 1.5880001 23 27 10 255
0.68507761 0.19241957 1.5910001 24 28 11 255
0.68984699 0.19254078 1.5920001 25 29 12 255
0.69375145 0.19242056 1.5910001 24 28 10 255
0.69414192 0.19133325 1.582 30 34 16 255
0.69360214 0.1900045 1.5710001 25 29 11 255
0.69433671 0.18903905 1.5630001 27 31 13 255
0.70084012 0.18964638 1.5680001 26 30 12 255
0.7109704 0.19122182 1.5810001 27 31 13 255
0.71710181 0.19170925 1.585 12 22 5 255
0.72189176 0.19183436 1.5860001 5 15 0 255
0.72302616 0.19099233 1.5790001 117 127 116 255
0.72412437 0.19015077 1.572 138 148 139 255
0.72379643 0.18894681 1.562 159 168 161 255
0.72528058 0.18822722 1.5560001 163 172 167 255
0.72720313 0.18762909 1.5510001 168 175 171 255
0.72910058 0.18703145 1.5460001 172 179 176 255
0.73097312 0.18643431 1.5410001 174 181 178 255
0.7299583 0.18511179 1.5300001 177 184 183 255
0.73032504 0.18415268 1.5220001 176 183 182 255
0.73113316 0.18331505 1.5150001 181 188 187 255
0.73239094 0.18259893 1.5090001 180 187 186 255
0.73264217 0.1816413 1.501 181 188 187 255
-0.75882804 0.19144048 1.6190001 220 222 212 255
-0.7450701 0.18906897 1.5990001 214 219 208 255
-0.73559308 0.18776229 1.5880001 202 211 199 255
-0.72571838 0.18633804 1.5760001 199 206 194 255
-0.71957338 0.18586019 1.572 193 200 188 255
-0.71390778 0.18550114 1.5690001 189 197 182 255
-0.70826054 0.18514261 1.5660001 185 193 176 255
-0.70218217 0.18466632 1.562 181 189 172 255
-0.69612777 0.18419059 1.5580001 179 188 169 255
-0.69054121 0.18383354 1.5550001 173 182 163 255
-0.686297 0.18383166 1.5550001 169 178 157 255
-0.6811772 0.18359378 1.5530001 165 174 153 255
-0.67737782 0.18371101 1.554 168 175 154 255
-0.67227519 0.18347402 1.552 160 167 146 255
-0.66804594 0.18347394 1.552 166 173 152 255
-0.66296279 0.18323784 1.5500001 163 170 149 255
-0.65831709 0.18312037 1.549 161 168 147 255
-0.65367824 0.18300332 1.5480001 173 180 159 255
-0.64904618 0.18288666 1.5470001 163 172 151 255
-0.6448378 0.18288864 1.5470001 167 174 153 255
-0.64063066 0.182891 1.5470001 167 174 153 255
-0.63642472 0.18289375 1.5470001 175 182 161 255
-0.63262874 0.18301511 1.5480001 173 180 159 255
-0.62801647 0.18290037 1.5470001 166 171 149 255
-0.62300754 0.18266778 1.5450001 165 172 151 255
-0.6180104 0.18243553 1.5430001 169 174 153 255
-0.61302525 0.18220362 1.5410001 169 174 153 255
-0.60884196 0.18220851 1.5410001 155 160 139 255
-0.60426718 0.1820955 1.5400001 172 179 158 255
-0.59930909 0.18186456 1.5380001 164 171 149 255
-0.59513646 0.18187043 1.5380001 168 178 155 255
-0.59096462 0.1818766 1.5380001 169 179 156 255
-0.58679342 0.1818831 1.5380001 166 173 151 255
-0.58148652 0.18153508 1.5350001 152 159 138 255
-0.57732481 0.18154216 1.5350001 154 161 140 255
-0.57279027 0.18143123 1.534 157 164 143 255
-0.56863236 0.18143888 1.534 145 153 128 255
-0.56410706 0.18132852 1.5330001 144 152 126 255
-0.55958754 0.18121839 1.5320001 147 155 129 255
-0.55507392 0.18110853 1.531 148 155 124 255
-0.55056608 0.18099891 1.5300001 167 174 143 255
-0.54642111 0.1810078 1.5300001 172 179 148 255
-0.54156768 0.18078034 1.5280001 166 173 142 255
-0.53672522 0.18055308 1.526 161 168 139 255
-0.532592 0.18056269 1.526 152 159 130 255
-0.52845895 0.18057249 1.526 176 184 158 255
-0.52398252 0.18046421 1.5250001 165 173 148 255
-0.51917064 0.18023774 1.5230001 151 159 134 255
-0.51436979 0.18001148 1.521 162 170 145 255
-0.50924438 0.17966701 1.5180001 169 177 152 255
-0.50513351 0.17967777 1.5180001 171 179 154 255
-0.50036252 0.17945199 1.516 162 168 142 255
-0.49592984 0.17934476 1.5150001 137 143 117 255
-0.49182707 0.17935604 1.5150001 147 153 127 255
-0.48772424 0.1793675 1.5150001 144 150 124 255
-0.48394057 0.17949753 1.516 156 160 134 255
-0.47920173 0.17927247 1.5140001 158 164 139 255
-0.47447371 0.17904755 1.5120001 165 171 145 255
-0.47006735 0.17894118 1.511 154 160 134 255
-0.46597454 0.17895333 1.511 159 163 135 255
-0.46188164 0.17896564 1.511 147 151 123 255
-0.45778844 0.17897807 1.511 140 144 116 255
-0.45369503 0.17899063 1.511 160 164 136 255
-0.44989881 0.17912175 1.5120001 153 160 131 255
-0.44580203 0.17913453 1.5120001 194 201 172 255
-0.44170496 0.17914744 1.5120001 165 170 139 255
-0.4376075 0.17916042 1.5120001 135 140 109 255
-0.43408301 0.17941047 1.5140001 140 145 114 255
-0.42997941 0.17942366 1.5140001 150 155 124 255
-0.42587534 0.17943692 1.5140001 163 168 137 255
-0.42204946 0.1795688 1.5150001 149 156 125 255
-0.41794175 0.17958219 1.5150001 172 179 148 255
-0.41356045 0.17947713 1.5140001 179 184 152 255
-0.40972504 0.17960922 1.5150001 149 155 120 255
-0.4064191 0.17997852 1.5180001 136 142 107 255
-0.40283144 0.18022935 1.5200001 138 142 107 255
-0.39844537 0.18012449 1.5190001 147 151 116 255
-0.393545 0.17978248 1.516 190 195 163 255
-0.38840356 0.17932187 1.5120001 166 171 140 255
-0.38429987 0.17933564 1.5120001 129 134 103 255
-0.38044703 0.17946807 1.5130001 165 172 141 255
-0.37708569 0.17983775 1.516 131 138 107 255
-0.37247729 0.17961434 1.5140001 197 204 175 255
-0.36714923 0.17903498 1.5090001 146 152 126 255
-0.36208829 0.17857417 1.5050001 138 144 118 255
-0.3577621 0.17846929 1.5040001 191 199 173 255
-0.3532055 0.17824569 1.5020001 185 193 167 255
-0.34865913 0.17802207 1.5000001 150 159 130 255
-0.33642694 0.17806308 1.5000001 182 189 160 255
-0.020605536 0.17981163 1.5090001 75 55 39 255
-0.016908409 0.18469825 1.5500001 75 57 41 255
-0.013067624 0.19077632 1.6010001 76 58 42 255
-0.0088166697 0.1939943 1.628 82 68 51 255
-0.0043719918 0.19518629 1.6380001 82 70 53 255
0.00012724704 0.19578224 1.6430001 71 63 46 255
0.0046454794 0.19602041 1.6450001 65 64 50 255
0.0091746785 0.19625834 1.6470001 67 68 56 255
0.013723145 0.19661514 1.6500001 63 70 59 255
0.018254846 0.19661422 1.6500001 66 73 62 255
0.022827901 0.19697052 1.6530001 68 75 64 255
0.027367674 0.19696906 1.6530001 69 76 65 255
0.031926639 0.19708647 1.654 68 75 64 255
0.036446877 0.19696537 1.6530001 67 74 63 255
0.040986266 0.19696312 1.6530001 65 72 61 255
0.045580573 0.1971989 1.6550001 79 88 77 255
0.050185688 0.19743446 1.6570001 81 90 79 255
0.054768547 0.19755058 1.6580001 81 90 79 255
0.059320912 0.19754729 1.6580001 81 90 79 255
0.063873038 0.19754374 1.6580001 79 88 77 255
0.068466172 0.19765906 1.659 83 90 79 255
0.073064528 0.19777414 1.6600001 84 91 80 255
0.077621341 0.19776984 1.6600001 84 91 80 255
0.082078822 0.19752698 1.6580001 82 88 80 255
0.086525008 0.19728389 1.6560001 85 91 83 255
0.090904891 0.19692142 1.6530001 85 91 83 255
0.095325686 0.19667786 1.651 83 89 81 255
0.099493213 0.19595759 1.6450001 74 80 72 255
0.1038171 0.19559446 1.6420001 74 82 74 255
0.10799219 0.19499288 1.6370001 71 79 72 255
0.1393331 0.19482531 1.636 165 173 166 255
0.1432904 0.19410299 1.6300001 81 89 82 255
0.14821142 0.19469035 1.6350001 76 84 76 255
0.15306588 0.19515833 1.6390001 67 75 67 255
0.15774947 0.19538793 1.641 65 72 61 255
0.16165251 0.19466484 1.6350001 62 71 59 255
0.16572529 0.1941797 1.631 67 74 62 255
0.16967119 0.19357532 1.626 73 82 71 255
0.1738033 0.1932089 1.623 86 95 84 255
0.178138 0.19308038 1.6220001 85 93 85 255
0.18257917 0.19307072 1.6220001 82 90 82 255
0.18736561 0.19341792 1.6250001 77 85 78 255
0.19228585 0.19388393 1.6290001 75 83 76 255
0.19710657 0.19423066 1.6320001 76 84 76 255
0.20157248 0.19422016 1.6320001 76 84 76 255
0.20553271 0.19373347 1.628 76 84 76 255
0.20972836 0.19348462 1.626 69 77 69 255
0.21378063 0.19311665 1.623 68 76 68 255
0.21781583 0.19274855 1.6200001 66 74 67 255
0.22155951 0.19214238 1.6150001 95 103 96 255
0.22569485 0.19189297 1.613 103 111 104 255
0.23081714 0.19247615 1.618 83 91 84 255
0.23596609 0.19305913 1.623 63 71 63 255
0.24025285 0.19292819 1.6220001 56 65 54 255
0.24362828 0.19208349 1.6150001 60 69 58 255
0.2472719 0.1914766 1.6100001 81 88 77 255
0.25151268 0.19134533 1.6090001 84 93 82 255
0.25590631 0.19133285 1.6090001 57 65 57 255
0.26013741 0.19120131 1.608 54 62 55 255
0.26403323 0.19083188 1.605 83 91 84 255
0.26824641 0.19070014 1.6040001 92 100 93 255
0.27279326 0.19080605 1.605 74 80 72 255
0.27717215 0.19079295 1.605 69 76 65 255
0.28102398 0.19042315 1.6020001 60 67 55 255
0.28450236 0.18981554 1.5970001 65 72 60 255
0.2888571 0.18980218 1.5970001 66 73 62 255
0.29284379 0.18955101 1.595 99 105 97 255
0.2977505 0.18989396 1.598 84 90 83 255
0.30267274 0.19023675 1.6010001 71 77 70 255
0.30799413 0.19081703 1.6060001 71 77 69 255
0.31217498 0.19068429 1.605 72 78 70 255
0.3165468 0.19067027 1.605 73 79 71 255
0.32031804 0.19029984 1.6020001 67 74 63 255
0.32427475 0.19004814 1.6 69 76 65 255
0.3278091 0.18955888 1.5960001 81 88 77 255
0.33256957 0.18978219 1.598 75 82 71 255
0.33712935 0.18988667 1.5990001 72 79 68 255
0.34233442 0.19034725 1.603 72 79 68 255
0.34647921 0.19021411 1.6020001 72 79 68 255
0.35061774 0.1900809 1.6010001 70 77 66 255
0.3545284 0.18982896 1.5990001 74 81 70 255
0.35865185 0.18969572 1.598 74 78 70 255
0.36345062 0.18991856 1.6 76 80 72 255
0.36802968 0.19002268 1.6010001 75 79 72 255
0.37284604 0.1902454 1.603 77 81 73 255
0.37720197 0.19023077 1.603 72 76 68 255
0.38203317 0.19045341 1.605 73 77 69 255
0.38735619 0.19091336 1.6090001 73 78 67 255
0.39245671 0.19125456 1.6120001 71 78 67 255
0.39708045 0.19135843 1.613 72 79 68 255
0.40195796 0.19158094 1.6150001 72 79 68 255
0.4060908 0.19144757 1.6140001 72 79 68 255
0.41072619 0.19155145 1.6150001 69 76 65 255
0.41485238 0.19141814 1.6140001 71 78 67 255
0.41949207 0.19152209 1.6150001 68 75 64 255
0.42387402 0.19150746 1.6150001 72 79 68 255
0.42799029 0.19137426 1.6140001 69 76 65 255
0.43263629 0.1914783 1.6150001 69 76 65 255
0.436746 0.19134526 1.6140001 69 76 64 255
0.4416697 0.19156793 1.6160001 67 74 62 255
0.44577563 0.19143501 1.6150001 69 76 64 255
0.45071191 0.19165777 1.6170001 66 73 61 255
0.45537704 0.19176205 1.618 69 76 64 255
0.46061543 0.1921034 1.6210001 67 74 62 255
0.46558282 0.19232628 1.623 65 74 62 255
0.47027099 0.19243075 1.6240001 68 76 61 255
0.47496426 0.1925353 1.6250001 64 71 59 255
0.4784826 0.19216603 1.6220001 65 72 60 255
0.48257962 0.19203384 1.6210001 68 75 64 255
0.48697144 0.19202028 1.6210001 64 71 60 255
0.49136287 0.19200683 1.6210001 65 70 59 255
0.49514237 0.19175662 1.6190001 53 60 48 255
0.49860227 0.19138816 1.6160001 59 66 54 255
0.50235683 0.19113828 1.6140001 68 75 64 255
0.50610042 0.1908886 1.6120001 74 80 73 255
0.50951636 0.1905207 1.6090001 77 83 76 255
0.51291573 0.19015299 1.6060001 86 94 87 255
0.51629889 0.18978551 1.603 88 96 89 255
0.5199905 0.18953665 1.6010001 87 93 86 255
0.52399862 0.18940632 1.6 72 80 73 255
0.52800137 0.18927622 1.5990001 64 70 63 255
0.53266442 0.18938306 1.6 66 72 64 255
0.53699732 0.18937169 1.6 73 79 71 255
0.54065359 0.18912385 1.598 75 81 73 255
0.54429913 0.18887624 1.5960001 78 84 77 255
0.54965276 0.18922055 1.5990001 76 80 72 255
0.55710143 0.19027501 1.608 76 78 68 255
0.5649482 0.19144791 1.618 76 78 68 255
0.57003444 0.1916744 1.6200001 25 28 16 255
0.57264972 0.19107293 1.6150001 28 31 17 255
0.57559544 0.19059004 1.6110001 47 52 40 255
0.57887983 0.19022578 1.608 55 60 48 255
0.58214831 0.18986179 1.605 50 55 44 255
0.58503556 0.18937981 1.6010001 65 72 61 255
0.58790153 0.18889819 1.5970001 73 80 69 255
0.59185886 0.18877169 1.5960001 73 80 69 255
0.59618479 0.18876375 1.5960001 73 80 69 255
0.60051131 0.18875611 1.5960001 71 78 67 255
0.60483855 0.18874878 1.5960001 64 71 60 255
0.60954797 0.18886003 1.5970001 73 80 69 255
0.61464798 0.1890898 1.5990001 73 80 69 255
0.62014669 0.18943816 1.6020001 79 86 74 255
0.62488276 0.18955031 1.603 80 85 73 255
0.62923253 0.18954453 1.603 84 87 73 255
0.63279271 0.18930264 1.6010001 14 17 5 255
0.63435322 0.18846993 1.5940001 22 23 9 255
0.63627726 0.18775581 1.5880001 20 23 9 255
0.64139694 0.18798798 1.59 21 24 10 255
0.64571631 0.18798402 1.59 20 23 9 255
0.65003681 0.18798044 1.59 19 24 10 255
0.65024298 0.186795 1.58 22 25 11 255
0.65453869 0.18679222 1.58 21 24 10 255
0.6580016 0.18655337 1.5780001 20 23 9 255
0.6656521 0.18749715 1.5860001 21 24 10 255
0.67039049 0.18761379 1.5870001 22 26 9 255
0.67641115 0.18808548 1.5910001 22 26 9 255
0.6773206 0.18713897 1.5830001 21 25 8 255
0.68120223 0.18702045 1.582 22 26 9 255
0.68508005 0.18690237 1.5810001 23 27 9 255
0.69069827 0.1872576 1.5840001 23 27 9 255
0.69238544 0.18654931 1.5780001 26 30 12 255
0.69315881 0.18560505 1.5700001 28 32 14 255
0.6947788 0.18489768 1.5640001 22 28 10 255
0.70173132 0.18560942 1.5700001 23 29 12 255
0.71231622 0.18726745 1.5840001 25 31 14 255
0.71664566 0.18727088 1.5840001 22 31 12 255
0.72052205 0.18715657 1.5830001 13 23 6 255
0.72073191 0.18609692 1.5740001 63 74 61 255
0.72227657 0.18539242 1.5680001 146 156 145 255
0.72240055 0.18433371 1.559 140 151 144 255
0.72480822 0.18386666 1.5550001 147 156 149 255
0.72719622 0.18340012 1.5510001 166 173 169 255
0.72862154 0.18269756 1.5450001 174 181 177 255
0.73001653 0.18199551 1.539 174 181 178 255
0.72899562 0.18070266 1.5280001 177 184 181 255
0.72935647 0.17976503 1.5200001 177 184 183 255
0.73015863 0.17894615 1.5130001 178 185 184 255
0.73189551 0.17836429 1.508 180 187 186 255
0.73311973 0.17766468 1.5020001 181 188 187 255
-0.76467639 0.18737981 1.6220001 222 224 214 255
-0.7531969 0.18564007 1.6070001 224 226 216 255
-0.74133617 0.18378544 1.5910001 207 214 202 255
-0.73327142 0.18285562 1.5830001 198 207 195 255
-0.72525281 0.18192634 1.575 195 202 190 255
-0.71956891 0.18157515 1.572 190 198 183 255
-0.71299362 0.18099348 1.567 188 196 179 255
-0.70735246 0.18064336 1.5640001 185 191 173 255
-0.70128006 0.1801782 1.5600001 183 189 171 255
-0.69567853 0.17982905 1.557 178 185 164 255
-0.6909833 0.17971134 1.5560001 172 179 158 255
-0.68629539 0.1795941 1.5550001 170 179 158 255
-0.6816147 0.1794773 1.554 167 176 155 255
-0.6773771 0.17947645 1.554 172 179 158 255
-0.67270815 0.17936057 1.5530001 160 167 146 255
-0.66761571 0.17912962 1.5510001 173 180 159 255
-0.66296333 0.17901453 1.5500001 165 174 153 255
-0.65789312 0.17878442 1.5480001 176 183 162 255
-0.65367961 0.17878567 1.5480001 169 179 156 255
-0.64904803 0.17867181 1.5470001 171 180 159 255
-0.64484 0.17867385 1.5470001 171 178 156 255
-0.64021915 0.17856078 1.5460001 172 179 157 255
-0.63601637 0.17856358 1.5460001 173 180 158 255
-0.63181478 0.17856674 1.5460001 180 187 165 255
-0.62720829 0.17845476 1.5450001 161 168 146 255
-0.6226083 0.17834312 1.544 162 167 145 255
-0.61721379 0.17800084 1.5410001 164 169 147 255
-0.61263216 0.17788987 1.5400001 167 172 150 255
-0.60805678 0.17777923 1.539 161 166 144 255
-0.60348779 0.17766893 1.5380001 163 168 146 255
-0.59931475 0.17767444 1.5380001 156 161 139 255
-0.59514248 0.1776803 1.5380001 152 160 135 255
-0.59058672 0.17757091 1.5370001 159 166 144 255
-0.58641851 0.17757735 1.5370001 175 182 160 255
-0.58187222 0.17746854 1.536 162 169 147 255
-0.57770807 0.17747554 1.536 172 179 157 255
-0.57354444 0.17748284 1.536 170 177 155 255
-0.56938148 0.1774904 1.536 175 183 157 255
-0.56485099 0.17738271 1.5350001 180 189 160 255
-0.5606916 0.17739078 1.5350001 173 182 153 255
-0.55617011 0.17728357 1.534 179 186 157 255
-0.55165434 0.17717659 1.5330001 180 187 158 255
-0.54785866 0.177301 1.534 176 183 152 255
-0.54299456 0.17707889 1.5320001 179 186 155 255
-0.53884506 0.17708817 1.5320001 185 192 161 255
-0.5346958 0.17709768 1.5320001 182 189 160 255
-0.53020036 0.17699181 1.531 160 167 138 255
-0.52502328 0.17665491 1.5280001 154 162 136 255
-0.51986265 0.17631815 1.5250001 162 170 145 255
-0.51539475 0.17621283 1.524 175 183 158 255
-0.51026136 0.17587641 1.521 187 195 170 255
-0.50614262 0.17588705 1.521 179 185 159 255
-0.50136364 0.17566659 1.5190001 154 160 134 255
-0.49692303 0.17556192 1.5180001 166 172 146 255
-0.49248764 0.17545742 1.5170001 143 149 123 255
-0.48837954 0.1754687 1.5170001 141 147 121 255
-0.48427138 0.17548016 1.5170001 155 161 135 255
-0.47984657 0.17537609 1.516 168 174 149 255
-0.47542703 0.17527215 1.5150001 161 167 142 255
-0.47101265 0.17516832 1.5140001 147 153 127 255
-0.46660358 0.17506464 1.5130001 163 170 141 255
-0.46281102 0.17519246 1.5140001 146 150 122 255
-0.45870981 0.17520472 1.5140001 143 147 119 255
-0.45460832 0.17521708 1.5140001 154 161 132 255
-0.45080411 0.1753453 1.5150001 162 169 140 255
-0.44669929 0.17535791 1.5150001 187 194 163 255
-0.44288635 0.17548636 1.516 164 171 140 255
-0.43906754 0.17561492 1.5170001 139 144 113 255
-0.43552965 0.17585938 1.5190001 137 142 110 255
-0.43141255 0.17587237 1.5190001 142 147 115 255
-0.42701373 0.17576967 1.5180001 156 161 130 255
-0.42317703 0.17589861 1.5190001 145 152 121 255
-0.4193345 0.17602766 1.5200001 151 158 127 255
-0.4160324 0.17638841 1.5230001 173 180 149 255
-0.41190213 0.17640178 1.5230001 140 145 113 255
-0.40830681 0.17664687 1.5250001 141 147 112 255
-0.40470022 0.17689209 1.5270001 141 147 112 255
-0.40081987 0.1770215 1.5280001 139 143 108 255
-0.39693353 0.17715096 1.529 164 169 137 255
-0.39175677 0.17670113 1.5250001 187 192 161 255
-0.38761783 0.17671479 1.5250001 148 155 124 255
-0.38322681 0.17661257 1.524 146 153 122 255
-0.37983564 0.17697392 1.5270001 133 140 109 255
-0.37544337 0.17687175 1.526 170 177 148 255
-0.37056935 0.17653772 1.5230001 174 180 154 255
-0.36498916 0.17585588 1.5170001 138 144 118 255
-0.36039245 0.17563766 1.5150001 160 168 142 255
-0.35557076 0.17530343 1.5120001 190 198 172 255
-0.35099721 0.17508513 1.5100001 164 173 144 255
-0.3462041 0.17475078 1.5070001 133 142 111 255
-0.34210762 0.17476428 1.5070001 145 154 123 255
-0.33823481 0.17489372 1.508 150 159 130 255
-0.33413422 0.17490715 1.508 179 188 159 255
-0.3295953 0.17468859 1.506 190 199 170 255
-0.32420203 0.17400594 1.5000001 132 140 114 255
-0.016494829 0.17602755 1.5120001 78 58 42 255
-0.012619431 0.1799867 1.5460001 80 62 46 255
-0.0086167865 0.18522625 1.5910001 81 65 49 255
-0.0043268665 0.18871926 1.6210001 83 69 52 255
0.00012655728 0.19023286 1.6340001 78 68 51 255
0.004637274 0.19116409 1.6420001 70 67 53 255
0.009158494 0.19139655 1.6440001 69 67 56 255
0.013707302 0.1918616 1.6480001 65 72 61 255
0.018211639 0.19162783 1.646 68 76 68 255
0.02276016 0.19185951 1.6480001 65 73 65 255
0.027236786 0.19150881 1.6450001 67 75 67 255
0.031774044 0.19162355 1.646 74 81 70 255
0.036206413 0.19115596 1.6420001 76 83 72 255
0.040691059 0.19103736 1.641 82 89 78 255
0.045225132 0.19115135 1.6420001 85 92 81 255
0.049764514 0.19126505 1.6430001 86 95 84 255
0.054276157 0.19126211 1.6430001 80 88 80 255
0.058751799 0.1911425 1.6420001 76 84 76 255
0.063183196 0.19090624 1.6400001 72 80 72 255
0.067727171 0.19101894 1.641 73 81 73 255
0.072232351 0.19101501 1.641 83 89 81 255
0.076877542 0.19136003 1.6440001 85 91 83 255
0.081340857 0.19123918 1.6430001 86 92 84 255
0.085850619 0.19123448 1.6430001 78 84 76 255
0.09030506 0.19111317 1.6420001 75 83 75 255
0.09481138 0.19110797 1.6420001 72 80 72 255
0.099135898 0.19075343 1.6390001 70 78 70 255
0.10357001 0.1906314 1.6380001 75 83 75 255
0.10780031 0.19016002 1.6340001 74 82 74 255
0.11221442 0.19003756 1.6330001 75 81 74 255
0.1164082 0.18956575 1.6290001 69 75 68 255
0.12095062 0.18967557 1.6300001 63 71 63 255
0.12526722 0.18943608 1.628 70 76 68 255
0.1294927 0.18908003 1.6250001 78 84 76 255
0.13370124 0.18872376 1.6220001 86 94 86 255
0.13814837 0.18871638 1.6220001 82 90 82 255
0.14268284 0.18882507 1.623 70 79 68 255
0.14767557 0.18951528 1.6290001 67 76 64 255
0.15260725 0.19008885 1.6340001 66 75 63 255
0.15756577 0.19066213 1.6390001 66 73 61 255
0.16166124 0.19018827 1.6350001 65 73 58 255
0.16563259 0.18959795 1.6300001 65 72 60 255
0.16947158 0.18889113 1.6240001 65 74 63 255
0.17349133 0.18841681 1.6200001 75 83 75 255
0.17759834 0.18805863 1.6170001 84 92 84 255
0.18180087 0.18781658 1.6150001 84 92 85 255
0.18633772 0.18792321 1.6160001 81 89 82 255
0.19111551 0.18826224 1.6190001 78 86 79 255
0.19590907 0.188601 1.6220001 73 81 74 255
0.20071837 0.1889396 1.6250001 75 83 76 255
0.20491213 0.18869661 1.623 65 73 65 255
0.20922324 0.18856972 1.6220001 65 73 65 255
0.21326472 0.18821019 1.6190001 69 77 69 255
0.21728913 0.18785055 1.6160001 71 79 71 255
0.22102198 0.18725829 1.6110001 92 100 93 255
0.2252865 0.18713084 1.6100001 99 107 100 255
0.23054346 0.18781681 1.6160001 92 100 93 255
0.23568711 0.18838632 1.6210001 64 72 64 255
0.23982041 0.18814212 1.6190001 60 69 58 255
0.2433386 0.18743302 1.613 64 71 60 255
0.24697687 0.18684007 1.608 78 85 74 255
0.25105599 0.1865956 1.6060001 76 85 74 255
0.25544158 0.18658336 1.6060001 59 67 59 255
0.25998816 0.18668717 1.6070001 50 58 51 255
0.26388142 0.18632619 1.6040001 87 95 88 255
0.2682592 0.18631357 1.6040001 94 102 94 255
0.27297619 0.18653315 1.6060001 77 83 75 255
0.27735788 0.18652028 1.6060001 60 67 56 255
0.28138795 0.18627504 1.6040001 53 60 49 255
0.28487188 0.18568134 1.5990001 64 71 60 255
0.28887039 0.18543597 1.5970001 69 76 65 255
0.29285717 0.18519051 1.595 100 106 98 255
0.29757768 0.18540941 1.5970001 81 87 80 255
0.3024973 0.18574426 1.6 72 78 71 255
0.3074325 0.18607895 1.603 71 77 70 255
0.31179976 0.1860653 1.603 69 75 67 255
0.31596902 0.18593551 1.6020001 71 77 69 255
0.31993207 0.18568961 1.6 67 72 61 255
0.32388341 0.18544365 1.598 72 77 66 255
0.32782316 0.18519767 1.5960001 78 83 72 255
0.3325837 0.18541577 1.598 76 81 70 255
0.33735436 0.18563376 1.6 71 78 67 255
0.34213519 0.18585171 1.6020001 70 77 66 255
0.34627727 0.18572155 1.6010001 71 78 66 255
0.35041311 0.18559134 1.6 70 77 66 255
0.35432103 0.18534513 1.598 72 77 66 255
0.3584418 0.18521489 1.5970001 76 80 72 255
0.36301073 0.18531658 1.598 75 79 71 255
0.36781427 0.18553418 1.6 74 78 70 255
0.3723954 0.18563579 1.6010001 73 77 69 255
0.37651053 0.18550548 1.6 73 77 69 255
0.38085759 0.18549109 1.6 73 77 69 255
0.38544476 0.18559264 1.6010001 73 78 67 255
0.39028007 0.18581006 1.603 73 78 67 255
0.39512563 0.18602745 1.605 71 78 67 255
0.40023026 0.18636073 1.608 75 80 69 255
0.40509897 0.18657808 1.6100001 70 77 66 255
0.40997785 0.18679541 1.6120001 73 80 69 255
0.41409582 0.1866651 1.6110001 73 80 69 255
0.41898707 0.18688244 1.613 69 76 65 255
0.42336357 0.18686807 1.613 70 77 66 255
0.42800471 0.18696959 1.6140001 69 76 65 255
0.43265069 0.18707114 1.6150001 69 76 65 255
0.43730155 0.18717273 1.6160001 68 75 63 255
0.44195735 0.18727435 1.6170001 67 74 62 255
0.44578984 0.18702859 1.6150001 67 74 62 255
0.45044726 0.18713032 1.6160001 69 76 64 255
0.45567259 0.18746372 1.6190001 68 75 63 255
0.4603453 0.18756555 1.6200001 65 74 62 255
0.4655968 0.18789901 1.623 64 74 59 255
0.46999529 0.1878852 1.623 66 76 61 255
0.47468576 0.18798725 1.6240001 62 72 57 255
0.47820124 0.18762641 1.6210001 63 72 60 255
0.48259315 0.18761294 1.6210001 68 75 63 255
0.48668447 0.18748386 1.6200001 66 73 61 255
0.4913761 0.18758634 1.6210001 66 73 62 255
0.4954614 0.18745753 1.6200001 63 70 58 255
0.49892378 0.18709743 1.6170001 58 65 54 255
0.50205839 0.1866218 1.613 61 68 57 255
0.50611311 0.1864935 1.6120001 67 75 68 255
0.50952882 0.18613395 1.6090001 76 84 77 255
0.51292813 0.18577462 1.6060001 80 88 81 255
0.51631105 0.18541551 1.603 86 94 87 255
0.52065188 0.18540356 1.603 84 90 83 255
0.52466536 0.18527615 1.6020001 72 78 71 255
0.52933371 0.18538024 1.603 64 70 62 255
0.53400749 0.18548447 1.6040001 60 66 58 255
0.53801537 0.18535762 1.603 60 66 58 255
0.54134119 0.18499972 1.6 66 72 65 255
0.54499197 0.18475771 1.598 78 84 77 255
0.54966331 0.18486275 1.5990001 82 86 78 255
0.55676538 0.18577723 1.6070001 83 85 77 255
0.56321257 0.18646063 1.613 73 75 65 255
0.56898886 0.18691301 1.6170001 26 29 17 255
0.57159573 0.1863253 1.6120001 31 34 20 255
0.57453299 0.18585344 1.608 48 53 41 255
0.57744902 0.18538192 1.6040001 53 58 47 255
0.58106905 0.1851418 1.6020001 52 57 46 255
0.5839479 0.18467084 1.598 60 65 54 255
0.58717352 0.18431574 1.595 72 79 68 255
0.59149611 0.18430765 1.595 73 80 69 255
0.59619254 0.18441533 1.5960001 70 77 66 255
0.60051882 0.18440777 1.5960001 66 73 62 255
0.60446668 0.18428494 1.595 63 69 61 255
0.60840976 0.18416245 1.5940001 81 88 77 255
0.61311686 0.18427132 1.595 75 82 71 255
0.61744314 0.18426496 1.595 80 85 74 255
0.62293953 0.18460551 1.598 78 83 72 255
0.62727541 0.18459976 1.598 85 88 76 255
0.63358843 0.18517196 1.603 15 18 6 255
0.63555205 0.18447384 1.5970001 20 23 11 255
0.63908654 0.18423811 1.595 19 22 8 255
0.64180446 0.18377173 1.5910001 20 25 11 255
0.64490783 0.18342124 1.5880001 19 24 10 255
0.6484049 0.18318664 1.5860001 21 26 12 255
0.6523037 0.18306792 1.585 20 25 11 255
0.65578401 0.18283406 1.5830001 21 27 10 255
0.65883785 0.18248512 1.58 22 25 11 255
0.66355538 0.18259856 1.5810001 22 25 11 255
0.66785729 0.18259691 1.5810001 22 25 11 255
0.67173553 0.18248014 1.58 21 24 10 255
0.67261463 0.18155536 1.572 24 28 11 255
0.67517406 0.18109296 1.5680001 22 26 9 255
0.67901325 0.18097746 1.567 23 27 10 255
0.6832847 0.18097793 1.567 24 28 11 255
0.68668026 0.18074781 1.5650001 23 27 10 255
0.68830067 0.18005615 1.559 27 31 14 255
0.69255543 0.18005793 1.559 25 31 14 255
0.69904703 0.18063766 1.5640001 22 28 11 255
0.7082659 0.18191084 1.575 27 33 16 255
0.71302265 0.18202956 1.5760001 28 37 18 255
0.71733189 0.18203326 1.5760001 13 24 5 255
0.71889573 0.1813444 1.5700001 41 51 36 255
0.72088963 0.18077153 1.5650001 127 138 125 255
0.7219317 0.17996812 1.5580001 132 144 135 255
0.72433597 0.1795117 1.554 143 152 145 255
0.72625196 0.17894028 1.549 156 163 159 255
0.72814292 0.17836931 1.544 172 179 175 255
