ply
format ascii 1.0
comment PCL generated
element vertex 972
property float x
property float y
property float z
property uchar red
property uchar green
property uchar blue
property uchar alpha
element camera 0
property float view_px
property float view_py
property float view_pz
property float x_axisx
property float x_axisy
property float x_axisz
property float y_axisx
property float y_axisy
property float y_axisz
property float z_axisx
property float z_axisy
property float z_axisz
property float focal
property float scalex
property float scaley
property float centerx
property float centery
property int viewportx
property int viewporty
property float k1
property float k2
end_header
0.60710251 -0.067216471 1.5790001 77 82 71 255
0.61137968 -0.067213431 1.5790001 75 80 68 255
0.61448777 -0.0670828 1.5760001 76 83 72 255
0.61836553 -0.067037426 1.575 77 82 71 255
0.62223858 -0.066992179 1.5740001 79 81 71 255
0.6273011 -0.067074731 1.5760001 85 87 77 255
0.63357759 -0.067285076 1.5810001 14 14 4 255
0.63746119 -0.067240193 1.58 21 21 11 255
0.63890338 -0.066940106 1.5730001 21 19 9 255
0.64194399 -0.066810377 1.5700001 18 19 7 255
0.64579266 -0.066765897 1.5690001 20 21 9 255
0.65005124 -0.066764109 1.5690001 22 23 11 255
0.65139163 -0.066464595 1.562 22 23 9 255
0.65437424 -0.066335432 1.559 22 23 9 255
0.65649688 -0.066121332 1.554 23 24 10 255
0.65944391 -0.065992475 1.5510001 24 25 11 255
0.66280377 -0.065906309 1.549 22 23 9 255
0.66744614 -0.065947942 1.5500001 23 24 10 255
0.67252862 -0.066032276 1.552 22 23 9 255
0.67675126 -0.066031657 1.552 22 23 9 255
0.68053681 -0.06598866 1.5510001 23 24 10 255
0.68343544 -0.065860726 1.5480001 20 23 9 255
0.68587518 -0.065690413 1.544 20 23 9 255
0.69008255 -0.065690435 1.544 25 26 12 255
0.69564074 -0.065818273 1.5470001 24 26 9 255
0.70257437 -0.066073924 1.5530001 22 24 7 255
0.7031709 -0.065734096 1.5450001 24 26 9 255
0.70876205 -0.065862454 1.5480001 28 30 13 255
0.71529275 -0.066076085 1.5530001 25 29 11 255
0.72092634 -0.066204816 1.5560001 18 24 6 255
0.72284997 -0.065993339 1.5510001 16 24 9 255
0.72521728 -0.065824583 1.5470001 102 111 99 255
0.72709352 -0.065613471 1.5420001 149 158 147 255
0.72894466 -0.06540253 1.5370001 158 166 159 255
0.73124796 -0.065234333 1.5330001 167 175 168 255
0.73257214 -0.064981207 1.5270001 170 177 173 255
0.73386604 -0.064728267 1.521 175 182 178 255
0.73367393 -0.064347833 1.5120001 178 185 181 255
0.73343498 -0.063967563 1.503 180 185 181 255
-1.0164634 -0.082390472 1.8150001 36 38 28 255
-0.98852104 -0.080915093 1.7830001 46 47 33 255
-0.98517394 -0.08104039 1.7860001 43 45 28 255
-0.96974182 -0.080167875 1.7670001 29 31 13 255
-0.95496762 -0.079341285 1.7490001 32 34 16 255
-0.9636575 -0.080465645 1.774 32 34 16 255
-0.97761726 -0.082043625 1.8090001 28 30 13 255
-0.96074182 -0.081036739 1.7870001 24 26 8 255
-0.94972026 -0.080928825 1.7850001 32 31 15 255
-0.94740081 -0.081147373 1.7900001 25 24 10 255
-0.93031627 -0.080096975 1.7670001 22 21 7 255
-0.93378937 -0.080814779 1.7830001 23 19 8 255
-0.92154956 -0.080173112 1.7690001 21 20 6 255
-0.92649132 -0.081027344 1.7880001 24 21 7 255
-0.93133235 -0.081881732 1.807 24 18 2 255
-0.92787009 -0.082011327 1.8100001 28 16 0 255
-0.92184609 -0.081914671 1.8080001 40 25 5 255
-0.91837269 -0.082044825 1.8110001 60 41 19 255
-0.91639966 -0.082311153 1.817 74 54 28 255
-0.91188949 -0.082351267 1.8180001 90 66 38 255
-0.90787625 -0.082436934 1.8200001 110 84 56 255
-0.9038558 -0.082522884 1.8220001 111 84 55 255
-0.90032107 -0.082654379 1.825 109 83 51 255
-0.89481109 -0.082604975 1.8240001 109 82 46 255
-0.88979781 -0.082601145 1.8240001 116 89 53 255
-0.88478786 -0.082597569 1.8240001 114 84 49 255
-0.88074577 -0.082684822 1.8260001 108 78 43 255
-0.87573659 -0.082681768 1.8260001 109 81 48 255
-0.87025368 -0.082633689 1.825 101 75 42 255
-0.86430508 -0.082540587 1.8230001 99 73 40 255
-0.85884172 -0.082493007 1.8220001 95 70 37 255
-0.85479242 -0.082581498 1.8240001 95 70 38 255
-0.84933716 -0.082534388 1.8230001 90 67 35 255
-0.84342682 -0.082442254 1.8210001 85 62 32 255
-0.83246529 -0.081852369 1.8080001 83 61 33 255
-0.80372667 -0.079497114 1.756 61 45 29 255
-0.75753051 -0.075376563 1.6650001 247 244 230 255
-0.73987222 -0.074063078 1.636 225 233 218 255
-0.72911698 -0.073428869 1.6220001 218 229 210 255
-0.72112077 -0.07306648 1.6140001 154 163 144 255
-0.71494633 -0.072885357 1.6100001 155 164 143 255
-0.70967799 -0.072794951 1.608 144 151 129 255
-0.70573825 -0.072840542 1.6090001 164 169 148 255
-0.70092279 -0.072795756 1.608 187 192 171 255
-0.69568133 -0.072705887 1.6060001 212 218 200 255
-0.68959129 -0.072525635 1.6020001 179 186 165 255
-0.68395227 -0.072390817 1.5990001 145 154 133 255
-0.67918092 -0.072346695 1.598 142 149 128 255
-0.67483872 -0.072348021 1.598 163 173 150 255
-0.66965872 -0.072258949 1.5960001 189 196 174 255
-0.6644907 -0.072170019 1.5940001 179 186 164 255
-0.65809232 -0.071945414 1.5890001 175 184 163 255
-0.65336794 -0.071902059 1.5880001 174 183 162 255
-0.64905882 -0.071904123 1.5880001 185 192 171 255
-0.64434481 -0.071861051 1.5870001 161 168 147 255
-0.63963705 -0.071818113 1.5860001 164 171 150 255
-0.63453507 -0.071730018 1.5840001 182 189 168 255
-0.62984276 -0.071687348 1.5830001 165 172 151 255
-0.62515658 -0.07164479 1.582 168 175 154 255
-0.62008429 -0.071557082 1.58 170 177 155 255
-0.61619276 -0.071605362 1.5810001 162 169 147 255
-0.61152238 -0.071563177 1.58 158 166 141 255
-0.60724252 -0.07156641 1.58 148 156 131 255
-0.6018182 -0.071433857 1.577 172 180 155 255
-0.59716868 -0.071392022 1.5760001 155 163 138 255
-0.59252501 -0.071350284 1.575 165 173 148 255
-0.58826071 -0.07135395 1.575 168 174 148 255
-0.58362615 -0.071312428 1.5740001 167 173 147 255
-0.57899725 -0.071270987 1.5730001 173 180 151 255
-0.57400888 -0.071184352 1.5710001 158 164 138 255
-0.56939417 -0.071143106 1.5700001 167 173 148 255
-0.5647853 -0.071101964 1.5690001 160 168 143 255
-0.56053925 -0.071106218 1.5690001 161 167 142 255
-0.55593884 -0.07106524 1.5680001 157 162 140 255
-0.55099219 -0.070979021 1.5660001 161 166 144 255
-0.54605645 -0.070892878 1.5640001 156 159 137 255
-0.54147816 -0.070852138 1.5630001 159 162 140 255
-0.53724897 -0.07085681 1.5630001 163 168 146 255
-0.53267878 -0.070816211 1.562 163 168 146 255
-0.52811408 -0.070775703 1.5610001 160 167 145 255
-0.52355474 -0.070735246 1.5600001 171 178 156 255
-0.5193336 -0.070740208 1.5600001 170 178 153 255
-0.51577282 -0.070835933 1.562 173 181 156 255
-0.51121861 -0.070795685 1.5610001 167 175 150 255
-0.50634474 -0.07071013 1.559 156 164 138 255
-0.50115961 -0.070579275 1.5560001 154 162 136 255
-0.49694851 -0.070584543 1.5560001 153 160 131 255
-0.49305394 -0.070635229 1.557 151 157 131 255
-0.48883966 -0.070640609 1.557 140 148 122 255
-0.48462513 -0.07064604 1.557 151 159 133 255
-0.47979313 -0.070560776 1.5550001 161 169 144 255
-0.47497171 -0.070475541 1.5530001 167 175 150 255
-0.47016072 -0.070390336 1.5510001 165 173 148 255
-0.46596104 -0.070395939 1.5510001 160 168 143 255
-0.46176097 -0.070401579 1.5510001 165 173 148 255
-0.45697036 -0.070316464 1.549 155 163 137 255
-0.45248252 -0.070276782 1.5480001 153 161 135 255
-0.44799963 -0.070237115 1.5470001 156 164 139 255
-0.4440954 -0.070288286 1.5480001 153 161 135 255
-0.43961695 -0.070248686 1.5470001 149 157 131 255
-0.43514335 -0.070209101 1.5460001 152 160 134 255
-0.43067467 -0.070169523 1.5450001 150 156 130 255
-0.42593473 -0.070084549 1.5430001 144 151 122 255
-0.42175177 -0.070090428 1.5430001 145 152 121 255
-0.41783878 -0.070141755 1.544 144 149 118 255
-0.41391987 -0.070193119 1.5450001 139 143 115 255
-0.40999487 -0.070244499 1.5460001 168 174 148 255
-0.40448886 -0.070023254 1.5410001 199 205 180 255
-0.39874953 -0.06975653 1.5350001 182 189 168 255
-0.39381337 -0.069626123 1.5320001 161 168 147 255
-0.38940138 -0.069586597 1.531 148 155 133 255
-0.38549751 -0.069637991 1.5320001 143 149 124 255
-0.38108963 -0.069598466 1.531 142 146 120 255
-0.37717888 -0.069649868 1.5320001 141 148 119 255
-0.37277496 -0.069610327 1.531 133 141 115 255
-0.36837578 -0.069570787 1.5300001 142 150 124 255
-0.36398134 -0.06953124 1.529 155 163 137 255
-0.35982686 -0.069537148 1.529 155 165 139 255
-0.35567161 -0.069543049 1.529 133 143 118 255
-0.35174555 -0.069594428 1.5300001 151 161 135 255
-0.34735888 -0.069554813 1.529 157 167 141 255
-0.34297693 -0.069515198 1.5280001 135 145 120 255
-0.33904302 -0.069566533 1.529 138 148 123 255
-0.33554101 -0.069708869 1.5320001 139 147 122 255
-0.3318055 -0.069805697 1.534 135 143 118 255
-0.32805833 -0.069902517 1.536 139 147 122 255
-0.3236669 -0.069862805 1.5350001 145 151 125 255
-0.31990451 -0.069959596 1.5370001 141 147 121 255
-0.31571957 -0.069965333 1.5370001 131 137 111 255
-0.31214193 -0.070107624 1.5400001 140 146 120 255
-0.30794716 -0.070113309 1.5400001 144 152 126 255
-0.30414608 -0.070210032 1.5420001 138 147 118 255
-0.30013877 -0.07026121 1.5430001 137 144 115 255
-0.29650876 -0.070403427 1.5460001 139 147 121 255
-0.29229435 -0.070408992 1.5460001 152 160 134 255
-0.28807905 -0.070414528 1.5460001 150 156 130 255
-0.2842302 -0.070511118 1.5480001 143 149 123 255
-0.28073135 -0.070698783 1.552 139 146 117 255
-0.27703175 -0.07084088 1.5550001 134 141 110 255
-0.27278861 -0.070846267 1.5550001 156 163 132 255
-0.26889002 -0.070942737 1.557 152 161 132 255
-0.26565963 -0.071221441 1.5630001 148 157 128 255
-0.26256284 -0.071545705 1.5700001 143 153 128 255
-0.25942698 -0.071869947 1.577 143 153 128 255
-0.25641385 -0.072239786 1.585 145 155 132 255
-0.25319713 -0.072564021 1.5920001 150 160 137 255
-0.25025398 -0.072979413 1.6010001 147 157 134 255
-0.24649291 -0.07316687 1.605 152 159 138 255
-0.24286 -0.073399886 1.6100001 108 115 94 255
-0.23934706 -0.073678449 1.6160001 94 100 82 255
-0.23609121 -0.074048176 1.6240001 52 58 41 255
-0.23250555 -0.074326701 1.6300001 49 54 40 255
-0.2283266 -0.074422777 1.6320001 59 64 50 255
-0.22413594 -0.0745188 1.6340001 52 57 43 255
-0.21979909 -0.074569136 1.6350001 50 55 41 255
-0.21545601 -0.07461942 1.636 51 55 38 255
-0.21110667 -0.074669644 1.6370001 52 56 39 255
-0.20662484 -0.074674167 1.6370001 53 57 40 255
-0.20214228 -0.074678607 1.6370001 48 52 35 255
-0.19741751 -0.074591741 1.6350001 54 58 41 255
-0.19270295 -0.074504778 1.6330001 59 63 46 255
-0.18788335 -0.07437209 1.6300001 59 62 48 255
-0.18341705 -0.074376203 1.6300001 57 60 46 255
-0.17884029 -0.074334592 1.6290001 56 59 45 255
-0.17437537 -0.074338533 1.6290001 53 58 44 255
-0.16980548 -0.07429675 1.628 50 55 43 255
-0.16544352 -0.074346155 1.6290001 54 59 47 255
-0.16107547 -0.074395478 1.6300001 50 55 43 255
-0.15650915 -0.074353427 1.6290001 50 57 45 255
-0.15176098 -0.074219994 1.626 55 62 50 255
-0.1471193 -0.0741321 1.6240001 65 72 60 255
-0.142488 -0.074044116 1.6220001 65 72 61 255
-0.13795222 -0.074001677 1.6210001 71 76 64 255
-0.13350372 -0.074004799 1.6210001 68 71 57 255
-0.12913431 -0.074053481 1.6220001 59 62 48 255
-0.12483574 -0.074147731 1.6240001 60 61 47 255
-0.12045157 -0.074196227 1.6250001 57 59 42 255
-0.11584726 -0.074107654 1.623 53 54 40 255
-0.11132211 -0.074064642 1.6220001 56 57 43 255
-0.10680198 -0.074021511 1.6210001 60 61 47 255
-0.10235003 -0.074023955 1.6210001 62 63 49 255
-0.097776905 -0.07393498 1.6190001 64 67 55 255
-0.093271971 -0.073891543 1.618 64 69 58 255
-0.088717259 -0.073802352 1.6160001 74 79 68 255
-0.084381767 -0.073895738 1.618 79 83 75 255
-0.07988672 -0.07385201 1.6170001 72 77 66 255
-0.075536788 -0.073945187 1.6190001 61 63 53 255
-0.071219467 -0.074083954 1.6220001 61 64 52 255
-0.066926509 -0.074268289 1.626 61 62 48 255
-0.06249604 -0.074315496 1.6270001 63 65 48 255
-0.057917159 -0.074179903 1.6240001 59 61 44 255
-0.053453259 -0.074181229 1.6240001 64 66 49 255
-0.048958976 -0.074136779 1.623 63 66 52 255
-0.044442553 -0.07404653 1.6210001 65 68 54 255
-0.039936941 -0.073956177 1.6190001 65 68 56 255
-0.035464067 -0.073911391 1.618 64 69 57 255
-0.03099655 -0.073866516 1.6170001 62 67 55 255
-0.026550807 -0.073867202 1.6170001 64 69 57 255
-0.022118621 -0.073913462 1.618 64 69 55 255
-0.01766992 -0.073913939 1.618 66 71 59 255
-0.013229315 -0.073959999 1.6190001 65 70 56 255
-0.0087723108 -0.07391458 1.618 69 72 58 255
-0.0043207672 -0.073869057 1.6170001 68 71 57 255
0.00012521837 -0.073777743 1.6150001 68 73 61 255
0.0045658597 -0.073777691 1.6150001 71 76 64 255
0.0090120574 -0.073823199 1.6160001 69 74 63 255
0.013438737 -0.073731564 1.6140001 70 75 64 255
0.017854361 -0.073639832 1.6120001 73 75 67 255
0.022258908 -0.073547989 1.6100001 74 76 68 255
0.026718657 -0.07363876 1.6120001 71 75 67 255
0.031208619 -0.073775113 1.6150001 73 78 67 255
0.035670791 -0.073819995 1.6160001 72 77 65 255
0.040088665 -0.073773406 1.6150001 73 78 66 255
0.04447329 -0.073681034 1.613 73 78 67 255
0.048907377 -0.073679924 1.613 72 77 66 255
0.053308181 -0.073633023 1.6120001 75 79 71 255
0.057703257 -0.073586017 1.6110001 77 83 75 255
0.062054031 -0.07349325 1.6090001 76 82 74 255
0.066434845 -0.073446035 1.608 73 80 69 255
0.070809893 -0.073398739 1.6070001 74 81 70 255
0.075225964 -0.073397018 1.6070001 77 81 73 255
0.0796417 -0.073395178 1.6070001 77 81 73 255
0.084004797 -0.073347569 1.6060001 74 79 68 255
0.08847215 -0.073391207 1.6070001 75 80 69 255
0.092886828 -0.073389068 1.6070001 75 82 70 255
0.097240575 -0.073341176 1.6060001 74 81 69 255
0.1016517 -0.073338844 1.6060001 77 84 72 255
0.10606243 -0.073336415 1.6060001 76 83 71 255
0.11067906 -0.073470876 1.6090001 74 81 69 255
0.11509714 -0.073468253 1.6090001 75 82 70 255
0.1195147 -0.073465519 1.6090001 76 81 67 255
0.12400883 -0.073508359 1.6100001 74 79 67 255
0.12858769 -0.073596753 1.6120001 74 79 67 255
0.13317701 -0.07368505 1.6140001 74 79 67 255
0.13769154 -0.073727593 1.6150001 74 79 68 255
0.14203499 -0.073678739 1.6140001 68 73 62 255
0.14628163 -0.073584147 1.6120001 73 78 67 255
0.15051672 -0.073489472 1.6100001 74 79 68 255
0.15512517 -0.073577292 1.6120001 74 81 70 255
0.15944706 -0.073528089 1.6110001 73 80 69 255
0.16376282 -0.073478803 1.6100001 69 76 65 255
0.16786356 -0.073338166 1.6070001 74 80 72 255
0.17226881 -0.073334359 1.6070001 74 79 68 255
0.17656347 -0.073284842 1.6060001 74 78 70 255
0.18085195 -0.073235229 1.605 77 82 71 255
0.18536513 -0.07327681 1.6060001 72 77 66 255
0.18988307 -0.073318303 1.6070001 73 79 71 255
0.1942849 -0.073314093 1.6070001 74 80 72 255
0.19856232 -0.073264174 1.6060001 82 88 80 255
0.20270722 -0.073168568 1.6040001 78 84 76 255
0.20684041 -0.07307291 1.6020001 77 84 73 255
0.21083003 -0.072931565 1.5990001 76 83 71 255
0.2157446 -0.073109418 1.603 74 81 69 255
0.22054298 -0.073241577 1.6060001 81 88 76 255
0.22563711 -0.073464863 1.6110001 81 88 76 255
0.23004386 -0.073460042 1.6110001 79 84 73 255
0.23474084 -0.073546343 1.613 79 83 75 255
0.23944795 -0.073632568 1.6150001 73 77 69 255
0.2437122 -0.073581956 1.6140001 66 70 62 255
0.24766268 -0.073440097 1.6110001 59 64 53 255
0.25159594 -0.073298201 1.608 68 70 62 255
0.25583041 -0.073247433 1.6070001 69 73 65 255
0.26005852 -0.073196597 1.6060001 70 74 67 255
0.26395106 -0.073054574 1.603 71 75 68 255
0.26883069 -0.073185936 1.6060001 82 86 79 255
0.27372587 -0.073317222 1.6090001 54 58 50 255
0.27863657 -0.073448442 1.6120001 48 52 44 255
0.2823337 -0.07326065 1.608 47 51 43 255
0.28600818 -0.073072851 1.6040001 50 54 46 255
0.28893581 -0.072702818 1.5960001 70 74 66 255
0.2923702 -0.072469436 1.5910001 84 90 82 255
0.296336 -0.072372697 1.5890001 79 85 77 255
0.30104682 -0.072458088 1.5910001 80 86 78 255
0.30538386 -0.072452359 1.5910001 78 84 76 255
0.3095254 -0.072401039 1.59 80 86 78 255
0.31385794 -0.072395228 1.59 81 87 79 255
0.31798962 -0.072343864 1.5890001 77 84 73 255
0.32292631 -0.072474562 1.5920001 80 87 76 255
0.32787848 -0.0726052 1.595 82 89 78 255
0.33284613 -0.072735786 1.598 86 90 82 255
0.33719626 -0.072729796 1.598 87 91 83 255
0.34111807 -0.072632752 1.5960001 76 80 72 255
0.34459525 -0.072444685 1.5920001 77 81 73 255
0.34848815 -0.072347634 1.59 79 83 75 255
0.35236937 -0.072250575 1.5880001 77 83 75 255
0.35736197 -0.07238099 1.5910001 84 90 82 255
0.36259735 -0.072556838 1.595 83 89 81 255
0.36785373 -0.072732657 1.5990001 84 90 82 255
0.37266546 -0.07281746 1.6010001 86 92 84 255
0.3777228 -0.072947718 1.6040001 88 94 86 255
0.38303378 -0.073123403 1.608 87 93 85 255
0.38884762 -0.073390014 1.6140001 81 89 81 255
0.39396238 -0.073520169 1.6170001 75 83 75 255
0.39786083 -0.073422976 1.6150001 77 83 75 255
0.40224579 -0.07341671 1.6150001 78 84 76 255
0.44903979 -0.073121302 1.6100001 148 154 147 255
0.45340315 -0.073115207 1.6100001 120 126 119 255
0.45748159 -0.073063731 1.6090001 87 93 85 255
0.46212825 -0.073103115 1.6100001 74 80 72 255
0.46677965 -0.073142521 1.6110001 65 71 63 255
0.47202098 -0.073272735 1.6140001 68 74 66 255
0.4763926 -0.073266789 1.6140001 87 93 85 255
0.48225302 -0.073487833 1.6190001 117 123 116 255
0.48693785 -0.073527344 1.6200001 129 135 128 255
0.49253744 -0.073703021 1.6240001 140 146 139 255
0.49785241 -0.073833354 1.6270001 153 159 152 255
0.50318319 -0.073963709 1.6300001 159 167 160 255
0.50790703 -0.074003331 1.631 162 170 163 255
0.51232189 -0.073997647 1.631 185 191 184 255
0.51610279 -0.073901281 1.6290001 188 194 187 255
0.54964668 -0.074226372 1.6370001 101 106 102 255
0.55069125 -0.073767856 1.6270001 68 74 67 255
0.55304658 -0.073490813 1.6210001 82 86 79 255
0.55640095 -0.073349886 1.618 81 87 80 255
0.55939263 -0.073163748 1.6140001 89 95 87 255
0.56306124 -0.073068358 1.6120001 55 60 49 255
0.5656631 -0.072837092 1.6070001 31 36 25 255
0.56859285 -0.072651267 1.603 45 52 40 255
0.57150102 -0.072465546 1.5990001 44 51 39 255
0.57510799 -0.072370581 1.5970001 57 66 54 255
0.57870442 -0.072275721 1.595 68 77 65 255
0.58229035 -0.072180972 1.5930001 70 79 67 255
0.58660209 -0.072176948 1.5930001 77 86 74 255
0.59054345 -0.07212773 1.5920001 74 83 72 255
0.59485328 -0.072123908 1.5920001 78 85 74 255
0.59803456 -0.071984306 1.5890001 72 79 68 255
0.60082096 -0.071799517 1.585 72 79 68 255
0.60434979 -0.071705453 1.5830001 74 81 70 255
0.60863727 -0.071702115 1.5830001 79 86 74 255
0.61253822 -0.071653582 1.582 74 81 69 255
0.61565459 -0.071514614 1.5790001 76 81 69 255
0.6191479 -0.071421042 1.577 78 83 71 255
0.62381721 -0.071463488 1.5780001 84 87 75 255
0.62889063 -0.071551338 1.58 79 80 68 255
0.63477737 -0.071729876 1.5840001 14 14 4 255
0.63665193 -0.071455717 1.5780001 18 18 8 255
0.63971353 -0.071317546 1.575 18 18 8 255
0.64275968 -0.071179524 1.572 15 17 7 255
0.6474371 -0.071222775 1.5730001 17 19 9 255
0.6517067 -0.071220882 1.5730001 19 21 11 255
0.6551432 -0.071128577 1.5710001 20 23 11 255
0.65857017 -0.071036436 1.5690001 22 23 11 255
0.66072017 -0.070808627 1.5640001 22 23 11 255
0.66241896 -0.070535704 1.5580001 21 24 10 255
0.66537017 -0.070398755 1.5550001 20 23 9 255
0.66787589 -0.070216715 1.5510001 23 24 10 255
0.67209458 -0.070215918 1.5510001 23 24 10 255
0.67631471 -0.070215285 1.5510001 23 24 10 255
0.68053639 -0.070214815 1.5510001 22 23 9 255
0.68387663 -0.070123978 1.549 23 24 10 255
0.6872077 -0.070033312 1.5470001 19 22 8 255
0.69231737 -0.070123903 1.549 19 22 8 255
0.69743985 -0.070214674 1.5510001 20 23 9 255
0.70031291 -0.070079282 1.5480001 23 24 10 255
0.70044076 -0.069672428 1.539 23 25 8 255
0.70647359 -0.069854289 1.5430001 26 28 11 255
0.71621495 -0.070398524 1.5550001 25 29 11 255
0.72139084 -0.070490241 1.557 15 21 3 255
0.72424948 -0.070355788 1.554 10 20 3 255
0.72615647 -0.070130982 1.549 97 107 92 255
0.72803831 -0.069906354 1.544 143 153 142 255
0.7294209 -0.069636658 1.5380001 156 165 158 255
0.73125011 -0.069412433 1.5330001 165 172 168 255
0.73305422 -0.069188386 1.5280001 172 179 175 255
0.73435116 -0.068919271 1.5220001 174 181 177 255
0.73367673 -0.068469204 1.5120001 175 182 178 255
0.733926 -0.068109892 1.5040001 178 185 181 255
-1.0282365 -0.088361226 1.8360001 42 43 31 255
-1.004685 -0.086760618 1.8030001 62 63 51 255
-0.98243374 -0.085257068 1.7720001 44 45 31 255
-0.97691059 -0.085197516 1.771 37 39 22 255
-0.97359407 -0.085330755 1.774 36 38 20 255
-0.96589786 -0.085079573 1.7690001 36 36 18 255
-0.98357147 -0.087511554 1.8200001 29 29 11 255
-0.97526717 -0.087213226 1.8140001 30 32 14 255
-0.95523459 -0.085857712 1.7860001 32 34 17 255
-0.94494039 -0.08536806 1.7760001 33 32 18 255
-0.93364775 -0.084782712 1.7640001 25 24 10 255
-0.94348651 -0.086120136 1.7920001 22 23 11 255
-0.91127676 -0.083613366 1.7400001 22 20 9 255
-0.90749115 -0.083702028 1.7420001 21 19 8 255
-0.92390746 -0.085664764 1.7830001 22 20 9 255
-0.92360795 -0.086090147 1.7920001 21 19 8 255
-0.91301 -0.085555054 1.7810001 23 20 6 255
-0.91675335 -0.08636529 1.7980001 29 23 6 255
-0.91685706 -0.086839512 1.8080001 36 28 11 255
-0.91640514 -0.087265946 1.817 50 38 19 255
-0.91089153 -0.087212391 1.8160001 73 55 29 255
-0.90688354 -0.087303206 1.8180001 91 72 43 255
-0.90138 -0.087250248 1.817 117 91 62 255
-0.8978588 -0.087389648 1.8200001 121 96 64 255
-0.8928529 -0.087385282 1.8200001 117 91 58 255
-0.88931388 -0.087525234 1.8230001 119 92 56 255
-0.88479137 -0.08756943 1.8240001 115 88 52 255
-0.88123143 -0.087709926 1.8270001 112 84 51 255
-0.87669891 -0.087754667 1.8280001 109 83 50 255
-0.87121022 -0.08770366 1.8270001 104 78 45 255
-0.86478174 -0.087556928 1.8240001 101 76 43 255
-0.85884392 -0.087458454 1.8220001 95 70 37 255
-0.85432577 -0.087504238 1.8230001 92 70 36 255
-0.84933895 -0.087502286 1.8230001 91 69 35 255
-0.84342843 -0.087404579 1.8210001 82 61 29 255
-0.83338743 -0.086875141 1.8100001 81 61 37 255
-0.80327004 -0.084234118 1.7550001 57 43 26 255
-0.75571138 -0.079721533 1.6610001 248 243 232 255
-0.73851609 -0.078376971 1.6330001 228 233 219 255
-0.72821832 -0.077752568 1.6200001 228 237 218 255
-0.7206741 -0.077416323 1.613 148 157 138 255
-0.71405804 -0.077176288 1.608 149 158 139 255
-0.70923644 -0.077128418 1.6070001 175 181 163 255
-0.70486057 -0.077128738 1.6070001 161 167 149 255
-0.70092219 -0.077177234 1.608 206 212 194 255
-0.69481415 -0.076985933 1.6040001 182 188 170 255
-0.68915981 -0.076842807 1.6010001 190 197 176 255
-0.68352336 -0.07669986 1.598 155 162 141 255
-0.67875463 -0.076653071 1.5970001 170 177 156 255
-0.67399269 -0.076606452 1.5960001 176 183 161 255
-0.66881788 -0.076511994 1.5940001 186 193 171 255
-0.66365522 -0.076417699 1.5920001 179 186 165 255
-0.65809041 -0.076275557 1.5890001 173 180 158 255
-0.6537773 -0.076277569 1.5890001 180 190 167 255
-0.64905661 -0.076231733 1.5880001 178 188 165 255
-0.64434242 -0.076186053 1.5870001 155 164 143 255
-0.63923126 -0.076092504 1.585 159 168 147 255
-0.63413185 -0.075999089 1.5830001 182 191 170 255
-0.62984002 -0.076001838 1.5830001 168 175 154 255
-0.6247586 -0.075908698 1.5810001 172 179 158 255
-0.61968887 -0.075815685 1.5790001 168 175 153 255
-0.61541015 -0.075818837 1.5790001 155 163 138 255
-0.61151916 -0.075870126 1.58 155 163 137 255
-0.60723913 -0.075873531 1.58 159 167 141 255
-0.60181475 -0.075732991 1.577 175 183 158 255
-0.59678608 -0.075640582 1.575 165 173 148 255
-0.59214514 -0.075596318 1.5740001 164 172 147 255
-0.58788341 -0.075600185 1.5740001 167 175 149 255
-0.58325142 -0.075556137 1.5730001 167 175 149 255
-0.5789932 -0.075560227 1.5730001 172 181 152 255
-0.57400477 -0.075468361 1.5710001 158 165 136 255
-0.5690273 -0.07537657 1.5690001 161 169 143 255
-0.56478095 -0.075380974 1.5690001 159 165 139 255
-0.56017751 -0.075337417 1.5680001 162 168 142 255
-0.55557972 -0.075293951 1.567 158 164 139 255
-0.55028391 -0.075154476 1.5640001 161 167 142 255
-0.54605186 -0.075159244 1.5640001 147 153 128 255
-0.54147333 -0.075116031 1.5630001 168 174 149 255
-0.53724408 -0.075120971 1.5630001 170 176 151 255
-0.5323329 -0.07502985 1.5610001 166 172 147 255
-0.52777076 -0.074986875 1.5600001 163 171 146 255
-0.52321398 -0.07494396 1.559 165 171 146 255
-0.51866269 -0.074901126 1.5580001 157 165 140 255
-0.51510715 -0.075002596 1.5600001 158 166 141 255
-0.51055831 -0.074959897 1.559 156 164 138 255
-0.50568986 -0.074869178 1.557 150 159 130 255
-0.50083208 -0.074778512 1.5550001 148 157 128 255
-0.49662375 -0.074784078 1.5550001 149 156 127 255
-0.49273175 -0.074837796 1.5560001 148 155 126 255
-0.48820618 -0.07479538 1.5550001 156 164 138 255
-0.48430824 -0.074849218 1.5560001 164 172 146 255
-0.4797875 -0.074806906 1.5550001 169 177 152 255
-0.47496605 -0.074716531 1.5530001 166 173 151 255
-0.470155 -0.074626185 1.5510001 157 165 140 255
-0.46595526 -0.074632108 1.5510001 158 164 139 255
-0.4614574 -0.074589945 1.5500001 155 163 138 255
-0.45666957 -0.074499704 1.5480001 154 160 134 255
-0.45218435 -0.074457601 1.5470001 158 164 138 255
-0.44770411 -0.074415535 1.5460001 153 161 135 255
-0.44380257 -0.074469768 1.5470001 150 158 132 255
-0.43932682 -0.074427761 1.5460001 147 155 129 255
-0.43485588 -0.07438577 1.5450001 150 158 132 255
-0.43011111 -0.074295647 1.5430001 147 154 125 255
-0.42565262 -0.074253686 1.5420001 141 148 119 255
-0.42147234 -0.074259907 1.5420001 142 149 120 255
-0.41783276 -0.074362479 1.544 142 149 120 255
-0.41391376 -0.074416906 1.5450001 163 171 145 255
-0.40892798 -0.074278675 1.5420001 201 209 184 255
-0.40290785 -0.073947735 1.5350001 170 178 153 255
-0.39744458 -0.073713116 1.5300001 158 166 141 255
-0.39329314 -0.073719375 1.5300001 149 155 130 255
-0.38888663 -0.07367745 1.529 145 152 123 255
-0.3849881 -0.073731907 1.5300001 145 149 121 255
-0.38058573 -0.07368999 1.529 144 149 118 255
-0.37717274 -0.073840857 1.5320001 139 146 115 255
-0.37276885 -0.073798932 1.531 148 157 128 255
-0.36861047 -0.073805206 1.531 153 162 133 255
-0.36373723 -0.073666848 1.5280001 156 165 136 255
-0.35982078 -0.073721312 1.529 155 163 137 255
-0.35543299 -0.073679343 1.5280001 144 152 126 255
-0.35104981 -0.073637336 1.5270001 147 157 131 255
-0.34667131 -0.073595323 1.526 150 160 134 255
-0.34252197 -0.073601514 1.526 158 168 143 255
-0.33859351 -0.073655926 1.5270001 138 148 122 255
-0.33465892 -0.07371033 1.5280001 140 149 120 255
-0.33050177 -0.073716469 1.5280001 140 149 120 255
-0.32677093 -0.073819086 1.5300001 139 148 119 255
-0.3228175 -0.07387343 1.531 133 140 109 255
-0.31885791 -0.073927768 1.5320001 135 142 113 255
-0.31468666 -0.073933832 1.5320001 135 141 115 255
-0.31091991 -0.074036382 1.534 132 138 112 255
-0.30694151 -0.074090652 1.5350001 132 140 114 255
-0.30315408 -0.074193165 1.5370001 135 143 117 255
-0.29916042 -0.074247383 1.5380001 137 145 119 255
-0.29535222 -0.074349843 1.5400001 139 148 119 255
-0.29115424 -0.074355714 1.5400001 145 152 123 255
-0.286769 -0.074313261 1.539 151 157 131 255
-0.28293931 -0.074415632 1.5410001 144 150 124 255
-0.27927873 -0.074566253 1.544 139 146 117 255
-0.27524465 -0.074620269 1.5450001 138 145 114 255
-0.27085343 -0.07457763 1.544 146 153 122 255
-0.26646686 -0.074534945 1.5430001 154 161 130 255
-0.26242483 -0.074588805 1.544 153 160 129 255
-0.25871104 -0.074739248 1.5470001 149 158 127 255
-0.25498003 -0.07488966 1.5500001 147 156 127 255
-0.25171712 -0.075184993 1.5560001 142 151 122 255
-0.24842061 -0.075480305 1.562 142 151 120 255
-0.24493422 -0.075727277 1.567 139 148 117 255
-0.2414197 -0.075974219 1.572 138 147 116 255
-0.2381787 -0.076317795 1.5790001 143 152 121 255
-0.23534299 -0.076806359 1.5890001 40 46 20 255
-0.23259714 -0.077343248 1.6 36 42 17 255
-0.22936243 -0.077735133 1.608 96 101 79 255
-0.22566344 -0.077981949 1.613 79 86 65 255
-0.22193632 -0.07822872 1.618 41 47 29 255
-0.21818106 -0.078475453 1.623 44 50 32 255
-0.21452937 -0.078770496 1.6290001 43 50 28 255
-0.21058615 -0.078968771 1.6330001 44 51 29 255
-0.206494 -0.079118624 1.636 51 55 37 255
-0.20201427 -0.079123341 1.636 48 52 34 255
-0.19741306 -0.079079598 1.6350001 53 57 40 255
-0.19281656 -0.079035752 1.6340001 56 59 45 255
-0.18810959 -0.078943461 1.6320001 59 62 48 255
-0.1836379 -0.078947812 1.6320001 57 60 48 255
-0.17916554 -0.078952074 1.6320001 51 56 44 255
-0.1744784 -0.078859501 1.6300001 53 58 46 255
-0.16980156 -0.078766815 1.628 52 57 43 255
-0.16533813 -0.078770801 1.628 51 56 42 255
-0.16097291 -0.078823082 1.6290001 52 57 45 255
-0.15640941 -0.078778498 1.628 52 59 47 255
-0.15175745 -0.078685418 1.626 62 69 58 255
-0.14702526 -0.078543834 1.623 69 76 64 255
-0.14248465 -0.078498952 1.6220001 66 71 59 255
-0.13803408 -0.07850235 1.6220001 60 63 49 255
-0.13374764 -0.078602448 1.6240001 57 60 46 255
-0.12929046 -0.078605659 1.6240001 56 57 43 255
-0.12490965 -0.07865718 1.6250001 53 55 38 255
-0.1204487 -0.07866019 1.6250001 54 56 39 255
-0.11591587 -0.078614682 1.6240001 57 59 42 255
-0.11131945 -0.078520663 1.6220001 61 63 46 255
-0.10679941 -0.078474939 1.6210001 60 63 49 255
-0.10234758 -0.078477532 1.6210001 65 68 54 255
-0.097774535 -0.078383192 1.6190001 70 75 63 255
-0.093269713 -0.07833714 1.618 74 79 67 255
-0.08877001 -0.078290999 1.6170001 78 83 72 255
-0.084431864 -0.078390002 1.6190001 70 72 62 255
-0.080032982 -0.07844048 1.6200001 59 61 51 255
-0.075721562 -0.078587681 1.623 57 60 48 255
-0.071393356 -0.078734793 1.626 61 62 50 255
-0.066966027 -0.07878495 1.6270001 63 64 50 255
-0.06241769 -0.078689739 1.6250001 60 62 45 255
-0.057844419 -0.07854598 1.6220001 60 62 45 255
-0.053353205 -0.078498952 1.6210001 64 66 49 255
-0.048927605 -0.07854867 1.6220001 66 67 53 255
-0.044441465 -0.078501426 1.6210001 66 69 55 255
-0.039960627 -0.07845407 1.6200001 67 70 58 255
-0.035485115 -0.078406595 1.6190001 67 70 58 255
-0.031014953 -0.078359 1.618 63 68 56 255
-0.026566571 -0.078359731 1.618 66 71 59 255
-0.022118075 -0.078360341 1.618 65 70 56 255
-0.017680405 -0.078409284 1.6190001 65 70 56 255
-0.013220818 -0.078361243 1.618 64 69 55 255
-0.0087720947 -0.078361526 1.618 67 70 56 255
-0.0043206606 -0.078313269 1.6170001 69 72 58 255
0.00012529281 -0.078264885 1.6160001 68 73 61 255
0.0045657465 -0.078216396 1.6150001 65 70 58 255
0.0090118349 -0.078264654 1.6160001 68 73 62 255
0.013446731 -0.078215934 1.6150001 67 72 61 255
0.017876072 -0.078167111 1.6140001 71 73 63 255
0.022286009 -0.078069739 1.6120001 70 72 62 255
0.026734574 -0.078117542 1.613 72 74 64 255
0.031207848 -0.078213677 1.6150001 73 78 67 255
0.035691984 -0.078309685 1.6170001 73 78 66 255
0.040112503 -0.078260303 1.6160001 70 75 64 255
0.044499774 -0.078162365 1.6140001 69 74 63 255
0.048875857 -0.078064337 1.6120001 73 78 67 255
0.053273801 -0.078014612 1.6110001 72 76 68 255
0.05766603 -0.077964798 1.6100001 78 84 76 255
0.062052507 -0.077914849 1.6090001 73 79 71 255
0.066474542 -0.07791324 1.6090001 72 78 70 255
0.070852235 -0.077863097 1.608 77 81 73 255
0.075224124 -0.077812843 1.6070001 76 80 72 255
0.079639763 -0.077810906 1.6070001 72 76 68 255
0.084055059 -0.077808857 1.6070001 75 80 69 255
0.088525064 -0.077855125 1.608 77 82 70 255
0.092942379 -0.07785286 1.608 74 82 67 255
0.097359315 -0.077850491 1.608 77 84 72 255
0.10177585 -0.077848025 1.608 75 83 68 255
0.10632404 -0.077942275 1.6100001 78 85 73 255
0.11095155 -0.078084826 1.613 76 83 71 255
0.11530897 -0.078033626 1.6120001 77 84 72 255
0.11973469 -0.078030735 1.6120001 77 82 68 255
0.12408289 -0.077979341 1.6110001 73 78 66 255
0.12858465 -0.078024663 1.6120001 72 77 65 255
0.13317385 -0.078118257 1.6140001 75 80 68 255
0.13777354 -0.078211762 1.6160001 74 79 67 255
0.14211963 -0.07815998 1.6150001 73 78 67 255
0.14636894 -0.078059696 1.613 69 76 64 255
0.15060668 -0.077959336 1.6110001 72 79 67 255
0.15521777 -0.078052439 1.613 76 83 72 255
0.15954231 -0.078000277 1.6120001 74 81 70 255
0.16386075 -0.077948034 1.6110001 75 82 71 255
0.1682775 -0.077944085 1.6110001 73 80 69 255
0.17247926 -0.077843294 1.6090001 73 78 67 255
0.17699917 -0.077887543 1.6100001 71 76 65 255
0.18118587 -0.07778658 1.608 73 78 67 255
0.18582258 -0.077879034 1.6100001 72 77 66 255
0.19035138 -0.077923007 1.6110001 74 78 70 255
0.19476408 -0.077918537 1.6110001 71 77 69 255
0.19892879 -0.077817261 1.6090001 75 81 73 255
0.20295544 -0.077667542 1.6060001 77 83 75 255
0.20722315 -0.077614479 1.605 73 80 69 255
0.21135275 -0.077512987 1.603 72 79 67 255
0.21614362 -0.077653192 1.6060001 75 82 70 255
0.22136208 -0.077938356 1.6120001 77 82 68 255
0.22647254 -0.078175046 1.6170001 72 79 67 255
0.23103838 -0.078218266 1.618 75 80 69 255
0.2354634 -0.078213081 1.618 78 83 72 255
0.2398876 -0.078207813 1.618 78 83 72 255
0.24400897 -0.078105807 1.6160001 72 76 68 255
0.24796489 -0.077955432 1.613 61 66 55 255
0.25206003 -0.077853329 1.6110001 70 72 62 255
0.25646183 -0.077847816 1.6110001 69 71 63 255
0.26037696 -0.077697292 1.608 71 72 66 255
0.26509818 -0.077788293 1.6100001 79 80 74 255
0.27033162 -0.078024171 1.6150001 86 88 80 255
0.27542144 -0.078211643 1.6190001 38 42 34 255
0.2798408 -0.078205809 1.6190001 43 47 39 255
0.28320587 -0.07791011 1.613 42 46 38 255
0.28653735 -0.077614412 1.6070001 45 49 41 255
0.28947315 -0.077222109 1.5990001 84 88 80 255
0.29291573 -0.07697469 1.5940001 81 87 79 255
0.29726258 -0.076968692 1.5940001 79 85 77 255
0.30141941 -0.07691437 1.5930001 79 85 77 255
0.30576184 -0.07690829 1.5930001 82 88 80 255
0.31010345 -0.076902173 1.5930001 83 89 81 255
0.31503636 -0.077040829 1.5960001 81 87 79 255
0.31978461 -0.077131152 1.598 84 91 80 255
0.32494864 -0.077317961 1.6020001 87 94 83 255
0.32951686 -0.077359907 1.603 84 91 80 255
0.33388141 -0.077353567 1.603 83 88 77 255
0.33782309 -0.077250697 1.6010001 75 79 71 255
0.34175307 -0.077147827 1.5990001 78 82 74 255
0.34567127 -0.077044927 1.5970001 78 82 74 255
0.35001615 -0.077038504 1.5970001 77 83 75 255
0.35502583 -0.077176772 1.6 78 84 76 255
0.36117408 -0.077556148 1.608 80 86 78 255
0.36691034 -0.077838987 1.6140001 79 85 77 255
0.37244835 -0.078073539 1.6190001 79 85 77 255
0.55373228 -0.078639768 1.636 71 77 70 255
0.55508852 -0.07820186 1.6270001 86 92 85 255
0.55845928 -0.078052454 1.6240001 72 78 71 255
0.56216031 -0.077951215 1.6220001 41 45 37 255
0.56585073 -0.077850081 1.6200001 54 58 50 255
0.5674184 -0.077460736 1.6120001 84 89 78 255
0.56929755 -0.077119574 1.605 87 94 83 255
0.57256871 -0.076970749 1.6020001 81 90 78 255
0.57654411 -0.076918125 1.6010001 74 83 71 255
0.58015144 -0.076817557 1.5990001 73 82 70 255
0.58411378 -0.07676515 1.598 73 82 70 255
0.58843923 -0.076760881 1.598 73 82 70 255
0.59202319 -0.076660678 1.5960001 69 76 64 255
0.59559667 -0.076560572 1.5940001 69 76 65 255
0.5991599 -0.076460615 1.5920001 71 78 67 255
0.60233361 -0.076312736 1.5890001 73 80 69 255
0.60587341 -0.076213025 1.5870001 82 89 78 255
0.60940289 -0.07611344 1.585 75 82 70 255
0.61292219 -0.076013997 1.5830001 76 83 71 255
0.6152615 -0.075770631 1.5780001 80 85 73 255
0.61914492 -0.075719476 1.577 77 82 70 255
0.62341899 -0.075716473 1.577 85 88 76 255
0.62809181 -0.075761624 1.5780001 12 13 1 255
0.63116801 -0.075614862 1.575 18 19 7 255
0.6338253 -0.075420246 1.5710001 19 19 9 255
0.63727421 -0.075321808 1.5690001 15 17 7 255
0.64153087 -0.075319521 1.5690001 15 17 7 255
0.64496547 -0.075221375 1.567 15 17 7 255
0.64921892 -0.0752194 1.567 16 18 8 255
0.65222239 -0.075073577 1.5640001 16 18 8 255
0.65730941 -0.075167902 1.5660001 20 21 9 255
0.66071874 -0.075070404 1.5640001 19 20 8 255
0.66454357 -0.075021058 1.5630001 20 23 11 255
0.66750854 -0.074875891 1.5600001 20 23 11 255
0.67002803 -0.074682914 1.5560001 20 23 9 255
0.67382717 -0.074634083 1.5550001 20 23 9 255
0.67762226 -0.074585423 1.554 19 22 8 255
0.68097478 -0.07448896 1.552 20 23 9 255
0.68475956 -0.07444068 1.5510001 20 23 9 255
0.68898463 -0.074440561 1.5510001 20 23 9 255
0.69410539 -0.074536622 1.5530001 19 22 8 255
0.69968849 -0.07468088 1.5560001 20 23 9 255
0.70121819 -0.074393354 1.5500001 24 25 11 255
0.69998634 -0.07381805 1.5380001 27 29 12 255
0.70326948 -0.073722906 1.536 27 29 12 255
0.71345252 -0.074347906 1.549 28 32 14 255
0.72092885 -0.074685156 1.5560001 19 25 7 255
0.72471708 -0.074638627 1.5550001 11 21 4 255
0.72756457 -0.074496306 1.552 100 109 97 255
0.72851187 -0.074162193 1.5450001 139 149 140 255
0.72942305 -0.073828273 1.5380001 153 162 155 255
0.73029834 -0.073494546 1.531 165 172 168 255
0.73161763 -0.073209047 1.5250001 169 176 172 255
0.73290634 -0.072923727 1.5190001 173 180 176 255
0.73319441 -0.072542608 1.511 177 184 180 255
0.73441714 -0.072257712 1.5050001 181 188 184 255
-0.97581899 -0.089933768 1.7690001 29 31 13 255
-0.97415411 -0.090227067 1.7750001 27 29 11 255
-0.96154058 -0.089504153 1.761 35 35 17 255
-0.97236949 -0.090967044 1.7900001 35 35 17 255
-0.96034342 -0.090295792 1.7770001 34 34 16 255
-0.95377153 -0.090133153 1.774 31 31 13 255
-0.97021991 -0.092155427 1.8140001 31 33 16 255
-0.94388509 -0.090113863 1.774 33 32 16 255
-0.9208554 -0.088826358 1.7490001 25 26 14 255
-0.90709484 -0.087954804 1.7320001 23 21 10 255
-0.91114539 -0.088810168 1.7490001 21 19 8 255
-0.93324202 -0.091442794 1.8010001 20 18 7 255
-0.9009369 -0.088744551 1.748 22 20 9 255
-0.91404194 -0.090514414 1.7830001 22 20 9 255
-0.91726971 -0.091319866 1.7990001 23 20 4 255
-0.92041302 -0.09212552 1.8150001 25 21 4 255
-0.91641104 -0.092220835 1.817 35 27 10 255
-0.91190022 -0.092265718 1.8180001 43 30 7 255
-0.90688866 -0.092260145 1.8180001 60 46 22 255
-0.90188104 -0.092254899 1.8180001 93 74 45 255
-0.89737016 -0.092300706 1.8190001 103 80 50 255
-0.89236671 -0.092296056 1.8190001 103 80 48 255
-0.88883007 -0.092443928 1.8220001 111 86 53 255
-0.88382506 -0.09243989 1.8220001 112 86 53 255
-0.8793056 -0.092486866 1.8230001 111 85 52 255
-0.87526327 -0.092584848 1.825 107 82 50 255
-0.8707363 -0.092632391 1.8260001 104 79 47 255
-0.86525851 -0.092578746 1.825 102 80 46 255
-0.85978913 -0.092525393 1.8240001 95 73 39 255
-0.85526526 -0.092573747 1.825 92 70 36 255
-0.84934086 -0.092470199 1.8230001 93 71 37 255
-0.84389323 -0.09241765 1.8220001 87 66 34 255
-0.83292836 -0.091756687 1.8090001 83 66 37 255
-0.79549009 -0.088154137 1.738 48 34 17 255
-0.75434732 -0.084095448 1.6580001 252 247 236 255
-0.73851663 -0.082826681 1.6330001 225 228 216 255
-0.72866809 -0.082217522 1.6210001 192 201 182 255
-0.72112101 -0.081862181 1.6140001 160 169 150 255
-0.71405804 -0.081557766 1.608 157 163 145 255
-0.70879477 -0.081456438 1.6060001 178 184 166 255
-0.70442152 -0.081456751 1.6060001 210 216 198 255
-0.70004982 -0.081457257 1.6060001 206 212 194 255
-0.69394708 -0.081255086 1.6020001 157 163 145 255
-0.68786758 -0.081053086 1.598 197 203 185 255
-0.68266678 -0.080952711 1.5960001 158 164 146 255
-0.67790329 -0.08090324 1.595 182 189 168 255
-0.67314661 -0.080853954 1.5940001 183 190 169 255
-0.66755748 -0.080703385 1.5910001 177 184 162 255
-0.6632365 -0.080705166 1.5910001 175 182 161 255
-0.65808845 -0.080605656 1.5890001 169 176 154 255
-0.65377522 -0.080607772 1.5890001 164 174 151 255
-0.64946306 -0.080610037 1.5890001 179 189 166 255
-0.64474601 -0.080561742 1.5880001 166 176 153 255
-0.64003527 -0.080513604 1.5870001 172 182 159 255
-0.63493031 -0.080414869 1.585 181 191 168 255
-0.6298371 -0.080316275 1.5830001 170 177 155 255
-0.62515068 -0.080268562 1.582 159 166 144 255
-0.62007815 -0.080170259 1.58 158 164 139 255
-0.61579657 -0.080173567 1.58 162 168 143 255
-0.6115157 -0.080177002 1.58 164 172 147 255
-0.60685122 -0.080129839 1.5790001 163 171 146 255
-0.60181111 -0.080032051 1.577 179 187 162 255
-0.59716129 -0.079985134 1.5760001 167 177 154 255
-0.59251738 -0.07993833 1.575 164 174 151 255
-0.58825284 -0.079942398 1.575 176 184 159 255
-0.58324724 -0.079845078 1.5730001 171 179 154 255
-0.57862085 -0.079798609 1.572 175 183 157 255
-0.57363492 -0.079701498 1.5700001 164 172 146 255
-0.56938553 -0.079706028 1.5700001 161 169 144 255
-0.56477636 -0.079659887 1.5690001 160 168 143 255
-0.56053019 -0.079664618 1.5690001 164 172 147 255
-0.55557501 -0.079567894 1.567 164 172 147 255
-0.55027908 -0.079420492 1.5640001 165 173 148 255
-0.54604685 -0.079425491 1.5640001 166 173 151 255
-0.5418148 -0.079430602 1.5640001 168 175 153 255
-0.5375827 -0.079435796 1.5640001 164 170 145 255
-0.53266871 -0.079339497 1.562 159 165 140 255
-0.52844214 -0.079344861 1.562 155 163 138 255
-0.52354431 -0.079248704 1.5600001 156 162 136 255
-0.51932305 -0.079254232 1.5600001 154 162 136 255
-0.51477146 -0.079209022 1.559 151 159 133 255
-0.5102253 -0.079163879 1.5580001 151 158 129 255
-0.5056842 -0.079118796 1.557 154 161 132 255
-0.50114852 -0.079073787 1.5560001 149 158 129 255
-0.4972567 -0.079130471 1.557 161 168 139 255
-0.492726 -0.079085588 1.5560001 160 167 138 255
-0.48820034 -0.079040743 1.5550001 158 166 140 255
-0.48367983 -0.078995958 1.554 164 172 146 255
-0.47947297 -0.079002053 1.554 155 163 138 255
-0.47496003 -0.078957371 1.5530001 145 153 128 255
-0.47045204 -0.07891272 1.552 143 151 125 255
-0.46594921 -0.078868128 1.5510001 146 152 126 255
-0.46174899 -0.078874409 1.5510001 148 154 129 255
-0.45725334 -0.07882987 1.5500001 156 162 136 255
-0.45247045 -0.078734517 1.5480001 160 167 138 255
-0.44798744 -0.078690045 1.5470001 155 162 133 255
-0.4435094 -0.078645609 1.5460001 148 157 128 255
-0.43903631 -0.078601204 1.5450001 157 166 137 255
-0.43456808 -0.078556798 1.544 139 148 119 255
-0.42982605 -0.07846155 1.5420001 146 155 126 255
-0.42564628 -0.078468077 1.5420001 136 145 116 255
-0.42146596 -0.078474633 1.5420001 136 145 116 255
-0.41728511 -0.078481212 1.5420001 185 194 165 255
-0.41229987 -0.078335106 1.539 197 206 177 255
-0.40733039 -0.078188993 1.536 150 158 132 255
-0.40211403 -0.077991962 1.5320001 154 162 136 255
-0.3974382 -0.077896729 1.5300001 145 151 125 255
-0.39328671 -0.077903323 1.5300001 139 146 117 255
-0.38913456 -0.077909939 1.5300001 143 148 117 255
-0.38498166 -0.077916548 1.5300001 142 147 116 255
-0.38082817 -0.077923164 1.5300001 145 150 119 255
-0.37741253 -0.078082584 1.5330001 147 154 123 255
-0.3730059 -0.07803826 1.5320001 147 156 127 255
-0.36884478 -0.078044884 1.5320001 151 160 129 255
-0.36373079 -0.077847712 1.5280001 151 160 129 255
-0.35957903 -0.077854298 1.5280001 155 164 135 255
-0.35519394 -0.07780993 1.5270001 157 166 137 255
-0.35058364 -0.077714577 1.5250001 147 157 131 255
-0.34643778 -0.077721111 1.5250001 170 180 154 255
-0.34229115 -0.077727638 1.5250001 170 180 155 255
-0.33836547 -0.077785119 1.526 134 144 118 255
-0.33421457 -0.077791609 1.526 136 146 120 255
-0.33006284 -0.077798076 1.526 143 152 123 255
-0.32612392 -0.077855512 1.5270001 144 153 124 255
-0.32217872 -0.077912934 1.5280001 146 153 122 255
-0.31822732 -0.077970318 1.529 139 146 117 255
-0.31406423 -0.077976696 1.529 130 137 108 255
-0.31030568 -0.078085043 1.531 135 142 113 255
-0.30633551 -0.078142367 1.5320001 132 141 112 255
-0.30235904 -0.078199662 1.5330001 135 144 115 255
-0.29818177 -0.078205906 1.5330001 136 145 116 255
-0.2941955 -0.078263141 1.534 135 144 115 255
-0.29001388 -0.078269303 1.534 135 144 113 255
-0.2856451 -0.078224406 1.5330001 135 142 113 255
-0.28183177 -0.078332551 1.5350001 138 145 116 255
-0.27800673 -0.078440659 1.5370001 141 148 119 255
-0.27416992 -0.078548729 1.539 141 148 117 255
-0.26979512 -0.078503646 1.5380001 136 143 112 255
-0.26559767 -0.078509539 1.5380001 155 162 131 255
-0.26122943 -0.078464337 1.5370001 155 164 133 255
-0.25736755 -0.078572221 1.539 152 161 132 255
-0.25332943 -0.078629009 1.5400001 145 154 125 255
-0.24977031 -0.07883893 1.544 144 151 122 255
-0.24602954 -0.078997761 1.5470001 143 150 119 255
-0.24227159 -0.079156533 1.5500001 137 144 113 255
-0.23849644 -0.079315282 1.5530001 135 142 110 255
-0.23500574 -0.079576127 1.5580001 137 144 112 255
-0.23163505 -0.079888016 1.5640001 143 150 119 255
-0.22866687 -0.080353126 1.5730001 33 40 11 255
-0.22522075 -0.080664963 1.5790001 9 17 0 255
-0.22160114 -0.080925681 1.5840001 63 71 45 255
-0.21795344 -0.081186347 1.5890001 160 168 143 255
-0.21508415 -0.081753545 1.6 125 133 108 255
-0.21215391 -0.08232075 1.6110001 35 43 17 255
-0.20916271 -0.082887925 1.6220001 41 47 21 255
-0.2054794 -0.083199576 1.628 52 57 36 255
-0.20163904 -0.083460048 1.6330001 50 54 36 255
-0.1972876 -0.083516024 1.6340001 51 54 42 255
-0.19281195 -0.0835208 1.6340001 58 61 47 255
-0.18822034 -0.083474383 1.6330001 59 62 50 255
-0.18385853 -0.083530098 1.6340001 53 56 44 255
-0.179271 -0.083483487 1.6330001 49 54 42 255
-0.17468823 -0.083436772 1.6320001 51 56 42 255
-0.17000602 -0.083338827 1.6300001 49 54 40 255
-0.16543564 -0.083291903 1.6290001 50 55 41 255
-0.16096894 -0.083296008 1.6290001 54 59 45 255
-0.15630949 -0.08319775 1.6270001 64 71 59 255
-0.15175368 -0.083150521 1.626 68 75 63 255
-0.14711222 -0.083052039 1.6240001 66 71 59 255
-0.14256895 -0.083004594 1.623 53 58 46 255
-0.13828593 -0.083110474 1.6250001 51 54 40 255
-0.13390899 -0.083165117 1.626 56 57 43 255
-0.12944645 -0.083168507 1.626 52 54 37 255
-0.12490649 -0.083120637 1.6250001 52 54 37 255
-0.12037153 -0.083072655 1.6240001 56 58 40 255
-0.11577019 -0.082973413 1.6220001 58 60 43 255
-0.11124798 -0.082925208 1.6210001 60 62 45 255
-0.10673081 -0.082876898 1.6200001 62 65 51 255
-0.10221869 -0.082828455 1.6190001 69 72 60 255
-0.097711653 -0.082779922 1.618 79 82 70 255
-0.093209691 -0.082731262 1.6170001 77 82 71 255
-0.088822626 -0.082784809 1.618 70 75 64 255
-0.08448185 -0.082889423 1.6200001 61 63 53 255
-0.080179125 -0.083045095 1.623 58 58 48 255
-0.075859576 -0.083200663 1.626 58 59 47 255
-0.071435422 -0.083253786 1.6270001 60 61 49 255
-0.066964306 -0.083255626 1.6270001 58 59 45 255
-0.062377669 -0.083103821 1.6240001 60 61 47 255
-0.057878572 -0.083054245 1.623 60 63 49 255
-0.053351827 -0.082953379 1.6210001 60 63 51 255
-0.048896175 -0.082954742 1.6210001 65 68 56 255
-0.044412896 -0.082904816 1.6200001 66 68 58 255
-0.039959583 -0.082905933 1.6200001 63 66 54 255
-0.035506107 -0.082906939 1.6200001 65 67 57 255
-0.031033311 -0.082856648 1.6190001 65 68 56 255
-0.026565881 -0.082806244 1.618 64 69 57 255
-0.022103831 -0.082755722 1.6170001 66 70 53 255
-0.017669024 -0.082807429 1.618 62 68 51 255
-0.013220472 -0.082807839 1.618 66 71 57 255
-0.0087772869 -0.082859315 1.6190001 66 70 53 255
-0.0043205479 -0.08275713 1.6170001 69 73 56 255
0.00012536708 -0.082757197 1.6170001 67 72 58 255
0.0045684543 -0.082705945 1.6160001 69 74 60 255
0.0090116002 -0.082705766 1.6160001 67 72 58 255
0.013454706 -0.08270546 1.6160001 66 71 57 255
0.017875604 -0.082602695 1.6140001 68 73 61 255
0.022313075 -0.082602143 1.6140001 69 74 63 255
0.026767025 -0.082652673 1.6150001 72 77 65 255
0.031245682 -0.082754254 1.6170001 72 77 66 255
0.035691056 -0.08275336 1.6170001 71 76 64 255
0.040111452 -0.082701162 1.6160001 72 75 63 255
0.044498615 -0.082597688 1.6140001 71 76 64 255
0.048874587 -0.082494088 1.6120001 71 76 65 255
0.053272426 -0.082441553 1.6110001 71 76 65 255
0.057700343 -0.082440078 1.6110001 78 82 74 255
0.06212803 -0.082438484 1.6110001 75 79 71 255
0.066514142 -0.082385622 1.6100001 76 81 70 255
0.070894465 -0.082332619 1.6090001 75 80 68 255
0.075222194 -0.082228348 1.6070001 75 80 68 255
0.079687268 -0.082277469 1.608 78 83 71 255
0.084157519 -0.082326479 1.6090001 77 82 70 255
