ply
format ascii 1.0
comment PCL generated
element vertex 1016
property float x
property float y
property float z
property uchar red
property uchar green
property uchar blue
property uchar alpha
element camera 0
property float view_px
property float view_py
property float view_pz
property float x_axisx
property float x_axisy
property float x_axisz
property float y_axisx
property float y_axisy
property float y_axisz
property float z_axisx
property float z_axisy
property float z_axisz
property float focal
property float scalex
property float scaley
property float centerx
property float centery
property int viewportx
property int viewporty
property float k1
property float k2
end_header
0.2049211 -0.11123824 1.5230001 84 92 85 255
0.20895043 -0.11115827 1.5220001 74 82 74 255
0.21311361 -0.11115124 1.5220001 72 80 72 255
0.2177043 -0.11136317 1.5250001 75 84 72 255
0.22216521 -0.11150197 1.5270001 67 76 64 255
0.22633983 -0.11149461 1.5270001 67 76 64 255
0.23036271 -0.11141413 1.526 67 76 64 255
0.23530157 -0.11177162 1.531 68 77 65 255
0.23979771 -0.11190998 1.5330001 61 67 59 255
0.2439857 -0.1119022 1.5330001 56 62 54 255
0.24752533 -0.11160239 1.529 54 60 52 255
0.25186548 -0.11166747 1.5300001 42 48 40 255
0.25587553 -0.11158648 1.529 52 58 50 255
0.26021954 -0.11165138 1.5300001 75 82 71 255
0.26439539 -0.11164322 1.5300001 37 44 33 255
0.26857048 -0.111635 1.5300001 54 60 52 255
0.27203166 -0.11133485 1.526 86 92 84 255
0.27547029 -0.11103469 1.5220001 73 81 73 255
0.27943739 -0.11095333 1.521 71 77 70 255
0.28358471 -0.11094487 1.521 70 76 69 255
0.28792045 -0.1110093 1.5220001 68 74 66 255
0.29206887 -0.1110007 1.5220001 68 75 64 255
0.29602191 -0.11091913 1.521 73 79 71 255
0.30016604 -0.11091043 1.521 71 80 69 255
0.3043094 -0.11090168 1.521 67 76 65 255
0.30906031 -0.11111161 1.524 65 74 63 255
0.31321028 -0.11110275 1.524 68 75 64 255
0.31715113 -0.11102095 1.5230001 66 73 62 255
0.32129675 -0.11101201 1.5230001 67 74 63 255
0.3254416 -0.11100305 1.5230001 68 75 64 255
0.32980207 -0.1110669 1.524 68 75 64 255
0.33372894 -0.11098498 1.5230001 69 76 65 255
0.33764961 -0.11090303 1.5220001 71 78 67 255
0.34156406 -0.11082108 1.521 68 75 64 255
0.34569961 -0.11081196 1.521 67 76 65 255
0.35006443 -0.11087568 1.5220001 67 76 65 255
0.35443392 -0.11093937 1.5230001 67 76 65 255
0.35880813 -0.11100303 1.524 68 77 66 255
0.36342514 -0.11113948 1.526 68 77 66 255
0.36781153 -0.1112031 1.5270001 67 76 65 255
0.37220258 -0.11126668 1.5280001 67 74 63 255
0.37561312 -0.11103901 1.5250001 69 76 65 255
0.37900665 -0.11081136 1.5220001 68 75 64 255
0.38263506 -0.11065657 1.5200001 71 77 69 255
0.38676074 -0.1106474 1.5200001 71 77 69 255
0.3911429 -0.11071099 1.521 71 77 69 255
0.39578989 -0.11084741 1.5230001 74 81 70 255
0.40097213 -0.11112935 1.5270001 72 79 68 255
0.40591016 -0.1113385 1.5300001 68 75 64 255
0.41113192 -0.1116204 1.534 74 79 68 255
0.41610405 -0.11182951 1.5370001 72 77 66 255
0.42163876 -0.11218413 1.5420001 69 74 63 255
0.42775223 -0.11268421 1.549 72 77 65 255
0.43278778 -0.11289328 1.552 75 80 69 255
0.43699428 -0.11288415 1.552 67 74 63 255
0.44120026 -0.11287507 1.552 71 78 67 255
0.44597971 -0.11301148 1.554 70 77 66 255
0.45134896 -0.11329336 1.5580001 71 77 69 255
0.45673943 -0.11357524 1.562 72 78 70 255
0.46244624 -0.11392984 1.567 74 80 72 255
0.46788186 -0.11421175 1.5710001 78 86 78 255
0.47303823 -0.11442097 1.5740001 71 79 71 255
0.47669423 -0.11426678 1.572 69 77 69 255
0.48003313 -0.11404001 1.5690001 69 77 70 255
0.48273817 -0.11366799 1.5640001 64 72 64 255
0.4857271 -0.11336877 1.5600001 65 73 65 255
0.48900825 -0.11314236 1.557 68 76 68 255
0.49258968 -0.11298873 1.5550001 70 78 70 255
0.49647939 -0.11290784 1.554 72 80 72 255
0.50004148 -0.11275443 1.552 74 82 75 255
0.50359243 -0.11260112 1.5500001 71 79 72 255
0.50451165 -0.11186682 1.5400001 75 83 76 255
0.50570691 -0.11120534 1.531 92 100 93 255
0.50785238 -0.11076196 1.5250001 68 76 68 255
0.51231539 -0.11082713 1.526 67 74 63 255
0.51678377 -0.11089242 1.5270001 59 66 54 255
0.52023423 -0.11073995 1.5250001 55 62 50 255
0.52332997 -0.11051501 1.5220001 55 62 51 255
0.52675611 -0.11036284 1.5200001 59 65 57 255
0.52982223 -0.11013819 1.5170001 60 68 61 255
0.53252035 -0.10984112 1.5130001 70 78 71 255
0.53484219 -0.1094716 1.508 87 93 86 255
0.5389241 -0.10946524 1.508 83 89 82 255
0.54336625 -0.1095316 1.5090001 76 82 74 255
0.55035377 -0.11010616 1.5170001 72 76 68 255
0.55775034 -0.11075339 1.526 76 81 70 255
0.56409132 -0.11118298 1.5320001 28 31 17 255
0.56712693 -0.11095955 1.529 33 39 22 255
0.57014668 -0.1107363 1.526 46 52 35 255
0.57390338 -0.1106584 1.5250001 46 54 37 255
0.57765514 -0.11058065 1.524 53 60 48 255
0.58063847 -0.11035797 1.521 55 64 52 255
0.58437508 -0.11028059 1.5200001 63 72 61 255
0.58694535 -0.10998577 1.516 66 75 64 255
0.58910477 -0.10961859 1.511 69 76 65 255
0.59241545 -0.10946927 1.5090001 77 84 72 255
0.59650666 -0.10946523 1.5090001 65 72 60 255
0.60139465 -0.10960648 1.511 67 75 60 255
0.60509223 -0.1095303 1.5100001 59 67 52 255
0.60878515 -0.10945434 1.5090001 63 71 56 255
0.61206746 -0.10930605 1.5070001 69 76 64 255
0.61574876 -0.10923052 1.506 72 79 67 255
0.61983716 -0.10922774 1.506 10 15 3 255
0.62226957 -0.10893508 1.5020001 22 25 13 255
-0.98763263 -0.12866184 1.7030001 19 24 10 255
-0.95451778 -0.12493727 1.654 22 27 13 255
-0.97742081 -0.12978052 1.7190001 28 30 13 255
-0.93465704 -0.12470202 1.6520001 24 25 11 255
-0.88890004 -0.11917292 1.5790001 21 22 8 255
-0.90909576 -0.12247512 1.623 21 22 10 255
-0.95022714 -0.12864405 1.705 21 22 10 255
-0.94432437 -0.12847479 1.7030001 20 18 7 255
-0.93843848 -0.12830614 1.7010001 23 21 10 255
-0.94244933 -0.12949568 1.7170001 25 21 10 255
-0.9381842 -0.1295543 1.7180001 21 20 6 255
-0.92848605 -0.12885945 1.7090001 22 14 0 255
-0.92154586 -0.12854229 1.705 25 13 0 255
-0.91732144 -0.12860264 1.7060001 15 15 0 255
-0.91630578 -0.12911576 1.7130001 13 13 0 255
-0.9163202 -0.12978002 1.7220001 17 15 0 255
-0.91258371 -0.12991716 1.7240001 29 19 2 255
-0.90515476 -0.12952733 1.7190001 31 23 6 255
-0.9009009 -0.12959014 1.72 32 24 7 255
-0.90185571 -0.1304068 1.7310001 32 26 9 255
-0.9001627 -0.13084717 1.7370001 34 28 11 255
-0.89431697 -0.13068534 1.7350001 30 26 9 255
-0.88284701 -0.12969556 1.7220001 29 26 10 255
-0.87910163 -0.12983608 1.7240001 26 23 9 255
-0.87433487 -0.12982643 1.7240001 26 23 9 255
-0.87108511 -0.13004313 1.7270001 25 21 10 255
-0.86130124 -0.12928145 1.7170001 24 20 9 255
-0.85905915 -0.12964965 1.7220001 23 19 8 255
-0.85580087 -0.12986766 1.725 22 20 9 255
-0.85252941 -0.13008611 1.728 24 20 9 255
-0.84433889 -0.12955219 1.7210001 24 21 7 255
-0.83862931 -0.1293951 1.7190001 24 21 5 255
-0.83729982 -0.12991586 1.7260001 31 25 8 255
-0.83689982 -0.13058755 1.7350001 33 27 10 255
-0.82734054 -0.12982957 1.725 168 164 147 255
-0.78684241 -0.12418011 1.6500001 188 185 169 255
-0.74201685 -0.11777885 1.5650001 236 241 227 255
-0.73018593 -0.11657101 1.549 178 187 176 255
-0.72406894 -0.11626663 1.5450001 209 218 206 255
-0.71751034 -0.11588737 1.5400001 186 196 181 255
-0.71051806 -0.11543318 1.534 198 208 193 255
-0.70356089 -0.11497936 1.5280001 174 185 166 255
-0.69892716 -0.11490209 1.5270001 169 180 161 255
-0.69475585 -0.11490038 1.5270001 164 175 156 255
-0.69058663 -0.11489899 1.5270001 150 161 140 255
-0.68596971 -0.11482267 1.526 152 162 139 255
-0.68046653 -0.11459614 1.5230001 148 158 135 255
-0.67542553 -0.11444516 1.521 136 146 121 255
-0.67083859 -0.1143697 1.5200001 140 150 125 255
-0.66625869 -0.11429454 1.5190001 152 162 139 255
-0.6625576 -0.11437014 1.5200001 165 175 152 255
-0.65755326 -0.11422029 1.5180001 151 161 138 255
-0.65299159 -0.11414593 1.5170001 162 172 149 255
-0.64800912 -0.1139966 1.5150001 152 162 137 255
-0.64346397 -0.11392276 1.5140001 166 176 151 255
-0.63977009 -0.11399968 1.5150001 165 175 150 255
-0.63481337 -0.11385111 1.5130001 166 176 150 255
-0.6302855 -0.11377802 1.5120001 143 153 127 255
-0.62535012 -0.11362991 1.5100001 139 149 123 255
-0.62124962 -0.11363254 1.5100001 135 146 117 255
-0.61755878 -0.11371064 1.511 136 145 116 255
-0.61345768 -0.11371373 1.511 141 148 119 255
-0.60895425 -0.1136418 1.5100001 144 150 124 255
-0.60445708 -0.11357006 1.5090001 147 153 127 255
-0.60036409 -0.1135738 1.5090001 144 150 125 255
-0.59666705 -0.11365301 1.5100001 145 151 126 255
-0.59296542 -0.11373244 1.511 150 158 133 255
-0.58886933 -0.11373679 1.511 156 164 139 255
-0.58399999 -0.11359079 1.5090001 154 164 139 255
-0.57914209 -0.11344498 1.5070001 151 161 136 255
-0.5742957 -0.11329935 1.5050001 148 158 132 255
-0.57021832 -0.11330444 1.5050001 144 154 128 255
-0.56538934 -0.11315914 1.503 136 146 120 255
-0.56169194 -0.11323988 1.5040001 132 140 114 255
-0.55724806 -0.1131702 1.503 136 146 120 255
-0.55354607 -0.11325128 1.5040001 142 152 127 255
-0.54910839 -0.11318194 1.503 144 154 128 255
-0.54467654 -0.11311273 1.5020001 154 164 138 255
-0.5402503 -0.11304368 1.501 135 145 119 255
-0.22254327 -0.11386231 1.503 135 144 115 255
-0.22075965 -0.11508198 1.5190001 139 147 121 255
-0.21917298 -0.11645326 1.5370001 103 111 86 255
-0.21720734 -0.11767303 1.5530001 33 40 18 255
-0.21405651 -0.11828668 1.5610001 38 44 26 255
-0.21032354 -0.11859714 1.5650001 52 58 40 255
-0.20604138 -0.1186044 1.5650001 46 52 35 255
-0.20175846 -0.11861154 1.5650001 51 55 38 255
-0.19760101 -0.11869435 1.5660001 54 58 41 255
-0.19331394 -0.11870126 1.5660001 51 54 40 255
-0.18878478 -0.11855643 1.5640001 55 59 42 255
-0.18438384 -0.11848728 1.5630001 49 52 38 255
-0.18021818 -0.1185696 1.5640001 49 52 38 255
-0.17615886 -0.11872764 1.5660001 49 52 40 255
-0.17197818 -0.11880973 1.567 46 51 39 255
-0.16757736 -0.11874007 1.5660001 52 57 46 255
-0.16297287 -0.1185186 1.5630001 52 57 46 255
-0.15858725 -0.11844864 1.562 54 59 48 255
-0.15430529 -0.11845436 1.562 56 61 49 255
-0.15021485 -0.11861163 1.5640001 58 63 51 255
-0.14564635 -0.11838955 1.5610001 64 69 57 255
-0.14136542 -0.11839487 1.5610001 72 77 65 255
-0.13699611 -0.11832418 1.5600001 74 79 65 255
-0.13271683 -0.11832919 1.5600001 73 78 64 255
-0.12827237 -0.11818237 1.5580001 74 79 65 255
-0.12391798 -0.11811123 1.557 72 80 65 255
-0.11972225 -0.11819167 1.5580001 66 74 59 255
-0.11537237 -0.11812022 1.557 63 71 56 255
-0.11102752 -0.11804864 1.5560001 54 61 49 255
-0.10682492 -0.11812862 1.557 53 58 47 255
-0.10261641 -0.11820846 1.5580001 53 58 47 255
-0.098338887 -0.11821229 1.5580001 53 56 44 255
-0.09406095 -0.11821595 1.5580001 53 56 44 255
-0.089782625 -0.11821946 1.5580001 48 51 37 255
-0.085449047 -0.11814693 1.557 52 55 41 255
-0.081172764 -0.11815012 1.557 49 54 40 255
-0.076945521 -0.11822903 1.5580001 49 54 42 255
-0.072665833 -0.11823192 1.5580001 49 54 43 255
-0.068341948 -0.11815874 1.557 56 61 50 255
-0.064064421 -0.1181613 1.557 57 64 53 255
-0.059748232 -0.1180878 1.5560001 56 63 52 255
-0.055508576 -0.11816592 1.557 62 67 56 255
-0.051197402 -0.11809209 1.5560001 71 76 65 255
-0.046891499 -0.11801809 1.5550001 76 81 70 255
-0.042536084 -0.11779212 1.552 75 82 71 255
-0.038196981 -0.117566 1.549 75 82 71 255
-0.033918027 -0.11749151 1.5480001 70 77 66 255
-0.02964443 -0.11741685 1.5470001 69 76 65 255
-0.025392611 -0.11741792 1.5470001 64 71 60 255
-0.021113358 -0.11726703 1.5450001 62 69 58 255
-0.016866842 -0.11726777 1.5450001 62 69 57 255
-0.012628426 -0.11734425 1.5460001 61 68 56 255
-0.0083898772 -0.11749645 1.5480001 57 64 52 255
-0.0041376273 -0.11757261 1.549 58 63 51 255
0.00012021438 -0.11772449 1.5510001 57 60 48 255
0.0043862243 -0.1178003 1.552 56 59 47 255
0.0086577125 -0.11787595 1.5530001 58 61 49 255
0.012918016 -0.11779962 1.552 57 60 48 255
0.017183838 -0.11779903 1.552 56 59 47 255
0.021449588 -0.11779829 1.552 55 58 44 255
0.025731815 -0.11787327 1.5530001 56 61 47 255
0.030000115 -0.11787218 1.5530001 57 62 48 255
0.034268286 -0.11787093 1.5530001 60 65 51 255
0.0385115 -0.11779362 1.552 59 66 54 255
0.042776622 -0.11779205 1.552 59 66 54 255
0.047011252 -0.11771441 1.5510001 62 69 58 255
0.051273238 -0.11771251 1.5510001 63 70 59 255
0.055535011 -0.11771043 1.5510001 62 68 60 255
0.059719451 -0.11755642 1.549 65 71 63 255
0.06397526 -0.11755403 1.549 66 74 66 255
0.068230793 -0.11755148 1.549 68 74 66 255
0.072392449 -0.11739699 1.5470001 68 75 64 255
0.076542825 -0.11724236 1.5450001 70 77 66 255
0.080786474 -0.11723935 1.5450001 72 79 68 255
0.085139863 -0.11738793 1.5470001 70 76 68 255
0.089388318 -0.11738459 1.5470001 72 78 70 255
0.093515351 -0.11722934 1.5450001 74 82 75 255
0.097567759 -0.11699809 1.5420001 76 84 77 255
0.10160328 -0.11676668 1.539 77 85 78 255
0.10562192 -0.11653514 1.536 78 84 77 255
0.10976669 -0.1164552 1.5350001 75 81 74 255
0.11397979 -0.11645097 1.5350001 71 77 70 255
0.11811543 -0.11637075 1.534 73 79 72 255
0.12232484 -0.11636623 1.534 73 79 72 255
0.1264513 -0.11628573 1.5330001 69 76 72 255
0.13065699 -0.11628093 1.5330001 67 75 68 255
0.13486217 -0.116276 1.5330001 67 75 68 255
0.13906683 -0.11627091 1.5330001 69 75 68 255
0.14336437 -0.11634152 1.534 67 73 66 255
0.1476669 -0.116412 1.5350001 66 70 62 255
0.15217219 -0.116634 1.5380001 70 74 66 255
0.15649 -0.11670418 1.539 67 72 61 255
0.16070828 -0.1166984 1.539 65 70 59 255
0.16481879 -0.11661667 1.5380001 73 78 67 255
0.16892317 -0.11653479 1.5370001 69 76 65 255
0.17290883 -0.11637699 1.5350001 69 75 67 255
0.17699826 -0.11629488 1.534 70 76 68 255
0.18119968 -0.11628848 1.534 72 76 68 255
0.18552133 -0.11635776 1.5350001 62 68 60 255
0.18947698 -0.11619952 1.5330001 63 69 61 255
0.19342098 -0.11604115 1.531 69 75 68 255
0.19748242 -0.11595848 1.5300001 70 76 69 255
0.2014059 -0.11579994 1.5280001 91 97 90 255
0.20531772 -0.11564128 1.526 74 82 75 255
0.20935518 -0.11555832 1.5250001 68 76 68 255
0.2133864 -0.11547525 1.524 72 81 70 255
0.21769696 -0.11554363 1.5250001 76 85 74 255
0.2218668 -0.11553613 1.5250001 65 74 63 255
0.22588763 -0.11545277 1.524 69 78 67 255
0.22990227 -0.11536933 1.5230001 69 76 65 255
0.23467909 -0.11566451 1.5270001 69 76 65 255
0.23900776 -0.11573235 1.5280001 63 70 59 255
0.24350032 -0.11587583 1.5300001 59 63 55 255
0.24703169 -0.11556479 1.526 44 50 42 255
0.25152811 -0.11570807 1.5280001 45 51 43 255
0.25519797 -0.11547264 1.5250001 66 72 65 255
0.25953099 -0.11554002 1.526 83 89 81 255
0.26335025 -0.11538019 1.524 46 54 46 255
0.2676844 -0.11544742 1.5250001 72 78 71 255
0.27131018 -0.11521176 1.5220001 67 75 68 255
0.27528077 -0.11512744 1.521 67 75 67 255
0.27924514 -0.11504307 1.5200001 67 73 65 255
0.2835761 -0.11511 1.521 67 73 65 255
0.28772256 -0.11510118 1.521 65 71 63 255
0.29167631 -0.11501662 1.5200001 70 76 68 255
0.29562384 -0.11493203 1.5190001 70 76 68 255
0.29956517 -0.1148474 1.5180001 68 74 66 255
0.30410039 -0.11498967 1.5200001 72 78 70 255
0.30864576 -0.11513186 1.5220001 71 77 69 255
0.31299573 -0.11519836 1.5230001 70 76 68 255
0.31693387 -0.11511352 1.5220001 66 72 64 255
0.32107666 -0.11510427 1.5220001 66 72 64 255
0.32521874 -0.11509499 1.5220001 66 72 64 255
0.3293601 -0.11508568 1.5220001 71 76 65 255
0.33306238 -0.11492512 1.5200001 68 75 64 255
0.33697486 -0.11484013 1.5190001 70 77 66 255
0.34088114 -0.11475516 1.5180001 67 74 62 255
0.34500852 -0.11474575 1.5180001 68 75 64 255
0.34982511 -0.11496306 1.521 67 74 63 255
0.35419187 -0.11502917 1.5220001 70 77 66 255
0.3583279 -0.11501969 1.5220001 68 75 64 255
0.36270136 -0.11508577 1.5230001 68 75 64 255
0.36756125 -0.11530292 1.526 66 73 62 255
0.3712188 -0.11514228 1.524 65 72 61 255
0.37486482 -0.11498166 1.5220001 70 77 66 255
0.3784993 -0.11482105 1.5200001 67 74 63 255
0.38262567 -0.11481155 1.5200001 69 77 69 255
0.38649696 -0.11472653 1.5190001 70 78 71 255
0.39036217 -0.11464154 1.5180001 69 77 70 255
0.39474103 -0.1147076 1.5190001 73 81 74 255
0.39964989 -0.11492468 1.5220001 68 76 68 255
0.40430909 -0.11506623 1.524 72 78 70 255
0.40871054 -0.11513231 1.5250001 71 77 69 255
0.41311681 -0.11519839 1.526 70 76 68 255
0.41862169 -0.11556642 1.531 69 76 65 255
0.42442921 -0.11600991 1.5370001 71 76 64 255
0.4299899 -0.11637788 1.5420001 73 78 66 255
0.43473247 -0.11651944 1.544 69 76 64 255
0.43920115 -0.11658557 1.5450001 72 79 68 255
0.44338778 -0.11657628 1.5450001 70 77 66 255
0.4481532 -0.11671792 1.5470001 68 74 66 255
0.45292908 -0.11685961 1.549 67 73 65 255
0.45830566 -0.1171522 1.5530001 67 73 65 255
0.46370333 -0.1174448 1.557 70 76 69 255
0.46942291 -0.11781286 1.562 70 78 70 255
0.4745627 -0.11803008 1.5650001 73 81 73 255
0.47910652 -0.11809652 1.5660001 72 80 72 255
0.48272949 -0.11793682 1.5640001 71 79 71 255
0.48540714 -0.117551 1.559 66 75 64 255
0.48805755 -0.11716533 1.554 67 75 67 255
0.49099743 -0.11685519 1.5500001 69 77 69 255
0.49455428 -0.11669597 1.5480001 76 84 76 255
0.49810013 -0.11653685 1.5460001 74 82 75 255
0.50098526 -0.11622713 1.5420001 75 83 76 255
0.50090009 -0.1152392 1.529 91 98 94 255
0.5030567 -0.11477908 1.5230001 85 91 84 255
0.50717872 -0.11477128 1.5230001 71 77 70 255
0.51264358 -0.11506501 1.5270001 63 69 61 255
0.51677638 -0.11505743 1.5270001 56 63 51 255
0.51954466 -0.11474859 1.5230001 53 60 48 255
0.52297896 -0.11459057 1.521 51 60 49 255
0.52640253 -0.11443272 1.5190001 55 64 53 255
0.52946609 -0.1141997 1.516 57 65 57 255
0.53216171 -0.11389151 1.5120001 66 74 67 255
0.53448099 -0.11350817 1.5070001 83 91 84 255
0.53820294 -0.11342629 1.506 84 92 85 255
0.54191977 -0.11334457 1.5050001 78 84 76 255
0.54780817 -0.11371484 1.5100001 78 84 76 255
0.55482036 -0.11431116 1.5180001 72 76 68 255
0.561508 -0.11483224 1.5250001 58 60 50 255
0.56600851 -0.11490168 1.526 33 36 24 255
0.56902033 -0.11467012 1.5230001 40 45 33 255
0.57239276 -0.11451403 1.521 49 54 42 255
0.57537585 -0.11428287 1.5180001 47 54 42 255
0.57834303 -0.11405188 1.5150001 57 64 52 255
0.58167917 -0.11389639 1.5130001 65 74 63 255
0.58461785 -0.11366581 1.5100001 67 74 63 255
0.58676118 -0.11328492 1.5050001 67 73 65 255
0.59044838 -0.11320531 1.5040001 71 77 69 255
0.59452617 -0.11320117 1.5040001 67 74 63 255
0.60019684 -0.11349832 1.508 64 71 59 255
0.60428715 -0.11349458 1.508 56 63 51 255
0.60837841 -0.11349108 1.508 62 72 57 255
0.61165822 -0.11333727 1.506 63 71 56 255
0.61533701 -0.11325897 1.5050001 68 75 63 255
0.6190114 -0.11318087 1.5040001 13 20 8 255
0.62226713 -0.11302776 1.5020001 17 22 10 255
-0.93117481 -0.12452491 1.59 75 80 69 255
-0.93946677 -0.1262237 1.6120001 61 64 52 255
-0.9661985 -0.1304277 1.6660001 22 25 13 255
-0.97762501 -0.1325957 1.6940001 23 26 12 255
-0.92044479 -0.12787084 1.6350001 21 22 8 255
-0.93514609 -0.13248609 1.6950001 18 19 7 255
-0.94027114 -0.13387503 1.7130001 20 20 10 255
-0.93437839 -0.13370131 1.7110001 19 19 9 255
-0.92143941 -0.13251249 1.6960001 17 17 7 255
-0.91561592 -0.13234013 1.6940001 18 18 8 255
-0.91572344 -0.13302761 1.7030001 16 16 6 255
-0.93290299 -0.13621485 1.7440001 18 18 10 255
-0.92218775 -0.13534091 1.733 16 16 6 255
-0.9163028 -0.13517052 1.7310001 19 17 7 255
-0.90042877 -0.13351716 1.71 18 16 6 255
-0.89672303 -0.13366032 1.7120001 22 18 8 255
-0.89769983 -0.13450655 1.723 23 19 8 255
-0.90017432 -0.13558732 1.7370001 22 20 9 255
-0.89020455 -0.13479517 1.7270001 22 20 9 255
-0.88183206 -0.13423778 1.72 21 19 8 255
-0.87656206 -0.13414922 1.7190001 21 19 8 255
-0.87130153 -0.13406114 1.7180001 22 20 9 255
-0.86302388 -0.1335054 1.7110001 22 20 9 255
-0.86281478 -0.13419856 1.72 19 19 9 255
-0.86156178 -0.13473606 1.7270001 18 18 8 255
-0.85630482 -0.13464984 1.7260001 19 19 9 255
-0.85056335 -0.13448608 1.7240001 18 18 8 255
-0.84385514 -0.13416678 1.72 20 18 7 255
-0.83326924 -0.13322395 1.7080001 20 18 7 255
-0.82857388 -0.1332176 1.7080001 21 18 4 255
-0.82967001 -0.13414758 1.72 24 21 7 255
-0.82398844 -0.13398606 1.7180001 16 13 0 255
-0.7777862 -0.12719609 1.631 191 188 174 255
-0.74154681 -0.1219667 1.5640001 241 244 232 255
-0.73018962 -0.12079304 1.549 171 178 166 255
-0.72360367 -0.1203996 1.544 121 131 116 255
-0.71797919 -0.12016249 1.5410001 198 208 191 255
-0.71191019 -0.11984776 1.5370001 216 226 209 255
-0.70540488 -0.1194554 1.5320001 199 208 189 255
-0.69984442 -0.11921934 1.529 174 185 166 255
-0.69521254 -0.11913957 1.5280001 172 183 164 255
-0.69149244 -0.11921604 1.529 179 190 171 255
-0.68686974 -0.11913689 1.5280001 153 162 143 255
-0.68136078 -0.11890211 1.5250001 139 150 129 255
-0.67586994 -0.11866762 1.5220001 134 145 124 255
-0.67128003 -0.1185894 1.521 136 148 125 255
-0.66757441 -0.11866741 1.5220001 135 147 124 255
-0.66342896 -0.11866771 1.5220001 137 147 124 255
-0.65841883 -0.11851238 1.5200001 143 153 128 255
-0.65342104 -0.11835732 1.5180001 153 163 138 255
-0.64886326 -0.11828049 1.5170001 150 158 133 255
-0.64431232 -0.11820393 1.516 150 158 132 255
-0.64061284 -0.1182836 1.5170001 158 168 142 255
-0.63565046 -0.11812959 1.5150001 163 173 148 255
-0.63070005 -0.11797585 1.5130001 166 176 151 255
-0.62617588 -0.1179003 1.5120001 167 179 154 255
-0.62206966 -0.11790296 1.5120001 132 144 119 255
-0.61755586 -0.11782791 1.511 133 141 115 255
-0.61345446 -0.11783107 1.511 136 144 118 255
-0.60854745 -0.11767849 1.5090001 138 144 118 255
-0.60445338 -0.11768208 1.5090001 141 145 119 255
-0.59996229 -0.11760791 1.508 144 147 123 255
-0.59666294 -0.11776795 1.5100001 142 147 125 255
-0.5925687 -0.11777221 1.5100001 144 151 129 255
-0.58886486 -0.11785467 1.511 146 153 131 255
-0.58360827 -0.11762534 1.508 143 150 128 255
-0.57875293 -0.1174742 1.506 146 156 133 255
-0.57390904 -0.11732325 1.5040001 149 159 136 255
-0.57021308 -0.11740648 1.5050001 151 161 136 255
-0.56538379 -0.11725587 1.503 149 159 134 255
-0.56131279 -0.11726148 1.503 146 156 131 255
-0.55687153 -0.11718924 1.5020001 134 144 119 255
-0.55317205 -0.1172732 1.503 137 147 122 255
-0.54910225 -0.11727931 1.503 148 158 133 255
-0.54467028 -0.11720758 1.5020001 147 157 132 255
-0.53988391 -0.11705793 1.5000001 146 156 131 255
-0.23485777 -0.11795777 1.503 133 142 113 255
-0.23197936 -0.11859369 1.511 142 150 125 255
-0.22950885 -0.11946509 1.5220001 139 146 124 255
-0.22756968 -0.12065048 1.5370001 72 79 57 255
-0.22540247 -0.12175744 1.5510001 36 45 24 255
-0.222445 -0.12247188 1.5600001 33 42 23 255
-0.21887805 -0.12287225 1.5650001 35 44 25 255
-0.2148717 -0.12303701 1.567 50 56 39 255
-0.21045053 -0.12296612 1.5660001 50 55 41 255
-0.20603403 -0.12289508 1.5650001 55 60 46 255
-0.2018802 -0.122981 1.5660001 54 57 43 255
-0.19772008 -0.12306678 1.567 53 56 42 255
-0.19355385 -0.12315246 1.5680001 52 57 45 255
-0.18901935 -0.1230024 1.5660001 55 60 48 255
-0.18461308 -0.12293074 1.5650001 55 60 48 255
-0.18032683 -0.12293748 1.5650001 49 54 43 255
-0.17615241 -0.12302265 1.5660001 59 64 53 255
-0.17197184 -0.12310769 1.567 57 62 51 255
-0.16767818 -0.12311406 1.567 58 63 52 255
-0.16327961 -0.1230417 1.5660001 58 65 54 255
-0.15888591 -0.1229692 1.5650001 61 66 54 255
-0.15449713 -0.12289657 1.5640001 57 62 50 255
-0.15020923 -0.12290236 1.5640001 57 62 50 255
-0.14582747 -0.12282941 1.5630001 48 53 41 255
-0.14163177 -0.12291349 1.5640001 52 57 46 255
-0.1373422 -0.12291884 1.5640001 60 67 56 255
-0.13322224 -0.12308123 1.5660001 67 74 63 255
-0.12876147 -0.12292909 1.5640001 74 81 70 255
-0.12431118 -0.12277678 1.562 73 80 69 255
-0.11987136 -0.12262431 1.5600001 76 83 72 255
-0.11551614 -0.12255028 1.559 78 85 73 255
-0.11109461 -0.12239748 1.557 69 76 64 255
-0.10682081 -0.12240174 1.557 66 73 61 255
-0.10254658 -0.12240583 1.557 61 66 54 255
-0.098271959 -0.12240978 1.557 55 60 46 255
-0.093876183 -0.12225632 1.5550001 52 57 45 255
-0.089606263 -0.12225994 1.5550001 55 60 48 255
-0.085390851 -0.12234203 1.5560001 49 56 44 255
-0.08116959 -0.12242395 1.557 50 57 46 255
-0.076991893 -0.12258434 1.559 48 55 44 255
-0.072709627 -0.12258732 1.559 48 53 42 255
-0.068339266 -0.12243285 1.557 50 55 44 255
-0.06402076 -0.12235685 1.5560001 53 58 46 255
-0.059745882 -0.12235934 1.5560001 56 61 49 255
-0.055506397 -0.12244028 1.557 58 63 51 255
-0.051228285 -0.1224424 1.557 60 65 53 255
-0.047010269 -0.12260165 1.559 58 65 53 255
-0.042726249 -0.12260345 1.559 68 75 64 255
-0.038392738 -0.1224478 1.557 74 81 70 255
-0.034026232 -0.12213467 1.5530001 82 89 78 255
-0.029700743 -0.12190003 1.5500001 76 83 72 255
-0.025408022 -0.12174385 1.5480001 75 82 71 255
-0.021139853 -0.12166613 1.5470001 73 79 71 255
-0.016866174 -0.1215096 1.5450001 67 74 63 255
-0.012619756 -0.12151019 1.5450001 67 74 63 255
-0.0083841253 -0.12166792 1.5470001 61 68 57 255
-0.0041347924 -0.12174682 1.5480001 61 68 57 255
0.0001200546 -0.12182555 1.549 59 64 52 255
0.004380398 -0.1219041 1.5500001 59 64 52 255
0.00864622 -0.12198249 1.5510001 57 62 50 255
0.012917503 -0.12206069 1.552 56 61 49 255
0.01719423 -0.12213875 1.5530001 56 59 47 255
0.021476377 -0.1222166 1.554 60 63 49 255
0.025763933 -0.12229431 1.5550001 55 60 46 255
0.030037561 -0.12229319 1.5550001 55 60 46 255
0.034311064 -0.12229189 1.5550001 60 65 51 255
0.038534798 -0.12213314 1.5530001 58 65 53 255
0.04280249 -0.1221315 1.5530001 57 64 53 255
0.047039703 -0.12205106 1.552 60 66 58 255
0.051304277 -0.12204909 1.552 62 68 60 255
0.055532835 -0.12196832 1.5510001 60 68 60 255
0.059717108 -0.12180874 1.549 61 69 61 255
0.063972741 -0.12180626 1.549 64 72 64 255
0.068228111 -0.12180363 1.549 66 72 64 255
0.072436415 -0.12172221 1.5480001 70 76 68 255
0.076688461 -0.12171925 1.5480001 69 76 65 255
0.080940187 -0.12171612 1.5480001 70 77 66 255
0.085246615 -0.12179144 1.549 69 75 67 255
0.089442626 -0.12170938 1.5480001 69 77 69 255
0.093572259 -0.12154853 1.5460001 74 82 75 255
0.097627252 -0.12130892 1.5430001 77 85 78 255
0.10166539 -0.12106914 1.5400001 76 84 77 255
0.10568662 -0.12082924 1.5370001 79 85 78 255
0.10976248 -0.1206678 1.5350001 76 82 75 255
0.11390115 -0.12058482 1.534 79 85 78 255
0.11818791 -0.12065892 1.5350001 77 83 76 255
0.12239992 -0.12065425 1.5350001 73 79 72 255
0.12644649 -0.12049224 1.5330001 69 75 68 255
0.13065204 -0.12048727 1.5330001 73 79 72 255
0.13485706 -0.12048216 1.5330001 69 75 68 255
0.13906159 -0.12047692 1.5330001 70 76 69 255
0.14326556 -0.12047153 1.5330001 68 74 67 255
0.14775756 -0.12070173 1.536 67 73 65 255
0.15226546 -0.12093178 1.539 64 70 62 255
0.15658587 -0.12100451 1.5400001 67 71 63 255
0.16080675 -0.12099853 1.5400001 63 70 59 255
0.16491987 -0.12091385 1.539 65 72 61 255
0.16902688 -0.12082904 1.5380001 66 73 62 255
0.17290251 -0.12058698 1.5350001 66 73 62 255
0.17699181 -0.12050193 1.534 71 77 69 255
0.18107501 -0.12041675 1.5330001 70 76 68 255
0.18527293 -0.12041002 1.5330001 64 70 62 255
0.18922295 -0.12024605 1.531 63 69 61 255
0.19341405 -0.12023907 1.531 66 72 65 255
0.19760446 -0.12023197 1.531 86 92 85 255
0.20166238 -0.12014623 1.5300001 88 94 87 255
0.20557958 -0.11998186 1.5280001 75 83 76 255
0.20948508 -0.11981737 1.526 67 75 67 255
0.21351896 -0.11973133 1.5250001 69 78 67 255
0.21768939 -0.11972368 1.5250001 76 85 74 255
0.22171363 -0.11963742 1.524 79 88 77 255
0.22587985 -0.11962957 1.524 73 81 73 255
0.22974344 -0.11946464 1.5220001 73 82 71 255
0.23436373 -0.11969206 1.5250001 74 81 70 255
0.23884328 -0.11984088 1.5270001 69 75 67 255
0.24333298 -0.11998955 1.529 61 65 57 255
0.24686156 -0.1196673 1.5250001 43 47 39 255
0.25119057 -0.11973733 1.526 46 52 44 255
0.25485489 -0.11949342 1.5230001 67 73 66 255
0.2588422 -0.11940637 1.5220001 89 97 90 255
0.2623049 -0.11908391 1.5180001 80 88 81 255
0.26679811 -0.11923207 1.5200001 73 81 73 255
0.27094495 -0.11922324 1.5200001 69 77 69 255
0.27527198 -0.11929277 1.521 67 76 65 255
0.27941999 -0.1192838 1.521 69 76 65 255
0.2837536 -0.11935318 1.5220001 68 74 66 255
0.2875244 -0.11918724 1.5200001 60 66 58 255
0.29147539 -0.11909965 1.5190001 67 73 65 255
0.29542017 -0.11901204 1.5180001 66 72 64 255
0.29955602 -0.11900277 1.5180001 66 72 64 255
0.30389112 -0.11907183 1.5190001 66 72 64 255
0.30843368 -0.11921919 1.521 70 76 68 255
0.31278086 -0.11928812 1.5220001 70 76 68 255
0.31713268 -0.119357 1.5230001 67 73 65 255
0.32127821 -0.11934744 1.5230001 66 72 64 255
0.32520929 -0.11925949 1.5220001 70 76 68 255
0.32913417 -0.11917151 1.521 66 73 62 255
0.33305284 -0.11908352 1.5200001 69 76 65 255
0.33696529 -0.11899551 1.5190001 69 76 65 255
0.34109613 -0.11898582 1.5190001 68 75 64 255
0.3452262 -0.11897609 1.5190001 66 73 62 255
0.34958556 -0.11904468 1.5200001 69 76 65 255
0.35394952 -0.11911321 1.521 69 76 65 255
0.3580828 -0.11910342 1.521 67 74 63 255
0.3622154 -0.11909361 1.521 66 73 62 255
0.36658812 -0.11916209 1.5220001 67 74 63 255
0.370722 -0.11915227 1.5220001 68 75 64 255
0.37436262 -0.11898589 1.5200001 63 72 61 255
0.37824064 -0.1188978 1.5190001 69 77 69 255
0.38236433 -0.118888 1.5190001 70 78 71 255
0.38623291 -0.11879995 1.5180001 71 79 72 255
0.39009538 -0.1187119 1.5170001 71 79 72 255
0.39421171 -0.11870216 1.5170001 69 77 70 255
0.39858997 -0.11877066 1.5180001 69 77 70 255
0.40297306 -0.11883916 1.5190001 73 79 71 255
0.40709293 -0.11882947 1.5190001 71 77 69 255
0.41148302 -0.11889801 1.5200001 70 76 68 255
0.41587791 -0.11896657 1.521 69 76 65 255
0.42110604 -0.1192698 1.5250001 70 77 65 255
0.42691308 -0.1197294 1.531 68 75 63 255
0.43275216 -0.12018898 1.5370001 70 77 65 255
0.43777034 -0.12041396 1.5400001 69 76 64 255
0.44194344 -0.12040439 1.5400001 72 79 68 255
0.44611603 -0.12039488 1.5400001 67 73 65 255
0.45058063 -0.12046361 1.5410001 69 75 67 255
0.4550502 -0.12053238 1.5420001 66 72 64 255
0.46012032 -0.12075751 1.5450001 61 69 61 255
0.46520641 -0.1209827 1.5480001 62 70 62 255
0.4703083 -0.1212079 1.5510001 67 75 67 255
0.4760381 -0.12158945 1.5560001 67 75 67 255
0.48055992 -0.12165846 1.557 68 74 66 255
0.48384151 -0.12141503 1.554 67 74 63 255
0.48647848 -0.12101547 1.549 65 73 65 255
0.48940492 -0.12069418 1.5450001 66 74 66 255
0.4932678 -0.12060737 1.544 65 73 65 255
0.49648085 -0.12036446 1.5410001 80 88 81 255
0.49805295 -0.11973117 1.5330001 90 97 93 255
0.49859884 -0.11886378 1.5220001 88 95 91 255
0.50205779 -0.11869945 1.5200001 73 79 72 255
0.50783688 -0.11908185 1.5250001 67 73 66 255
0.51297158 -0.11930817 1.5280001 59 65 57 255
0.51643032 -0.11914419 1.526 54 61 49 255
0.51919603 -0.11882422 1.5220001 52 59 47 255
0.52262777 -0.11866054 1.5200001 51 60 49 255
0.52604878 -0.11849703 1.5180001 57 66 55 255
0.52910984 -0.11825562 1.5150001 57 65 57 255
0.53180277 -0.11793631 1.511 62 70 63 255
0.53411961 -0.11753915 1.506 80 88 81 255
0.53748167 -0.11737631 1.5040001 83 91 84 255
0.54083312 -0.11721364 1.5020001 82 90 83 255
0.54598796 -0.11744132 1.5050001 81 87 79 255
0.55189031 -0.11782518 1.5100001 81 87 79 255
0.55929279 -0.11852128 1.5190001 70 75 64 255
0.56451905 -0.11874934 1.5220001 33 38 27 255
0.56789386 -0.11858746 1.5200001 41 43 33 255
0.57125837 -0.11842579 1.5180001 49 54 43 255
0.57423341 -0.1181863 1.5150001 49 56 44 255
0.57719272 -0.11794701 1.5120001 54 61 50 255
0.57975197 -0.11762994 1.508 63 70 59 255
0.58267736 -0.11739109 1.5050001 64 70 62 255
0.58558702 -0.11715244 1.5020001 67 73 65 255
0.5888738 -0.11699203 1.5000001 71 77 69 255
0.59294093 -0.11698779 1.5000001 68 75 64 255
0.59820294 -0.11721776 1.503 65 72 61 255
0.60268068 -0.11729195 1.5040001 61 68 56 255
0.60676122 -0.11728837 1.5040001 60 69 57 255
0.61043656 -0.11720701 1.503 63 71 56 255
0.61492515 -0.11728188 1.5040001 66 73 61 255
0.61859703 -0.11720102 1.503 50 57 45 255
0.62143606 -0.11696444 1.5000001 15 20 8 255
-0.93890828 -0.13055725 1.6110001 69 71 63 255
-0.9546237 -0.13336875 1.646 45 47 37 255
-0.98053473 -0.13763805 1.6990001 25 28 16 255
-0.9430337 -0.13896072 1.7180001 21 22 10 255
-0.93166542 -0.13797206 1.7060001 19 19 9 255
-0.91384971 -0.13601388 1.682 20 20 10 255
-0.91887516 -0.13745265 1.7 17 17 7 255
-0.92272943 -0.13872994 1.7160001 17 17 7 255
-0.92115003 -0.13919918 1.7220001 17 17 9 255
-0.92699182 -0.14080045 1.7420001 19 19 11 255
-0.91684633 -0.13997738 1.7320001 17 17 7 255
-0.90202183 -0.13842776 1.7130001 19 17 7 255
-0.88992679 -0.137283 1.6990001 20 18 8 255
-0.90292251 -0.14001712 1.733 20 18 8 255
-0.89655876 -0.13976216 1.7300001 20 18 8 255
-0.89021599 -0.13950776 1.7270001 19 17 7 255
-0.88030505 -0.1386885 1.7170001 19 20 8 255
-0.87759238 -0.13900061 1.7210001 21 22 10 255
-0.86674702 -0.13802102 1.7090001 21 22 10 255
-0.8610158 -0.1378496 1.7070001 20 20 10 255
-0.86432874 -0.1391322 1.723 20 20 10 255
-0.86506259 -0.14001139 1.7340001 18 18 8 255
-0.85234386 -0.13871093 1.7180001 20 20 10 255
-0.84317052 -0.1379763 1.7090001 19 19 9 255
-0.83846557 -0.13796875 1.7090001 20 20 10 255
-0.8288852 -0.13715439 1.6990001 21 19 8 255
-0.82275873 -0.13690563 1.6960001 22 20 9 255
-0.82099319 -0.13738377 1.702 24 21 7 255
-0.82015693 -0.13802375 1.71 29 26 12 255
-0.78208297 -0.13236852 1.6400001 20 16 5 255
-0.74439579 -0.12671411 1.5700001 250 251 239 255
-0.73207903 -0.12533796 1.5530001 214 222 207 255
-0.72454441 -0.12476929 1.5460001 151 161 144 255
-0.71891403 -0.12452383 1.5430001 124 135 116 255
-0.71422881 -0.12444013 1.5420001 174 183 164 255
-0.70770955 -0.12403401 1.5370001 221 230 211 255
-0.70167744 -0.12370893 1.5330001 171 180 161 255
-0.69521421 -0.12330351 1.5280001 133 142 123 255
-0.69149381 -0.12338261 1.529 150 159 140 255
-0.68687081 -0.12330063 1.5280001 186 195 176 255
-0.68180829 -0.12313828 1.526 186 195 174 255
-0.67675859 -0.12297625 1.524 163 175 152 255
-0.67260414 -0.12297592 1.524 142 152 129 255
-0.66757423 -0.12281452 1.5220001 141 151 126 255
-0.6629926 -0.12273408 1.521 139 149 124 255
-0.65798497 -0.12257328 1.5190001 142 150 124 255
-0.6538505 -0.12257413 1.5190001 141 149 123 255
-0.64928973 -0.12249457 1.5180001 139 147 121 255
-0.64473587 -0.12241529 1.5170001 142 150 124 255
-0.64103335 -0.12249769 1.5180001 139 147 122 255
-0.63606787 -0.12233824 1.516 144 154 129 255
-0.63153148 -0.12225977 1.5150001 157 167 144 255
-0.62700158 -0.12218153 1.5140001 164 176 153 255
-0.6228897 -0.12218425 1.5140001 169 181 158 255
-0.61837023 -0.12210653 1.5130001 142 152 129 255
-0.61385715 -0.12202904 1.5120001 132 139 117 255
-0.60854393 -0.12179036 1.5090001 132 138 113 255
-0.60404909 -0.12171333 1.508 146 152 127 255
-0.59995836 -0.12171724 1.508 144 150 125 255
-0.59626365 -0.12180209 1.5090001 142 148 123 255
-0.59217185 -0.12180644 1.5090001 148 155 133 255
-0.58847058 -0.12189174 1.5100001 148 155 133 255
-0.58360344 -0.12173507 1.508 151 158 136 255
-0.57874787 -0.12157858 1.506 147 157 134 255
-0.57428539 -0.12150304 1.5050001 155 165 142 255
-0.57020772 -0.12150841 1.5050001 144 154 129 255
-0.56613064 -0.12151399 1.5050001 146 156 131 255
-0.56130701 -0.12135823 1.503 142 152 127 255
-0.55723631 -0.12136418 1.503 129 139 114 255
-0.55279797 -0.12128954 1.5020001 129 139 114 255
-0.54873073 -0.12129582 1.5020001 134 144 119 255
-0.54466379 -0.12130225 1.5020001 134 144 119 255
-0.54023725 -0.12122811 1.501 138 150 125 255
-0.53617358 -0.12123488 1.501 138 150 125 255
-0.2432221 -0.1221402 1.5040001 128 135 104 255
-0.24118115 -0.12320448 1.5170001 132 138 112 255
-0.24000593 -0.12475616 1.536 80 88 63 255
-0.23811206 -0.12598303 1.5510001 36 43 22 255
-0.23523067 -0.12672257 1.5600001 54 60 42 255
-0.23170714 -0.12713715 1.5650001 57 63 45 255
-0.22786488 -0.12738919 1.5680001 49 58 39 255
-0.22386287 -0.12755992 1.5700001 47 55 38 255
-0.21970929 -0.12764929 1.5710001 33 41 24 255
-0.21541239 -0.12765729 1.5710001 41 49 34 255
-0.21084598 -0.12750265 1.5690001 46 51 37 255
-0.20642143 -0.12742913 1.5680001 53 58 44 255
-0.20213054 -0.12743674 1.5680001 53 58 44 255
-0.19783895 -0.12744425 1.5680001 54 59 45 255
-0.19354667 -0.12745163 1.5680001 57 62 50 255
-0.18913299 -0.12737758 1.567 55 60 48 255
-0.18484205 -0.12738468 1.567 57 62 51 255
-0.18055047 -0.12739165 1.567 57 62 51 255
-0.1763707 -0.12747978 1.5680001 61 66 55 255
-0.17196532 -0.12740518 1.567 58 63 52 255
-0.1676718 -0.12741175 1.567 67 74 63 255
-0.16348191 -0.12749948 1.5680001 57 64 53 255
-0.15908286 -0.12742445 1.567 65 72 61 255
-0.1547875 -0.12743057 1.567 65 72 61 255
-0.1503955 -0.12735523 1.5660001 58 65 54 255
-0.1460084 -0.12727973 1.5650001 61 68 57 255
-0.14162624 -0.12720408 1.5640001 61 68 57 255
-0.13733684 -0.12720959 1.5640001 60 67 56 255
-0.13313195 -0.12729628 1.5650001 58 65 54 255
-0.1287564 -0.12722017 1.5640001 54 61 50 255
-0.12446545 -0.12722524 1.5640001 58 65 54 255
-0.12009713 -0.12714878 1.5630001 67 74 63 255
-0.11580794 -0.12715352 1.5630001 76 83 72 255
-0.11130424 -0.12691401 1.5600001 81 88 76 255
-0.10702238 -0.12691844 1.5600001 82 89 77 255
-0.10267422 -0.12684129 1.559 72 77 65 255
-0.098268032 -0.12668265 1.557 68 73 61 255
-0.093872428 -0.12652382 1.5550001 61 68 56 255
-0.089602664 -0.12652756 1.5550001 58 65 53 255
-0.08544229 -0.12669387 1.557 55 62 50 255
-0.08116632 -0.12669727 1.557 53 60 49 255
-0.076939411 -0.1267819 1.5580001 51 57 49 255
-0.072706684 -0.12686633 1.559 50 57 46 255
-0.068380401 -0.12678786 1.5580001 52 57 46 255
-0.064100452 -0.12679057 1.5580001 49 54 43 255
-0.059820246 -0.12679313 1.5580001 50 55 43 255
-0.055539794 -0.12679552 1.5580001 53 58 46 255
-0.051259104 -0.12679772 1.5580001 57 62 50 255
-0.04700835 -0.12688112 1.559 56 61 49 255
-0.042779319 -0.12704577 1.5610001 61 68 57 255
-0.0384898 -0.12704745 1.5610001 63 70 59 255
-0.0341563 -0.12688617 1.559 73 80 69 255
-0.029833656 -0.12672472 1.557 77 84 73 255
-0.025521871 -0.12656309 1.5550001 80 86 78 255
-0.021207308 -0.12631987 1.552 82 88 80 255
-0.016920066 -0.12615789 1.5500001 70 76 68 255
-0.012635577 -0.12591434 1.5470001 76 83 72 255
-0.0083783632 -0.12583338 1.5460001 70 76 68 255
-0.0041266102 -0.12575224 1.5450001 59 66 55 255
0.00011973969 -0.12575233 1.5450001 62 69 58 255
0.0043689157 -0.12583365 1.5460001 61 66 55 255
0.0086235693 -0.12591475 1.5470001 59 64 52 255
0.01290033 -0.12615848 1.5500001 60 65 54 255
0.017171385 -0.12623924 1.5510001 57 62 51 255
0.021475499 -0.12648262 1.554 55 60 48 255
0.025762882 -0.12656303 1.5550001 56 61 49 255
0.030036334 -0.12656188 1.5550001 54 59 47 255
0.034287594 -0.12647913 1.554 58 63 51 255
0.038558032 -0.12647763 1.554 60 65 53 255
0.042828307 -0.12647595 1.554 59 66 54 255
0.047098402 -0.12647408 1.554 60 67 56 255
0.051302187 -0.12630929 1.552 63 70 59 255
0.055530574 -0.1262257 1.5510001 63 70 59 255
0.059676137 -0.12597917 1.5480001 64 71 60 255
0.063928857 -0.12597662 1.5480001 66 73 62 255
0.068181314 -0.12597391 1.5480001 65 72 61 255
0.072527073 -0.12613378 1.5500001 65 72 61 255
0.076784439 -0.12613072 1.5500001 67 74 63 255
0.081041493 -0.12612748 1.5500001 68 75 64 255
0.085298225 -0.12612408 1.5500001 67 75 67 255
0.089496806 -0.12603913 1.549 70 78 70 255
0.093689561 -0.12595406 1.5480001 71 79 72 255
0.097876415 -0.1258688 1.5470001 75 83 76 255
0.10192539 -0.12562066 1.544 77 85 78 255
0.10588869 -0.12529103 1.5400001 73 81 74 255
0.10990115 -0.1250426 1.5370001 77 85 78 255
0.11404515 -0.12495673 1.536 79 87 80 255
0.11826023 -0.12495206 1.536 78 84 77 255
0.12239511 -0.12486592 1.5350001 76 82 75 255
0.12652399 -0.1247796 1.534 74 80 73 255
0.13064693 -0.12469316 1.5330001 76 82 75 255
0.13485181 -0.12468788 1.5330001 70 76 69 255
0.13896547 -0.12460113 1.5320001 71 77 70 255
0.14326 -0.12467688 1.5330001 71 77 69 255
0.14765567 -0.12483381 1.5350001 68 74 66 255
0.15216066 -0.12507191 1.5380001 66 72 64 255
0.15657987 -0.12522852 1.5400001 62 69 58 255
0.16080061 -0.12522236 1.5400001 63 70 59 255
0.16491358 -0.12513474 1.539 65 72 61 255
0.16913036 -0.12512828 1.539 63 70 59 255
0.17300861 -0.12487778 1.536 69 76 65 255
0.17710054 -0.12478978 1.5350001 72 78 70 255
0.18106821 -0.12462036 1.5330001 71 77 69 255
0.18514515 -0.12453212 1.5320001 69 75 67 255
0.18921593 -0.12444375 1.531 64 72 64 255
0.19340691 -0.12443654 1.531 61 69 61 255
0.19759718 -0.12442921 1.531 88 96 89 255
0.20178676 -0.12442175 1.531 86 94 87 255
0.20584114 -0.12433293 1.5300001 66 74 67 255
0.20988928 -0.12424398 1.529 65 73 65 255
0.21379128 -0.12407369 1.5270001 67 75 67 255
0.21782431 -0.12398453 1.526 66 75 64 255
0.22185116 -0.12389529 1.5250001 75 83 75 255
0.22572361 -0.12372471 1.5230001 74 82 74 255
0.22988626 -0.12371652 1.5230001 74 82 74 255
0.23435549 -0.12387066 1.5250001 84 90 82 255
0.23899135 -0.12410592 1.5280001 64 70 62 255
0.2433245 -0.12417858 1.529 58 64 56 255
0.24701488 -0.12392632 1.526 37 43 35 255
0.25118193 -0.12391761 1.526 43 49 41 255
0.25467888 -0.12358403 1.5220001 57 63 56 255
0.25815323 -0.1232504 1.5180001 81 89 82 255
0.26160491 -0.12291671 1.5140001 79 87 80 255
0.26626265 -0.12315127 1.5170001 73 81 74 255
0.27093595 -0.12338571 1.5200001 65 73 65 255
0.27544388 -0.12353887 1.5220001 68 77 66 255
0.27941081 -0.12344843 1.521 67 76 65 255
0.28337154 -0.12335796 1.5200001 68 76 68 255
0.28713682 -0.12318627 1.5180001 67 75 67 255
0.29108226 -0.12309567 1.5170001 70 76 68 255
0.29521617 -0.12308618 1.5170001 68 74 66 255
0.29954654 -0.12315775 1.5180001 69 77 69 255
0.30348149 -0.12306699 1.5170001 69 77 69 255
0.30741021 -0.12297619 1.516 70 76 69 255
0.31153822 -0.12296649 1.516 71 77 70 255
0.31608191 -0.12311894 1.5180001 65 73 65 255
0.32063568 -0.12327132 1.5200001 68 74 67 255
0.32498586 -0.12334253 1.521 67 73 65 255
0.32890803 -0.12325153 1.5200001 67 74 63 255
0.33304307 -0.1232416 1.5200001 71 77 69 255
0.33695546 -0.12315053 1.5190001 72 78 70 255
0.34131083 -0.12322161 1.5200001 65 74 63 255
0.34544361 -0.12321157 1.5200001 66 74 66 255
0.34957564 -0.12320151 1.5200001 67 73 65 255
0.3537069 -0.12319143 1.5200001 67 73 65 255
0.35783747 -0.12318134 1.5200001 66 72 64 255
0.3619673 -0.12317123 1.5200001 66 72 64 255
0.3658556 -0.1230801 1.5190001 67 73 65 255
0.36949417 -0.12290794 1.5170001 66 74 67 255
0.37336746 -0.12281683 1.516 67 75 68 255
0.37748367 -0.12280674 1.516 70 78 71 255
0.38185096 -0.12287765 1.5170001 74 82 75 255
0.38596851 -0.12286757 1.5170001 73 81 74 255
0.38982832 -0.12277649 1.516 72 80 73 255
0.39394194 -0.12276644 1.516 66 74 67 255
0.3977924 -0.12267545 1.5150001 66 74 67 255
0.40163675 -0.12258446 1.5140001 70 76 69 255
0.40574312 -0.12257449 1.5140001 73 79 72 255
0.41011962 -0.1226455 1.5150001 70 76 69 255
0.41450104 -0.12271653 1.516 69 77 69 255
0.41888723 -0.12278759 1.5170001 69 75 67 255
0.42439377 -0.12318242 1.5220001 69 75 67 255
0.42992684 -0.12357721 1.5270001 69 75 67 255
0.43491802 -0.12381016 1.5300001 70 76 68 255
0.43992499 -0.12404311 1.5330001 71 77 69 255
0.44465801 -0.12419517 1.5350001 72 78 70 255
0.4494015 -0.12434726 1.5370001 65 74 63 255
0.45356521 -0.12433761 1.5370001 64 72 64 255
0.45772848 -0.12432802 1.5370001 62 70 62 255
0.4615908 -0.12423761 1.536 63 71 63 255
0.4657506 -0.12422817 1.536 65 73 65 255
0.47143981 -0.12462319 1.5410001 68 74 66 255
0.47684708 -0.12493733 1.5450001 65 71 63 255
0.48103029 -0.12492809 1.5450001 61 68 57 255
0.48427111 -0.12467638 1.5420001 60 66 58 255
0.48749548 -0.1244248 1.539 62 70 62 255
0.49134228 -0.12433504 1.5380001 71 79 72 255
0.49421695 -0.12400288 1.534 82 90 83 255
0.49512047 -0.12318589 1.524 95 103 96 255
0.49728015 -0.12269244 1.5180001 80 88 81 255
0.50204962 -0.12284572 1.5200001 70 76 68 255
0.50816172 -0.12332233 1.526 65 71 63 255
0.51262784 -0.12339497 1.5270001 54 61 50 255
0.51574558 -0.12314451 1.524 52 59 47 255
0.51884717 -0.12289421 1.521 53 60 48 255
0.5219326 -0.12264409 1.5180001 52 61 50 255
0.52534831 -0.12247491 1.516 57 66 55 255
0.52875334 -0.1223059 1.5140001 57 65 57 255
0.53179568 -0.12205628 1.511 62 70 63 255
0.53446734 -0.12172606 1.5070001 74 82 75 255
0.53711754 -0.12139603 1.503 82 90 83 255
0.54046637 -0.12122773 1.501 80 88 81 255
0.54416758 -0.12114038 1.5000001 82 90 83 255
0.54896009 -0.12129545 1.5020001 77 81 73 255
0.55560464 -0.12185444 1.5090001 72 76 68 255
0.56228757 -0.12241355 1.516 50 54 46 255
0.56676716 -0.12248833 1.5170001 36 38 28 255
0.57012379 -0.12232107 1.5150001 45 50 39 255
0.57309091 -0.12207326 1.5120001 48 55 43 255
0.57604229 -0.12182567 1.5090001 49 56 45 255
0.57820916 -0.12141686 1.5040001 55 62 51 255
0.58151102 -0.12125044 1.5020001 64 70 62 255
0.58480269 -0.12108424 1.5000001 67 73 65 255
0.59700507 -0.12107132 1.5000001 68 75 64 255
0.60187554 -0.12122886 1.5020001 65 72 60 255
0.6063543 -0.12130591 1.503 62 69 57 255
0.61043328 -0.12130249 1.503 64 72 57 255
0.61451322 -0.1212993 1.503 63 71 56 255
0.61818272 -0.12121566 1.5020001 71 76 64 255
0.6214335 -0.12105158 1.5000001 10 15 3 255
-0.95292139 -0.13698022 1.6350001 75 75 67 255
-0.98229134 -0.14254066 1.702 43 43 33 255
-1.0004338 -0.1458647 1.7420001 58 59 47 255
-0.94976127 -0.14116582 1.687 25 28 14 255
-0.94014937 -0.14250463 1.7040001 21 22 10 255
-0.93646544 -0.14265253 1.7060001 20 21 9 255
-0.93222964 -0.14271744 1.7070001 19 20 8 255
-0.90645987 -0.14017421 1.677 18 18 8 255
-0.90822709 -0.14116052 1.6890001 18 18 8 255
-0.92223561 -0.14406922 1.7240001 19 19 9 255
-0.91317135 -0.14338487 1.7160001 20 20 10 255
-0.90098017 -0.14219996 1.702 19 19 9 255
-0.88255239 -0.14001338 1.6760001 19 19 9 255
-0.88522589 -0.14116907 1.6900001 19 19 9 255
-0.88365775 -0.14165689 1.6960001 19 19 9 255
-0.90849113 -0.1464045 1.7530001 20 20 10 255
-0.88610423 -0.14355247 1.7190001 21 22 10 255
-0.88236725 -0.14370754 1.7210001 20 21 9 255
-0.87250394 -0.14286116 1.7110001 19 20 8 255
-0.87182909 -0.14351825 1.7190001 19 20 8 255
-0.86102563 -0.14250609 1.7070001 20 20 10 255
-0.85229874 -0.14182846 1.6990001 17 17 7 255
-0.85309827 -0.1427374 1.71 18 18 8 255
-0.8369723 -0.14080882 1.687 18 18 8 255
-0.82985723 -0.14038327 1.682 21 21 11 255
-0.83405751 -0.14187779 1.7 21 22 10 255
-0.82986796 -0.14195387 1.7010001 21 22 10 255
-0.81451827 -0.14011109 1.6790001 22 23 9 255
-0.81521088 -0.14102261 1.6900001 24 25 11 255
-0.81728476 -0.14218481 1.7040001 27 23 12 255
-0.76968902 -0.13466977 1.6140001 18 14 4 255
-0.74866754 -0.13174467 1.5790001 123 123 113 255
-0.73585421 -0.13023849 1.5610001 233 238 224 255
-0.72642261 -0.12931682 1.5500001 209 217 200 255
-0.71984923 -0.12889615 1.5450001 130 139 118 255
-0.71515805 -0.12880954 1.544 134 143 122 255
-0.71047479 -0.12872335 1.5430001 176 185 164 255
-0.7035104 -0.12822036 1.5370001 218 227 206 255
-0.69658095 -0.12771776 1.531 129 138 117 255
-0.69149524 -0.1275492 1.529 131 141 118 255
-0.68687195 -0.12746441 1.5280001 132 139 117 255
-0.68225604 -0.12737995 1.5270001 170 177 155 255
-0.67764723 -0.12729581 1.526 189 199 174 255
-0.67348707 -0.1272954 1.526 171 181 156 255
-0.66845131 -0.12712848 1.524 139 149 124 255
-0.66342807 -0.12696187 1.5220001 131 141 116 255
-0.65885055 -0.12687899 1.521 135 145 120 255
-0.65384948 -0.12671298 1.5190001 131 141 116 255
-0.65014392 -0.12679753 1.5200001 143 153 128 255
-0.64515936 -0.12663209 1.5180001 142 152 127 255
-0.6418761 -0.12680061 1.5200001 150 160 135 255
-0.63690495 -0.12663575 1.5180001 147 157 134 255
-0.6327796 -0.12663798 1.5180001 163 173 150 255
-0.62824136 -0.12655707 1.5170001 151 161 138 255
-0.62329823 -0.12639298 1.5150001 151 161 138 255
-0.61918443 -0.126396 1.5150001 171 179 154 255
