ply
format ascii 1.0
comment PCL generated
element vertex 962
property float x
property float y
property float z
property uchar red
property uchar green
property uchar blue
property uchar alpha
element camera 0
property float view_px
property float view_py
property float view_pz
property float x_axisx
property float x_axisy
property float x_axisz
property float y_axisx
property float y_axisy
property float y_axisz
property float z_axisx
property float z_axisy
property float z_axisz
property float focal
property float scalex
property float scaley
property float centerx
property float centery
property int viewportx
property int viewporty
property float k1
property float k2
end_header
-0.29270437 -0.038219556 1.618 88 97 86 255
-0.28793359 -0.038175277 1.6160001 78 87 76 255
-0.28317279 -0.038130958 1.6140001 85 92 81 255
-0.2787675 -0.038133867 1.6140001 87 93 85 255
-0.27402139 -0.038089484 1.6120001 87 95 87 255
-0.26928529 -0.038045071 1.6100001 87 93 85 255
-0.26472381 -0.03802425 1.6090001 82 88 80 255
-0.26016691 -0.0380034 1.608 80 86 78 255
-0.25593275 -0.038029786 1.6090001 81 88 77 255
-0.25122333 -0.037985235 1.6070001 81 88 77 255
-0.24698476 -0.038011555 1.608 73 80 69 255
-0.24228729 -0.037966929 1.6060001 67 76 64 255
-0.23804438 -0.037993193 1.6070001 62 71 59 255
-0.23335895 -0.037948489 1.605 66 75 64 255
-0.22896898 -0.037951037 1.605 74 83 72 255
-0.22415844 -0.037882611 1.6020001 100 108 100 255
-0.21991226 -0.037908729 1.603 87 93 85 255
-0.21592875 -0.037982117 1.6060001 70 76 68 255
-0.21153286 -0.037984516 1.6060001 58 65 54 255
-0.20700724 -0.037963226 1.605 67 74 62 255
-0.20236012 -0.037918244 1.603 55 62 50 255
-0.19809371 -0.037944179 1.6040001 50 57 45 255
-0.19357954 -0.037922762 1.603 59 67 52 255
-0.18918818 -0.037924968 1.603 65 70 56 255
-0.18479608 -0.037927125 1.603 65 70 56 255
-0.18062834 -0.037976563 1.605 69 74 60 255
-0.17633918 -0.038002301 1.6060001 66 71 59 255
-0.17204386 -0.038028002 1.6070001 65 70 58 255
-0.16763806 -0.038029991 1.6070001 71 76 64 255
-0.16333318 -0.038055602 1.608 68 73 61 255
-0.15892336 -0.038057506 1.608 69 74 63 255
-0.15451288 -0.038059358 1.608 67 72 60 255
-0.15028849 -0.038108509 1.6100001 74 79 67 255
-0.14605255 -0.038157616 1.6120001 66 73 61 255
-0.14198075 -0.038254026 1.6160001 66 73 61 255
-0.13797155 -0.03837407 1.6210001 68 76 59 255
-0.13409907 -0.038541418 1.628 65 73 56 255
-0.1304265 -0.038779762 1.6380001 63 72 53 255
-0.12654473 -0.03897072 1.646 61 67 49 255
-0.12239612 -0.039090611 1.651 56 62 45 255
-0.11750564 -0.038973682 1.646 56 62 45 255
-0.11277945 -0.038904056 1.6430001 52 60 45 255
-0.10820103 -0.038881723 1.6420001 43 51 36 255
-0.10381711 -0.038930379 1.6440001 49 57 42 255
-0.099482171 -0.039002668 1.6470001 55 63 48 255
-0.095072657 -0.039051231 1.649 60 68 53 255
-0.090541951 -0.039052367 1.649 58 63 51 255
-0.085854381 -0.03898241 1.646 62 67 55 255
-0.081281759 -0.03895976 1.6450001 60 65 53 255
-0.076760955 -0.03896074 1.6450001 62 67 55 255
-0.072195902 -0.038937982 1.6440001 58 63 51 255
-0.067718372 -0.038962532 1.6450001 60 67 55 255
-0.063311875 -0.039034404 1.6480001 53 60 48 255
-0.059173968 -0.039295711 1.659 55 62 50 255
-0.054975331 -0.03955698 1.6700001 58 65 53 255
-0.05056512 -0.039699756 1.6760001 49 54 40 255
-0.045902334 -0.039652988 1.674 35 40 28 255
-0.041176327 -0.03953509 1.669 43 48 36 255
-0.036521487 -0.039464515 1.6660001 46 51 40 255
-0.03190216 -0.039417569 1.664 63 68 57 255
-0.02729369 -0.039370563 1.6620001 65 71 63 255
-0.022764456 -0.039441939 1.6650001 68 74 66 255
-0.018295087 -0.039679088 1.6750001 65 71 63 255
-0.013803328 -0.04001094 1.6890001 58 65 54 255
-0.009212818 -0.040247973 1.6990001 59 66 54 255
-0.0045539062 -0.040366508 1.7040001 61 68 56 255
0.00013252604 -0.040484983 1.7090001 57 64 52 255
0.0048408029 -0.040556017 1.7120001 57 64 52 255
0.0095599797 -0.040603302 1.7140001 55 62 50 255
0.01427346 -0.040603153 1.7140001 53 60 48 255
0.019009033 -0.040650323 1.7160001 54 61 49 255
0.023797007 -0.0407685 1.7210001 56 63 51 255
0.028678682 -0.040981371 1.7300001 50 57 46 255
0.033532426 -0.041099425 1.7350001 45 52 41 255
0.73077583 -0.040869441 1.7410001 148 156 148 255
0.73127973 -0.040633813 1.7310001 146 154 146 255
0.73385632 -0.040515643 1.7260001 144 152 144 255
0.7355516 -0.040350627 1.7190001 144 152 144 255
0.73548788 -0.040091816 1.7080001 143 151 144 255
0.73623252 -0.039880045 1.6990001 141 149 142 255
0.73649371 -0.039644897 1.6890001 148 156 149 255
0.73889607 -0.039527215 1.6840001 151 159 152 255
0.73994839 -0.039339207 1.6760001 152 160 153 255
0.7405147 -0.039127827 1.6670001 154 162 155 255
0.73924601 -0.038822662 1.654 156 164 157 255
0.7383582 -0.038541064 1.6420001 149 157 150 255
0.73921627 -0.038353454 1.6340001 158 166 159 255
0.74048787 -0.038189411 1.6270001 165 173 166 255
0.74080759 -0.037978519 1.618 170 177 173 255
0.74154097 -0.037791207 1.6100001 172 180 173 255
0.74130601 -0.037557039 1.6 175 182 178 255
0.74334896 -0.037440341 1.595 176 183 179 255
0.74489814 -0.037300274 1.5890001 178 185 181 255
0.74688822 -0.037183776 1.5840001 180 187 183 255
0.7460078 -0.036926534 1.5730001 181 188 184 255
0.74554664 -0.036692861 1.5630001 182 189 185 255
0.74503314 -0.036459286 1.5530001 182 189 185 255
0.74639732 -0.03631971 1.5470001 183 190 187 255
0.7462756 -0.036109809 1.5380001 183 190 187 255
0.745619 -0.035876524 1.5280001 183 190 187 255
0.74491036 -0.035643332 1.5180001 184 191 188 255
0.74464297 -0.03543371 1.5090001 183 190 187 255
0.74482518 -0.035247676 1.501 182 189 186 255
-1.0467937 -0.04703461 1.7880001 36 35 19 255
-0.95540619 -0.04353882 1.6560001 78 81 67 255
-0.94267905 -0.043163419 1.6420001 31 34 20 255
-0.97174037 -0.044707004 1.7010001 26 30 13 255
-0.9538613 -0.044095449 1.6780001 28 30 13 255
-0.93997616 -0.044305712 1.687 25 27 10 255
-0.93967503 -0.044509731 1.6950001 26 28 11 255
-0.92719972 -0.044136263 1.6810001 21 22 8 255
-0.93675935 -0.04481319 1.7070001 19 22 10 255
-0.91505772 -0.043993931 1.6760001 19 22 10 255
-0.92069376 -0.044487365 1.6950001 20 21 9 255
-0.91758239 -0.04456098 1.6980001 20 21 9 255
-0.91392142 -0.044608518 1.7 22 23 11 255
-0.90971935 -0.044629999 1.7010001 21 22 10 255
-0.89753592 -0.044258129 1.687 21 22 10 255
-0.90395856 -0.044804633 1.7080001 20 21 9 255
-0.8981601 -0.04474793 1.7060001 18 19 7 255
-0.8845219 -0.044298004 1.6890001 21 22 10 255
-0.88087958 -0.044346597 1.6910001 21 22 10 255
-0.88241178 -0.044657581 1.7030001 19 20 8 255
-0.88852006 -0.045204666 1.7240001 19 20 8 255
-0.89349091 -0.045699395 1.743 22 20 9 255
-0.89632124 -0.046089351 1.7580001 25 24 10 255
-0.89805835 -0.046426985 1.771 26 23 9 255
-0.89670163 -0.046607457 1.7780001 27 24 8 255
-0.89129734 -0.046578377 1.7770001 27 23 6 255
-0.88739854 -0.046628084 1.779 43 36 16 255
-0.88299644 -0.04665174 1.7800001 53 44 23 255
-0.87760556 -0.046623137 1.779 55 42 19 255
-0.87173301 -0.046568476 1.7770001 64 50 26 255
-0.86733818 -0.046592593 1.7780001 68 53 24 255
-0.86391115 -0.04666926 1.7810001 67 52 23 255
-0.86143547 -0.046798475 1.7860001 69 54 25 255
-0.85749656 -0.046849217 1.7880001 71 56 27 255
-0.85116553 -0.046769097 1.7850001 73 58 29 255
-0.84532791 -0.046715319 1.7830001 76 61 32 255
-0.84044659 -0.046714086 1.7830001 78 62 38 255
-0.83228773 -0.046529595 1.7760001 88 67 47 255
-0.81065881 -0.045585487 1.7400001 255 255 240 255
-0.7943238 -0.04492972 1.715 228 238 223 255
-0.78411359 -0.044614676 1.7030001 183 193 176 255
-0.77671725 -0.04445694 1.697 224 235 216 255
-0.76799113 -0.044220746 1.6880001 193 204 185 255
-0.76022065 -0.044037066 1.6810001 222 233 214 255
-0.7538389 -0.043932088 1.677 122 133 114 255
-0.74882132 -0.043905817 1.6760001 201 212 193 255
-0.74292296 -0.043827258 1.6730001 196 207 188 255
-0.73571873 -0.043670222 1.6670001 205 216 197 255
-0.72986484 -0.043591883 1.664 145 156 137 255
-0.723593 -0.043487452 1.6600001 175 186 167 255
-0.71821111 -0.043435518 1.6580001 171 180 159 255
-0.71284145 -0.043383677 1.6560001 174 181 160 255
-0.70791197 -0.04335814 1.6550001 170 176 158 255
-0.70256436 -0.043306496 1.6530001 170 179 160 255
-0.69722897 -0.043254942 1.651 181 191 168 255
-0.6919058 -0.043203484 1.649 189 199 176 255
-0.68659484 -0.04315212 1.6470001 161 173 150 255
-0.68212414 -0.043153241 1.6470001 176 186 161 255
-0.67724317 -0.043128248 1.646 144 154 129 255
-0.67318618 -0.043155745 1.6470001 158 170 147 255
-0.66831291 -0.043130923 1.646 170 180 155 255
-0.66304266 -0.043079983 1.6440001 187 197 172 255
-0.6573835 -0.043002907 1.641 132 142 117 255
-0.65253747 -0.042978324 1.6400001 160 170 145 255
-0.64769751 -0.042953812 1.6390001 173 181 155 255
-0.64286393 -0.042929381 1.6380001 138 146 120 255
-0.63803643 -0.042905018 1.6370001 141 150 121 255
-0.63360208 -0.04290694 1.6370001 160 169 140 255
-0.62916839 -0.042908926 1.6370001 135 144 115 255
-0.62473536 -0.042910989 1.6370001 135 143 117 255
-0.61992389 -0.042886905 1.636 140 148 122 255
-0.61549467 -0.0428891 1.636 138 148 123 255
-0.61143935 -0.042917579 1.6370001 159 169 144 255
-0.60737908 -0.042946123 1.6380001 159 167 141 255
-0.60331374 -0.042974733 1.6390001 121 131 105 255
-0.59851265 -0.042950965 1.6380001 146 155 126 255
-0.59444255 -0.042979699 1.6390001 135 144 113 255
-0.58964747 -0.042956047 1.6380001 152 161 130 255
-0.58521515 -0.042958666 1.6380001 133 140 109 255
-0.5804286 -0.042935118 1.6370001 143 150 119 255
-0.57599938 -0.042937845 1.6370001 134 141 110 255
-0.5719195 -0.042966861 1.6380001 158 165 134 255
-0.56748784 -0.042969696 1.6380001 142 149 118 255
-0.56305617 -0.04297258 1.6380001 138 145 114 255
-0.55930668 -0.043027982 1.6400001 145 152 121 255
-0.55554628 -0.043083437 1.6420001 140 147 116 255
-0.55143946 -0.043112706 1.6430001 137 146 115 255
-0.54699421 -0.043115783 1.6430001 148 157 128 255
-0.54221851 -0.043092649 1.6420001 147 158 129 255
-0.5377757 -0.043095805 1.6420001 143 154 125 255
-0.53333259 -0.043098994 1.6420001 140 150 124 255
-0.52824521 -0.043049727 1.6400001 170 180 154 255
-0.52316844 -0.043000486 1.6380001 120 131 102 255
-0.51841879 -0.042977516 1.6370001 124 133 104 255
-0.51430237 -0.043007102 1.6380001 132 141 110 255
-0.51049137 -0.04306297 1.6400001 131 140 109 255
-0.5057435 -0.0430401 1.6390001 146 155 124 255
-0.50130665 -0.04304352 1.6390001 152 161 130 255
-0.49686933 -0.043046966 1.6390001 126 135 104 255
-0.49273208 -0.043076705 1.6400001 121 130 99 255
-0.48888662 -0.043132737 1.6420001 122 131 100 255
-0.48443988 -0.043136265 1.6420001 127 134 103 255
-0.48028496 -0.043166086 1.6430001 126 133 101 255
-0.47612411 -0.043195937 1.6440001 135 143 108 255
-0.47167039 -0.043199528 1.6440001 127 135 100 255
-0.4672161 -0.043203134 1.6440001 129 137 102 255
-0.46247983 -0.043180484 1.6430001 164 172 137 255
-0.4583059 -0.043210406 1.6440001 147 155 120 255
-0.454402 -0.043266639 1.646 124 132 97 255
-0.45075998 -0.043349177 1.649 119 127 91 255
-0.44683042 -0.043405447 1.651 123 130 91 255
-0.44315726 -0.043488037 1.654 119 126 86 255
-0.43893677 -0.043518055 1.6550001 120 128 85 255
-0.43471014 -0.043548092 1.6560001 115 124 84 255
-0.42995772 -0.043525532 1.6550001 115 124 84 255
-0.42572421 -0.043555576 1.6560001 117 126 87 255
-0.42097577 -0.043533027 1.6550001 122 130 94 255
-0.41673529 -0.043563083 1.6560001 117 127 94 255
-0.41099504 -0.043435294 1.651 155 164 133 255
-0.4047887 -0.043254867 1.6440001 163 174 143 255
-0.39788905 -0.04299546 1.6340001 161 172 141 255
-0.39272848 -0.042920217 1.631 152 163 132 255
-0.38853577 -0.042950235 1.6320001 128 139 102 255
-0.38527817 -0.043085523 1.6370001 125 133 88 255
-0.38222519 -0.043247148 1.6430001 97 105 60 255
-0.3779892 -0.043277178 1.6440001 81 87 42 255
-0.37283808 -0.04320189 1.641 58 66 21 255
-0.36815146 -0.043179244 1.6400001 144 152 109 255
-0.36346936 -0.043156579 1.6390001 104 111 71 255
-0.35966808 -0.043239236 1.6420001 96 103 63 255
-0.35520059 -0.043242883 1.6420001 95 99 61 255
-0.35030505 -0.043193843 1.6400001 124 130 94 255
-0.3449977 -0.043092091 1.636 128 133 101 255
-0.33971131 -0.042990312 1.6320001 130 137 105 255
-0.33444583 -0.0428885 1.628 138 145 113 255
-0.3298094 -0.04286569 1.6270001 123 132 101 255
-0.32557747 -0.042895555 1.628 114 120 94 255
-0.32153648 -0.042951755 1.6300001 12 18 0 255
-0.31709465 -0.042955235 1.6300001 28 31 9 255
-0.31246009 -0.042932335 1.6290001 33 35 18 255
-0.307641 -0.04288305 1.6270001 63 65 48 255
-0.30283195 -0.042833734 1.6250001 13 18 6 255
-0.29766569 -0.042731665 1.6210001 71 76 64 255
-0.29270124 -0.042655911 1.618 91 98 87 255
-0.28793049 -0.042606488 1.6160001 80 89 78 255
-0.28316972 -0.042557023 1.6140001 85 94 83 255
-0.27859172 -0.042533893 1.613 86 95 84 255
-0.27401835 -0.042510729 1.6120001 85 91 84 255
-0.26944956 -0.042487528 1.6110001 86 92 85 255
-0.26504987 -0.042490665 1.6110001 83 89 82 255
-0.26032579 -0.042441018 1.6090001 78 84 76 255
-0.2557708 -0.042417705 1.608 79 85 77 255
-0.25106415 -0.04236798 1.6060001 81 88 77 255
-0.24682836 -0.042397354 1.6070001 73 80 69 255
-0.24228454 -0.042373933 1.6060001 73 80 68 255
-0.23833787 -0.042456008 1.6090001 61 70 58 255
-0.23364702 -0.042406119 1.6070001 68 77 66 255
-0.22910896 -0.042382572 1.6060001 78 87 76 255
-0.22415578 -0.04227981 1.6020001 97 105 97 255
-0.2197725 -0.042282566 1.6020001 79 85 77 255
-0.21552281 -0.042311672 1.603 68 74 66 255
-0.21139863 -0.042367138 1.605 53 60 49 255
-0.20700479 -0.042369775 1.605 51 58 46 255
-0.20248395 -0.042345971 1.6040001 58 66 51 255
-0.19809133 -0.042348515 1.6040001 57 64 52 255
-0.1935772 -0.04232461 1.603 69 77 62 255
-0.18906784 -0.042300656 1.6020001 68 73 59 255
-0.18479382 -0.042329468 1.603 69 74 60 255
-0.18051359 -0.042358238 1.6040001 69 74 60 255
-0.17633702 -0.042413369 1.6060001 71 76 64 255
-0.17193466 -0.042415638 1.6060001 66 71 60 255
-0.16763599 -0.042444266 1.6070001 67 74 63 255
-0.16343272 -0.042499263 1.6090001 66 73 62 255
-0.1590202 -0.04250139 1.6090001 68 75 64 255
-0.15460706 -0.042503461 1.6090001 68 75 64 255
-0.15019327 -0.04250548 1.6090001 67 74 63 255
-0.14596009 -0.042560279 1.6110001 64 71 60 255
-0.14197893 -0.042694297 1.6160001 65 72 60 255
-0.13805491 -0.042854693 1.6220001 64 72 57 255
-0.13434446 -0.043094311 1.631 64 72 57 255
-0.13066371 -0.043360319 1.641 62 70 53 255
-0.12677373 -0.043573443 1.649 60 68 51 255
-0.12232042 -0.043601558 1.6500001 58 66 49 255
-0.11750412 -0.043497477 1.646 59 64 50 255
-0.11277798 -0.04341976 1.6430001 52 60 45 255
-0.10819962 -0.043394838 1.6420001 53 61 46 255
-0.10368946 -0.043396287 1.6420001 57 65 50 255
-0.099360071 -0.043476965 1.6450001 60 68 53 255
-0.094898447 -0.043504722 1.646 72 77 65 255
-0.090376049 -0.043505996 1.646 56 61 49 255
-0.08580111 -0.04348078 1.6450001 62 67 55 255
-0.081280701 -0.043481931 1.6450001 62 67 55 255
-0.076759949 -0.043483023 1.6450001 63 68 56 255
-0.072194949 -0.043457616 1.6440001 62 69 57 255
-0.067635141 -0.04343215 1.6430001 53 60 48 255
-0.063195795 -0.043485932 1.6450001 67 74 62 255
-0.058852181 -0.043618955 1.6500001 60 67 56 255
-0.054612495 -0.043857664 1.659 57 64 52 255
-0.050292928 -0.04406989 1.6670001 59 64 52 255
-0.045792043 -0.044149868 1.6700001 40 45 33 255
-0.041126441 -0.044071164 1.6670001 46 49 37 255
-0.03645524 -0.043965954 1.6630001 51 54 42 255
-0.031844221 -0.043913554 1.6610001 51 56 45 255
-0.02726048 -0.043887526 1.6600001 60 65 54 255
-0.022682121 -0.043861441 1.659 64 70 62 255
-0.018163776 -0.043967482 1.6630001 66 73 62 255
-0.013680556 -0.044258527 1.674 64 71 60 255
-0.0091476254 -0.044602394 1.687 60 67 55 255
-0.0045351377 -0.044866875 1.697 57 65 50 255
0.00013213654 -0.045051984 1.7040001 56 64 49 255
0.0048209457 -0.045078389 1.705 55 63 48 255
0.0095152333 -0.045104727 1.7060001 53 61 46 255
0.014189998 -0.045051683 1.7040001 52 60 45 255
0.018909087 -0.045130771 1.7070001 57 62 48 255
0.023658421 -0.045236226 1.7110001 58 63 51 255
0.028495954 -0.045447364 1.7190001 58 63 51 255
0.033319388 -0.045579128 1.7240001 57 62 51 255
0.038126014 -0.04565794 1.7270001 60 65 54 255
0.042899318 -0.045683809 1.728 61 68 57 255
0.047733091 -0.04576249 1.7310001 53 61 53 255
0.052492175 -0.045761794 1.7310001 47 55 47 255
0.057151813 -0.045681719 1.728 42 50 42 255
0.73035514 -0.045587614 1.7400001 153 161 153 255
0.73043382 -0.045298435 1.7290001 148 156 148 255
0.73215485 -0.04511416 1.7220001 144 152 145 255
0.73383933 -0.044929992 1.715 142 150 143 255
0.7350567 -0.044719737 1.7070001 142 150 143 255
0.73753196 -0.044588178 1.702 145 153 146 255
0.73780149 -0.044325739 1.692 148 156 149 255
0.73845702 -0.044089612 1.6830001 149 157 150 255
0.73862374 -0.043827396 1.6730001 150 158 151 255
0.7400704 -0.043643877 1.6660001 156 164 157 255
0.74013996 -0.043381881 1.6560001 157 165 158 255
0.73925757 -0.043067597 1.6440001 159 167 160 255
0.7405737 -0.042884413 1.6370001 162 170 163 255
0.74139845 -0.042675134 1.6290001 165 173 166 255
0.74172384 -0.042439774 1.6200001 172 179 175 255
0.74200213 -0.042204522 1.6110001 165 172 168 255
0.74177009 -0.041943178 1.6010001 174 181 177 255
0.74241769 -0.041734345 1.5930001 169 176 172 255
0.74396139 -0.041578017 1.5870001 175 182 178 255
0.74594611 -0.041448001 1.582 180 187 183 255
0.74648315 -0.0412395 1.5740001 180 187 183 255
0.74602491 -0.040978711 1.5640001 182 189 185 255
0.74551409 -0.040718019 1.554 182 189 185 255
0.74639869 -0.04053605 1.5470001 182 189 185 255
0.74579179 -0.040275581 1.5370001 183 190 187 255
0.7446447 -0.039989013 1.526 182 189 185 255
0.74442136 -0.039754957 1.5170001 184 191 188 255
0.74464482 -0.03954722 1.5090001 184 191 188 255
0.74581957 -0.039392006 1.503 182 189 186 255
-0.9403978 -0.04708913 1.6220001 31 32 20 255
-0.94791377 -0.047690466 1.6430001 39 42 30 255
-0.99894923 -0.050497465 1.7400001 39 42 28 255
-0.98088843 -0.049821764 1.7170001 26 30 13 255
-0.95841634 -0.048914418 1.6860001 27 29 11 255
-0.95818502 -0.049138889 1.6940001 29 31 13 255
-0.96241683 -0.049595539 1.71 29 31 13 255
-0.9525646 -0.049327314 1.7010001 28 30 12 255
-0.92883885 -0.048334513 1.6670001 25 27 10 255
-0.93524623 -0.048907723 1.687 27 29 12 255
-0.95423317 -0.05014769 1.7300001 26 28 11 255
-0.94005787 -0.049648557 1.7130001 21 24 10 255
-0.9374485 -0.049758337 1.7170001 20 23 9 255
-0.91418099 -0.048767198 1.6830001 20 23 11 255
-0.91758764 -0.04919618 1.6980001 22 23 11 255
-0.91822743 -0.049480412 1.7080001 20 21 9 255
-0.91667676 -0.049648922 1.7140001 21 22 10 255
-0.90977728 -0.049527958 1.71 20 21 9 255
-0.90872645 -0.049725793 1.7170001 18 19 7 255
-0.91237926 -0.050184395 1.733 20 21 9 255
-0.90285534 -0.049919233 1.7240001 21 22 10 255
-0.8907811 -0.049509536 1.71 22 20 9 255
-0.88448817 -0.049418557 1.7070001 22 18 7 255
-0.89316219 -0.05016727 1.733 24 21 7 255
-0.90118378 -0.050887112 1.7580001 28 22 6 255
-0.90040338 -0.051114976 1.766 31 23 6 255
-0.89856863 -0.051285114 1.7720001 35 25 8 255
-0.89519167 -0.051368587 1.7750001 52 38 19 255
-0.89230341 -0.051481172 1.779 58 44 24 255
-0.88939667 -0.051593915 1.7830001 50 36 13 255
-0.88547933 -0.051648948 1.7850001 50 36 13 255
-0.88155448 -0.051704146 1.7870001 58 40 16 255
-0.87713152 -0.051730581 1.7880001 64 46 20 255
-0.87416971 -0.051843975 1.7920001 67 50 21 255
-0.87070411 -0.051928591 1.7950001 68 51 22 255
-0.86626053 -0.05195551 1.7960001 70 53 24 255
-0.86133504 -0.051953662 1.7960001 71 56 27 255
-0.854505 -0.05183626 1.7920001 69 56 27 255
-0.84817386 -0.051747952 1.789 72 60 33 255
-0.84233332 -0.051688727 1.7870001 72 59 36 255
-0.83275741 -0.051398259 1.7770001 71 59 42 255
-0.81159145 -0.050384868 1.7420001 193 189 173 255
-0.7933982 -0.049545191 1.7130001 239 242 228 255
-0.7836538 -0.049226291 1.702 194 202 187 255
-0.77580243 -0.049023226 1.6950001 225 236 217 255
-0.76753658 -0.048791375 1.687 202 213 194 255
-0.75976861 -0.048588578 1.6800001 176 186 169 255
-0.75338948 -0.048472673 1.6760001 170 180 163 255
-0.74748093 -0.048385818 1.6730001 188 198 181 255
-0.74203473 -0.048328009 1.6710001 196 206 189 255
-0.73483592 -0.048154633 1.6650001 203 214 195 255
-0.72942591 -0.048097059 1.6630001 145 156 137 255
-0.72359258 -0.048010677 1.6600001 189 198 177 255
-0.71777731 -0.047924407 1.6570001 181 190 169 255
-0.71154946 -0.047809329 1.6530001 180 189 168 255
-0.70662802 -0.047781125 1.6520001 172 181 160 255
-0.70171344 -0.047753021 1.651 165 174 153 255
-0.69680578 -0.047725029 1.6500001 186 196 171 255
-0.69190478 -0.047697134 1.649 145 157 134 255
-0.68617678 -0.04761149 1.646 162 174 149 255
-0.68088043 -0.047554869 1.6440001 174 186 161 255
-0.67518467 -0.047469415 1.641 153 165 142 255
-0.67154998 -0.047528692 1.6430001 137 149 126 255
-0.66709334 -0.0475302 1.6430001 185 197 174 255
-0.66223443 -0.047502879 1.6420001 172 184 161 255
-0.65658069 -0.047417786 1.6390001 129 141 118 255
-0.65213776 -0.047419563 1.6390001 164 176 151 255
-0.64690542 -0.047363568 1.6370001 133 143 117 255
-0.64207703 -0.047336578 1.636 133 144 115 255
-0.63725495 -0.047309674 1.6350001 149 160 131 255
-0.63282591 -0.047311783 1.6350001 156 167 138 255
-0.62839764 -0.047313973 1.6350001 141 152 123 255
-0.62396985 -0.047316238 1.6350001 137 145 119 255
-0.61954272 -0.047318581 1.6350001 149 158 129 255
-0.61473989 -0.047292054 1.6340001 141 149 123 255
-0.61068988 -0.04732348 1.6350001 167 175 149 255
-0.60626423 -0.047326043 1.6350001 141 150 121 255
-0.602575 -0.047386561 1.6370001 125 134 105 255
-0.59814459 -0.047389261 1.6370001 148 157 128 255
-0.59371454 -0.047392026 1.6370001 142 151 120 255
-0.58928466 -0.047394849 1.6370001 149 158 127 255
-0.58521235 -0.047426693 1.6380001 135 142 111 255
-0.58007115 -0.04737173 1.636 138 145 114 255
-0.57599646 -0.047403697 1.6370001 135 142 111 255
-0.57121825 -0.047377802 1.636 150 157 126 255
-0.56713831 -0.047409881 1.6370001 129 136 105 255
-0.56270939 -0.047413055 1.6370001 135 142 111 255
-0.55896252 -0.047474217 1.6390001 138 145 114 255
-0.55520475 -0.047535431 1.641 140 149 120 255
-0.55110061 -0.047567736 1.6420001 142 151 122 255
-0.54665792 -0.047571119 1.6420001 145 154 125 255
-0.54155481 -0.047516607 1.6400001 138 149 120 255
-0.53678977 -0.047491096 1.6390001 151 162 133 255
-0.53235489 -0.047494609 1.6390001 141 151 125 255
-0.52759761 -0.047469184 1.6380001 164 174 148 255
-0.52284557 -0.047443788 1.6370001 119 128 99 255
-0.51841533 -0.047447417 1.6370001 124 133 104 255
-0.51398486 -0.047451079 1.6370001 130 139 108 255
-0.51017654 -0.047512755 1.6390001 132 141 110 255
-0.50573993 -0.047516491 1.6390001 150 159 128 255
-0.50099719 -0.047491267 1.6380001 146 155 124 255
-0.49656251 -0.04749506 1.6380001 128 137 106 255
-0.49242795 -0.047527883 1.6390001 126 135 104 255
-0.4885852 -0.047589738 1.641 127 134 103 255
-0.48414111 -0.047593623 1.641 126 133 102 255
-0.4799889 -0.047626536 1.6420001 130 137 105 255
-0.47554111 -0.047630474 1.6420001 132 140 105 255
-0.4713797 -0.047663443 1.6430001 126 134 99 255
-0.46664393 -0.047638405 1.6420001 126 134 99 255
-0.4621945 -0.047642399 1.6420001 147 155 120 255
-0.45830211 -0.047704447 1.6440001 158 166 131 255
-0.45467421 -0.047795538 1.6470001 127 135 100 255
-0.45102945 -0.047886662 1.6500001 123 131 95 255
-0.44709721 -0.047948785 1.6520001 120 127 88 255
-0.44315332 -0.048010923 1.654 121 128 88 255
-0.4389329 -0.048044067 1.6550001 118 128 85 255
-0.43444362 -0.048048176 1.6550001 118 128 85 255
-0.42995375 -0.048052303 1.6550001 115 124 84 255
-0.42572024 -0.048085473 1.6560001 120 129 89 255
-0.42148054 -0.048118651 1.6570001 116 125 86 255
-0.4172346 -0.048151832 1.6580001 124 132 97 255
-0.41173789 -0.048039798 1.654 134 144 111 255
-0.40527719 -0.047811557 1.646 169 180 149 255
-0.39861569 -0.047554232 1.6370001 169 180 149 255
-0.39344698 -0.047471162 1.6340001 156 168 135 255
-0.38900799 -0.047475241 1.6340001 127 140 103 255
-0.38574499 -0.047624603 1.6390001 120 130 85 255
-0.38222128 -0.047744919 1.6430001 107 115 70 255
-0.37798527 -0.047778066 1.6440001 82 88 43 255
-0.37306145 -0.047724016 1.6420001 67 75 30 255
-0.36814761 -0.047669943 1.6400001 142 150 107 255
-0.36390901 -0.04770305 1.641 104 112 69 255
-0.35944518 -0.047707092 1.641 97 105 62 255
-0.35519674 -0.04774018 1.6420001 98 105 65 255
-0.35008761 -0.047656957 1.6390001 126 133 94 255
-0.34478307 -0.047544628 1.6350001 132 137 105 255
-0.33970755 -0.047461335 1.6320001 135 142 110 255
-0.33464754 -0.047378007 1.6290001 138 148 115 255
-0.3298057 -0.047323745 1.6270001 128 137 106 255
-0.32577375 -0.047385793 1.6290001 126 132 106 255
-0.32153282 -0.047418747 1.6300001 9 15 0 255
-0.31728554 -0.047451675 1.631 28 31 9 255
-0.31245646 -0.047397297 1.6290001 30 32 15 255
-0.30763742 -0.047342885 1.6270001 60 61 47 255
-0.30301473 -0.047317535 1.626 17 20 8 255
-0.29802939 -0.04723395 1.623 74 79 67 255
-0.29305959 -0.047150329 1.6200001 93 100 88 255
-0.287927 -0.047037546 1.6160001 77 86 74 255
-0.28299084 -0.04695382 1.613 90 99 88 255
-0.27858835 -0.046957392 1.613 88 97 86 255
-0.27401498 -0.046931818 1.6120001 82 90 83 255
-0.26944622 -0.046906196 1.6110001 87 93 86 255
-0.26488212 -0.046880543 1.6100001 80 86 79 255
-0.26016071 -0.046825726 1.608 78 84 77 255
-0.25576761 -0.046829108 1.608 79 85 77 255
-0.25121731 -0.046803329 1.6070001 81 88 77 255
-0.2469788 -0.046835754 1.608 63 70 59 255
-0.24243233 -0.046809901 1.6070001 73 80 68 255
-0.23803858 -0.046813119 1.6070001 65 72 60 255
-0.23349863 -0.046787161 1.6060001 70 77 66 255
-0.22896333 -0.046761163 1.605 83 92 81 255
-0.22429281 -0.046705984 1.603 99 107 99 255
-0.21990679 -0.046709023 1.603 78 86 78 255
-0.21551999 -0.046712019 1.603 66 72 64 255
-0.21126413 -0.046744108 1.6040001 59 66 55 255
-0.20687307 -0.04674701 1.6040001 41 51 36 255
-0.20248125 -0.046749875 1.6040001 61 69 54 255
-0.19821215 -0.046781823 1.605 61 68 56 255
-0.19369537 -0.046755437 1.6040001 71 79 64 255
-0.18918331 -0.046728991 1.603 67 75 60 255
-0.18502186 -0.046789948 1.605 68 73 59 255
-0.18073621 -0.04682171 1.6060001 70 75 61 255
-0.17644441 -0.046853423 1.6070001 69 76 64 255
-0.17203937 -0.046855927 1.6070001 65 72 60 255
-0.16773798 -0.046887528 1.608 67 76 64 255
-0.16343045 -0.046919085 1.6090001 66 75 63 255
-0.15911682 -0.04695059 1.6100001 64 73 61 255
-0.15470098 -0.046952877 1.6100001 66 73 62 255
-0.15037787 -0.04698427 1.6110001 65 72 61 255
-0.14613926 -0.047044773 1.613 64 71 60 255
-0.14215268 -0.04719273 1.618 66 73 61 255
-0.1382232 -0.047369804 1.6240001 63 71 56 255
-0.13467205 -0.047692679 1.6350001 63 71 56 255
-0.13105997 -0.048015527 1.646 62 70 53 255
-0.12692569 -0.048163302 1.651 59 67 50 255
-0.12217041 -0.048077643 1.6480001 60 68 53 255
-0.11728828 -0.047933564 1.6430001 56 61 47 255
-0.11263908 -0.047876939 1.641 50 58 43 255
-0.10813218 -0.047878597 1.641 52 60 45 255
-0.10362483 -0.047880195 1.641 58 65 53 255
-0.099237844 -0.047940083 1.6430001 59 66 54 255
-0.094781779 -0.047970723 1.6440001 67 72 60 255
-0.090210035 -0.047942951 1.6430001 62 67 55 255
-0.085695542 -0.047944281 1.6430001 65 70 58 255
-0.081131287 -0.047916368 1.6420001 62 67 55 255
-0.076665513 -0.047946755 1.6430001 65 70 58 255
-0.072062157 -0.047889519 1.641 66 73 61 255
-0.067592993 -0.047919769 1.6420001 62 69 57 255
-0.063118041 -0.047949955 1.6430001 56 63 52 255
-0.058744315 -0.048067626 1.6470001 61 68 57 255
-0.054381274 -0.048214424 1.6520001 58 65 54 255
-0.050050832 -0.048419524 1.659 60 67 56 255
-0.045626853 -0.048566189 1.664 55 60 48 255
-0.041051827 -0.048566855 1.664 41 44 32 255
-0.036388941 -0.048450705 1.6600001 48 51 39 255
-0.031824581 -0.04845123 1.6600001 52 54 44 255
-0.027243659 -0.048422497 1.659 58 63 52 255
-0.022668118 -0.048393697 1.6580001 64 68 60 255
-0.018097974 -0.048364818 1.6570001 72 79 68 255
-0.013606807 -0.048598573 1.6650001 67 74 63 255
-0.0091041131 -0.049007386 1.6790001 61 68 56 255
-0.0045270543 -0.04944532 1.6940001 58 66 51 255
0.00013166934 -0.049562108 1.6980001 58 66 51 255
0.004795427 -0.049503691 1.6960001 56 64 49 255
0.0094481632 -0.049445201 1.6940001 53 61 46 255
0.014089861 -0.049386643 1.692 52 60 45 255
0.018775882 -0.049473956 1.6950001 57 62 50 255
0.023492146 -0.049590379 1.6990001 59 64 52 255
0.028246885 -0.049735922 1.7040001 59 64 52 255
0.033067647 -0.049939763 1.7110001 59 64 52 255
0.037860539 -0.050055966 1.715 56 63 52 255
0.04267526 -0.050172098 1.7190001 57 64 53 255
0.047456641 -0.050229773 1.7210001 55 64 53 255
0.052218493 -0.050258193 1.7220001 56 65 54 255
0.056886382 -0.05019898 1.72 56 65 54 255
0.061471399 -0.050081335 1.7160001 56 65 54 255
0.066188447 -0.050080363 1.7160001 49 58 47 255
0.070863888 -0.050050128 1.715 49 58 47 255
0.075533517 -0.050019827 1.7140001 47 56 45 255
0.080010079 -0.049872726 1.7090001 46 55 44 255
0.084409237 -0.049696382 1.7030001 42 51 40 255
0.73077381 -0.050358161 1.7410001 150 158 150 255
0.73127782 -0.050067835 1.7310001 142 150 143 255
0.73427987 -0.049951173 1.7270001 147 155 148 255
0.73469442 -0.049661085 1.7170001 144 152 145 255
0.73548657 -0.049400039 1.7080001 142 150 143 255
0.73796475 -0.049254809 1.7030001 143 151 144 255
0.73780107 -0.048936158 1.692 146 154 147 255
0.73889548 -0.048704401 1.6840001 149 157 150 255
0.7386235 -0.048385996 1.6730001 151 159 152 255
0.74051452 -0.048212316 1.6670001 157 165 158 255
0.73924613 -0.047836311 1.654 158 166 159 255
0.73970747 -0.047576115 1.6450001 162 170 163 255
0.7410264 -0.047373883 1.6380001 166 174 167 255
0.74185407 -0.047142848 1.6300001 168 175 171 255
0.74309784 -0.046940852 1.623 169 176 172 255
0.74338448 -0.046681143 1.6140001 174 181 177 255
0.74408734 -0.046450466 1.6060001 169 176 172 255
0.74288458 -0.04610423 1.5940001 176 183 179 255
0.74349362 -0.045873802 1.5860001 175 182 178 255
0.74547577 -0.04573027 1.5810001 179 186 182 255
0.74506158 -0.045442238 1.5710001 180 187 183 255
0.74459517 -0.045154322 1.5610001 179 186 182 255
0.74455613 -0.044895452 1.552 182 189 185 255
0.74543536 -0.044694562 1.5450001 182 189 185 255
0.74482316 -0.044407006 1.5350001 183 190 187 255
0.74415863 -0.044119567 1.5250001 185 192 188 255
0.74442339 -0.043890107 1.5170001 182 189 185 255
0.74464697 -0.04366076 1.5090001 183 190 187 255
0.74532557 -0.043460477 1.5020001 183 190 186 255
-1.0091014 -0.055030297 1.7320001 35 36 22 255
-0.94562447 -0.051811934 1.631 40 41 29 255
-0.97619271 -0.05374033 1.692 29 30 18 255
-0.97484535 -0.053921741 1.6980001 28 29 15 255
-0.99860674 -0.055500384 1.748 36 38 21 255
-0.96950567 -0.054403689 1.7140001 35 37 20 255
-0.94385141 -0.053221252 1.677 29 31 14 255
-0.91561157 -0.051880766 1.6350001 26 30 13 255
-0.92494541 -0.05266659 1.6600001 28 30 13 255
-0.95354795 -0.054562721 1.72 28 30 13 255
-0.95975596 -0.055189855 1.7400001 28 30 13 255
-0.93841815 -0.054231353 1.71 24 28 11 255
-0.92926502 -0.053970952 1.702 21 24 10 255
-0.92342108 -0.05390108 1.7 21 24 10 255
-0.91813385 -0.05386316 1.6990001 21 22 10 255
-0.92092103 -0.05430096 1.7130001 21 22 10 255
-0.92310023 -0.054707196 1.7260001 20 21 9 255
-0.90393013 -0.053845853 1.6990001 20 21 9 255
-0.90714377 -0.054315861 1.7140001 21 22 10 255
-0.91133118 -0.054849364 1.7310001 21 22 10 255
-0.91385782 -0.055287935 1.7450001 21 22 10 255
-0.90328777 -0.054934613 1.7340001 23 21 10 255
-0.90210974 -0.055151768 1.7410001 26 23 9 255
-0.90347409 -0.055527475 1.7530001 28 24 10 255
-0.90426356 -0.055871647 1.7640001 35 27 11 255
-0.90193683 -0.056025945 1.7690001 44 30 13 255
-0.89705092 -0.056022078 1.7690001 52 37 18 255
-0.89317781 -0.056081753 1.771 62 43 21 255
-0.89030033 -0.05620493 1.7750001 60 41 19 255
-0.88840204 -0.056391623 1.7810001 59 36 13 255
-0.88647437 -0.056578483 1.7870001 54 31 8 255
-0.8835305 -0.056702185 1.7910001 52 32 6 255
-0.88105863 -0.056857735 1.7960001 64 42 16 255
-0.87807471 -0.056981783 1.8000001 76 57 28 255
-0.87458694 -0.057074357 1.8030001 77 62 33 255
-0.87108588 -0.057167087 1.8060001 82 67 38 255
-0.86613268 -0.057165042 1.8060001 78 66 39 255
-0.859752 -0.057068218 1.8030001 78 66 39 255
-0.85291648 -0.056939915 1.7990001 69 58 35 255
-0.8475197 -0.056906734 1.7980001 65 55 36 255
-0.84025681 -0.056747142 1.7930001 58 50 33 255
-0.81485379 -0.055353407 1.7490001 49 46 32 255
-0.79478872 -0.054308027 1.7160001 248 249 237 255
-0.78319412 -0.053832475 1.7010001 217 222 208 255
-0.77397215 -0.053515326 1.6910001 215 225 208 255
-0.76617205 -0.053293269 1.6840001 207 217 200 255
-0.75931668 -0.05313465 1.6790001 139 150 131 255
-0.75294012 -0.053007819 1.6750001 205 214 195 255
-0.74703419 -0.052912772 1.6720001 192 200 183 255
-0.74159056 -0.052849505 1.6700001 201 211 194 255
-0.73483562 -0.052691426 1.6650001 192 202 185 255
-0.72810966 -0.052533478 1.6600001 161 171 154 255
-0.72184861 -0.052407313 1.6560001 187 198 179 255
-0.71604401 -0.052312903 1.6530001 183 192 173 255
-0.71068782 -0.052250262 1.651 170 179 160 255
-0.70534396 -0.052187741 1.649 170 179 160 255
-0.70086253 -0.052188631 1.649 172 183 162 255
-0.69553775 -0.052126344 1.6470001 188 200 177 255
-0.69064492 -0.052095808 1.646 143 155 132 255
-0.68492502 -0.052002091 1.6430001 168 181 154 255
-0.68005079 -0.051971771 1.6420001 174 187 160 255
-0.67477185 -0.051909912 1.6400001 164 176 151 255
-0.67073089 -0.051943105 1.641 134 146 121 255
-0.66587371 -0.051913101 1.6400001 173 185 160 255
-0.66102272 -0.051883187 1.6390001 184 196 171 255
-0.65537703 -0.051790059 1.636 129 141 116 255
-0.65014648 -0.051728684 1.6340001 169 179 154 255
-0.64492756 -0.0516674 1.6320001 135 146 117 255
-0.64168245 -0.051764488 1.6350001 140 151 122 255
-0.63647324 -0.051703386 1.6330001 152 165 136 255
-0.63243663 -0.051737338 1.6340001 151 161 135 255
-0.62685788 -0.051644731 1.631 143 153 127 255
-0.62320417 -0.051710531 1.6330001 142 152 127 255
-0.6187824 -0.051713087 1.6330001 144 154 129 255
-0.61436105 -0.051715717 1.6330001 145 155 130 255
-0.60956669 -0.051686756 1.6320001 159 169 144 255
-0.60551989 -0.051721215 1.6330001 123 133 107 255
-0.60146791 -0.051755752 1.6340001 137 147 121 255
-0.59741092 -0.051790364 1.6350001 145 154 125 255
-0.59298623 -0.051793378 1.6350001 149 158 127 255
-0.58892173 -0.051828139 1.636 142 151 120 255
-0.58485204 -0.051862974 1.6370001 138 147 116 255
-0.57971352 -0.051802825 1.6350001 136 143 111 255
-0.5749377 -0.051774416 1.6340001 144 151 120 255
-0.5701676 -0.051746078 1.6330001 143 150 119 255
-0.56574929 -0.051749472 1.6330001 141 148 117 255
-0.56201851 -0.051816311 1.6350001 145 152 121 255
-0.55827701 -0.051883221 1.6370001 135 142 111 255
-0.55418634 -0.051918495 1.6380001 148 157 126 255
-0.54975462 -0.051922131 1.6380001 149 158 127 255
-0.54532272 -0.051925819 1.6380001 142 151 120 255
-0.54089075 -0.05192956 1.6380001 122 131 100 255
-0.53613114 -0.051901635 1.6370001 153 164 133 255
-0.53137672 -0.051873755 1.636 145 156 125 255
-0.52694964 -0.051877625 1.636 142 151 120 255
-0.52284181 -0.051913258 1.6370001 123 132 101 255
-0.51841158 -0.051917221 1.6370001 129 136 105 255
-0.51366705 -0.051889505 1.636 130 137 106 255
-0.50986141 -0.051956981 1.6380001 126 133 102 255
-0.50481033 -0.051897611 1.636 158 165 134 255
-0.50068736 -0.051933445 1.6370001 129 136 105 255
-0.49595225 -0.051905863 1.636 131 138 107 255
-0.49212351 -0.051973496 1.6380001 129 136 105 255
-0.4879857 -0.052009434 1.6390001 128 135 104 255
-0.48384205 -0.052045416 1.6400001 129 136 105 255
-0.47969246 -0.052081414 1.641 131 138 107 255
-0.47524732 -0.052085705 1.641 131 138 106 255
-0.47108868 -0.052121777 1.6420001 125 132 100 255
-0.46663982 -0.052126113 1.6420001 123 130 98 255
-0.46219036 -0.052130483 1.6420001 129 136 104 255
-0.45829785 -0.052198362 1.6440001 146 153 121 255
-0.45439386 -0.052266277 1.646 123 131 96 255
-0.45102522 -0.052397732 1.6500001 119 127 91 255
-0.44682226 -0.052433942 1.651 117 124 84 255
-0.44288117 -0.052501936 1.6530001 118 126 83 255
-0.43866333 -0.052538183 1.654 115 123 78 255
-0.43470189 -0.052606218 1.6560001 115 123 80 255
-0.42994946 -0.052578956 1.6550001 115 123 80 255
-0.42571592 -0.052615236 1.6560001 115 125 82 255
-0.42122185 -0.052619759 1.6560001 117 126 86 255
-0.41697866 -0.052656054 1.6570001 121 129 93 255
-0.41198254 -0.052597027 1.6550001 130 138 103 255
-0.40576538 -0.052379068 1.6480001 151 162 131 255
-0.39934191 -0.052129272 1.6400001 164 175 144 255
-0.3939243 -0.052006599 1.636 176 188 155 255
-0.38947988 -0.052011061 1.636 125 137 102 255
-0.38597605 -0.052142702 1.6400001 120 129 89 255
-0.38198438 -0.052210756 1.6420001 117 125 82 255
-0.37775111 -0.052247014 1.6430001 89 97 52 255
-0.37260279 -0.052156065 1.6400001 71 79 34 255
-0.36836782 -0.052192297 1.641 140 148 103 255
-0.36412653 -0.052228525 1.6420001 109 117 72 255
-0.35987905 -0.052264754 1.6430001 91 99 56 255
-0.35519257 -0.052237332 1.6420001 90 97 57 255
-0.35008347 -0.052146263 1.6390001 131 138 99 255
-0.34477895 -0.052023344 1.6350001 131 139 104 255
-0.33970344 -0.051932201 1.6320001 135 142 110 255
-0.33484888 -0.051872846 1.6300001 139 149 116 255
-0.33020702 -0.05184529 1.6290001 136 145 114 255
-0.3261697 -0.051913191 1.631 124 130 104 255
-0.32212055 -0.051981073 1.6330001 9 14 0 255
-0.31767061 -0.051985279 1.6330001 26 28 8 255
-0.31283608 -0.051925775 1.631 28 27 11 255
-0.30763346 -0.051802557 1.6270001 47 46 30 255
-0.30319721 -0.051806666 1.6270001 20 23 9 255
-0.2983928 -0.051747046 1.6250001 87 90 76 255
-0.29341751 -0.051655535 1.6220001 94 101 89 255
-0.28792322 -0.051468432 1.6160001 75 84 72 255
-0.28333795 -0.051440526 1.6150001 86 95 84 255
-0.27875733 -0.051412575 1.6140001 91 100 89 255
-0.27418128 -0.051384591 1.613 83 89 82 255
-0.26944262 -0.051324699 1.6110001 85 91 84 255
-0.26471397 -0.051264767 1.6090001 83 89 82 255
-0.2599954 -0.051204775 1.6070001 82 88 81 255
-0.25560504 -0.051208474 1.6070001 80 86 78 255
-0.25137016 -0.051243991 1.608 82 89 78 255
-0.24712898 -0.051279474 1.6090001 63 70 59 255
-0.24257977 -0.051251173 1.608 75 82 71 255
-0.2378871 -0.051190946 1.6060001 67 73 65 255
-0.23320456 -0.051130664 1.6040001 73 79 71 255
-0.22881743 -0.051134095 1.6040001 90 96 89 255
-0.22428961 -0.051105585 1.603 90 98 91 255
-0.22004083 -0.051140793 1.6040001 74 82 74 255
-0.21551687 -0.051112179 1.603 66 73 62 255
-0.21126108 -0.051147293 1.6040001 59 68 56 255
-0.20687006 -0.051150464 1.6040001 58 68 53 255
-0.20247829 -0.051153589 1.6040001 72 80 65 255
-0.19808577 -0.051156662 1.6040001 60 67 55 255
-0.19369249 -0.051159669 1.6040001 70 80 65 255
-0.18929853 -0.051162627 1.6040001 70 78 63 255
-0.1851344 -0.051229332 1.6060001 66 74 59 255
-0.18073352 -0.051232178 1.6060001 67 74 62 255
-0.17644176 -0.051266879 1.6070001 67 74 62 255
-0.17192972 -0.051237702 1.6060001 66 73 61 255
-0.16773544 -0.051304188 1.608 68 75 63 255
-0.16352956 -0.051370628 1.6100001 67 77 62 255
-0.15921322 -0.051405091 1.6110001 67 77 62 255
-0.15479471 -0.051407591 1.6110001 69 76 64 255
-0.15046892 -0.051441941 1.6120001 66 73 61 255
-0.14613701 -0.051476229 1.613 67 74 63 255
-0.14215048 -0.051638119 1.618 68 75 64 255
-0.13839127 -0.0518957 1.626 66 73 61 255
-0.13499941 -0.052312836 1.6390001 66 73 61 255
-0.1312968 -0.05263418 1.649 68 73 59 255
-0.12684685 -0.052668195 1.6500001 61 66 52 255
-0.12202022 -0.052542541 1.646 55 60 48 255
-0.11714368 -0.052384887 1.641 54 59 47 255
-0.11250003 -0.052322917 1.6390001 52 59 47 255
-0.10799868 -0.052324731 1.6390001 53 60 48 255
-0.1034969 -0.052326471 1.6390001 56 61 50 255
-0.099115461 -0.052391995 1.641 56 61 50 255
-0.094607316 -0.052393589 1.641 64 69 58 255
-0.090098776 -0.052395124 1.641 61 66 55 255
-0.085537717 -0.052364659 1.6400001 62 67 55 255
-0.081031181 -0.052366041 1.6400001 67 72 60 255
-0.076570958 -0.052399281 1.641 62 69 58 255
-0.072017096 -0.052368589 1.6400001 64 71 59 255
-0.067509584 -0.052369755 1.6400001 63 70 59 255
-0.063078612 -0.052434713 1.6420001 62 69 58 255
-0.058600713 -0.05246767 1.6430001 55 62 51 255
-0.054182887 -0.052564416 1.646 58 65 54 255
-0.049778514 -0.052693028 1.6500001 56 63 52 255
-0.045406766 -0.052885443 1.6560001 64 69 58 255
-0.040903147 -0.052950036 1.6580001 45 48 36 255
-0.036322594 -0.052918747 1.6570001 48 51 39 255
-0.031747386 -0.052887384 1.6560001 49 52 40 255
-0.027193958 -0.052887887 1.6560001 55 60 49 255
-0.022640407 -0.052888304 1.6560001 61 66 55 255
-0.018064918 -0.052824773 1.654 69 74 63 255
-0.013565726 -0.053016666 1.6600001 69 76 65 255
-0.0090605877 -0.053368166 1.6710001 63 70 59 255
-0.0045056022 -0.053847354 1.6860001 58 65 53 255
0.00013096933 -0.053943206 1.6890001 55 63 48 255
0.0047642472 -0.05381541 1.6850001 53 60 48 255
0.0093810828 -0.053719476 1.682 55 62 50 255
0.013989707 -0.053655408 1.6800001 59 64 52 255
0.018642655 -0.053750943 1.6830001 62 67 55 255
0.023298191 -0.05381446 1.6850001 61 66 54 255
0.027997781 -0.053941786 1.6890001 62 67 55 255
0.032719243 -0.054069016 1.6930001 60 65 53 255
0.037484638 -0.054228105 1.6980001 58 65 54 255
0.042227719 -0.054323249 1.7010001 56 63 52 255
0.046959534 -0.054386366 1.7030001 60 67 56 255
0.051671822 -0.054417476 1.7040001 57 64 53 255
0.056455534 -0.054512382 1.7070001 57 64 53 255
0.061076373 -0.054447517 1.705 57 64 53 255
0.06580168 -0.054478392 1.7060001 55 62 51 255
0.070449561 -0.054445319 1.705 58 64 56 255
0.0751357 -0.054444101 1.705 58 65 54 255
0.079634264 -0.054315086 1.7010001 58 65 54 255
0.084110498 -0.054185994 1.697 57 66 55 255
0.088721335 -0.05415263 1.6960001 56 65 54 255
0.0933263 -0.054119192 1.6950001 51 60 49 255
0.097867556 -0.054053754 1.6930001 49 58 47 255
0.72948754 -0.05685107 1.7960001 160 168 161 255
0.73203176 -0.055197433 1.7440001 151 159 152 255
0.73212171 -0.05484812 1.733 148 156 149 255
0.7351293 -0.054720469 1.7290001 144 152 145 255
0.73512143 -0.054371417 1.7180001 141 149 142 255
0.73505527 -0.054022491 1.7070001 142 150 143 255
0.73666418 -0.053800289 1.7 142 150 143 255
0.73736459 -0.053514931 1.6910001 144 152 145 255
0.73845631 -0.053261332 1.6830001 148 156 149 255
0.73906475 -0.052976232 1.674 150 158 151 255
0.74007022 -0.052722912 1.6660001 155 163 156 255
0.73969311 -0.052374784 1.6550001 157 165 158 255
0.74015731 -0.052090082 1.646 162 170 163 255
0.74193144 -0.05190045 1.6400001 163 171 164 255
0.74230951 -0.051616009 1.631 166 174 167 255
0.74264055 -0.051331703 1.6220001 170 177 173 255
0.74292451 -0.051047526 1.613 171 178 174 255
0.7445516 -0.050858438 1.6070001 173 180 176 255
0.74335146 -0.050479576 1.595 176 183 179 255
0.74255705 -0.050132506 1.5840001 175 182 178 255
0.74264783 -0.049848862 1.575 178 185 181 255
0.74316591 -0.049596991 1.567 179 186 182 255
0.74268866 -0.049281955 1.557 181 188 184 255
0.74311846 -0.049030352 1.549 181 188 184 255
0.74398965 -0.048810538 1.5420001 181 188 184 255
0.7443397 -0.048559207 1.534 182 189 185 255
0.74367255 -0.048244689 1.524 184 191 187 255
0.74344409 -0.047961965 1.5150001 185 192 188 255
0.7436623 -0.047711018 1.5070001 184 191 187 255
0.74532801 -0.047555193 1.5020001 181 188 184 255
-1.0090888 -0.060334336 1.7490001 60 59 45 255
-0.97772539 -0.058737509 1.7030001 37 38 24 255
-0.95862579 -0.057865679 1.6780001 46 48 31 255
-0.98742497 -0.059890687 1.7370001 55 57 40 255
-0.95537323 -0.058226611 1.6890001 38 42 25 255
-0.93577987 -0.057588954 1.6710001 32 36 19 255
-0.94501239 -0.058442257 1.6960001 25 29 12 255
-0.93825155 -0.058598723 1.7010001 26 28 10 255
-0.93842518 -0.058901198 1.71 24 26 9 255
-0.91125423 -0.057481814 1.669 23 25 8 255
-0.92179823 -0.058439154 1.697 21 22 8 255
-0.92354423 -0.058845598 1.7090001 24 25 11 255
-0.9300667 -0.05956205 1.7300001 21 22 8 255
-0.92257136 -0.059383526 1.725 24 22 11 255
-0.90074366 -0.058275905 1.6930001 26 23 9 255
-0.90238583 -0.058683135 1.705 25 22 8 255
-0.91344249 -0.059709989 1.7350001 24 21 7 255
-0.91595781 -0.060186297 1.7490001 25 22 6 255
-0.91266948 -0.060284246 1.7520001 31 23 6 255
-0.90833235 -0.060313605 1.7530001 36 22 5 255
-0.90450937 -0.060377575 1.7550001 36 19 0 255
-0.90375519 -0.060648173 1.7630001 45 26 6 255
-0.89888185 -0.060643759 1.7630001 55 32 10 255
-0.89553362 -0.060742747 1.766 55 32 10 255
-0.89166856 -0.060807548 1.7680001 59 34 11 255
-0.88980234 -0.061010115 1.774 67 42 19 255
-0.88740778 -0.061178476 1.779 73 48 25 255
-0.88498932 -0.061347034 1.784 55 31 5 255
-0.88402677 -0.061618928 1.7920001 73 41 16 255
-0.88400471 -0.061959758 1.802 83 61 35 255
-0.8839311 -0.062300775 1.812 96 80 54 255
-0.88186544 -0.062504418 1.8180001 93 80 56 255
-0.87880546 -0.062639497 1.8220001 79 70 47 255
-0.82091159 -0.060566366 1.7620001 128 129 117 255
-0.7938633 -0.058915351 1.7140001 249 250 238 255
-0.78089273 -0.058295727 1.6960001 217 222 208 255
-0.77076894 -0.057882518 1.6840001 214 224 207 255
-0.76435268 -0.057744451 1.6800001 201 211 194 255
-0.75841254 -0.057640906 1.677 146 156 139 255
-0.75294036 -0.057571888 1.6750001 195 205 188 255
-0.74658746 -0.057434276 1.6710001 187 197 180 255
-0.74070239 -0.057331178 1.6680001 202 212 195 255
-0.73395276 -0.057159483 1.6630001 189 199 182 255
-0.72679347 -0.056953553 1.6570001 180 190 173 255
-0.72010446 -0.05678213 1.6520001 188 199 180 255
-0.71474391 -0.056713961 1.6500001 179 190 171 255
-0.70982617 -0.056680288 1.649 173 184 165 255
-0.70448762 -0.056612372 1.6470001 173 184 165 255
-0.70001149 -0.05661333 1.6470001 173 184 165 255
-0.69511437 -0.056580037 1.646 180 191 170 255
-0.68980449 -0.05651249 1.6440001 142 153 132 255
-0.68408984 -0.056410685 1.641 176 188 163 255
-0.67880684 -0.056343369 1.6390001 158 170 145 255
-0.67353588 -0.056276165 1.6370001 166 178 153 255
-0.66909432 -0.05627783 1.6370001 133 145 120 255
-0.66424781 -0.056245223 1.636 176 188 165 255
-0.65940773 -0.056212731 1.6350001 182 194 171 255
-0.65457392 -0.056180332 1.6340001 121 133 110 255
-0.64974654 -0.056148045 1.6330001 155 167 142 255
-0.64492536 -0.056115847 1.6320001 137 147 121 255
-0.6412878 -0.056186911 1.6340001 148 158 132 255
-0.63647091 -0.056154918 1.6330001 160 170 144 255
-0.63243425 -0.056191795 1.6340001 142 152 127 255
-0.62762409 -0.056159981 1.6330001 142 152 126 255
-0.6235832 -0.056197047 1.6340001 153 163 138 255
-0.61915863 -0.056199811 1.6340001 146 156 130 255
-0.61398208 -0.056133866 1.6320001 163 174 145 255
-0.60956383 -0.056136798 1.6320001 143 152 123 255
-0.60514617 -0.056139819 1.6320001 139 148 119 255
-0.60146493 -0.056211721 1.6340001 140 149 120 255
-0.59704244 -0.056214906 1.6340001 141 150 119 255
-0.59298307 -0.056252569 1.6350001 150 161 130 255
-0.58819848 -0.0562215 1.6340001 129 140 109 255
-0.58449143 -0.056293726 1.636 136 147 116 255
-0.57935548 -0.056228384 1.6340001 132 143 112 255
-0.57493424 -0.056231931 1.6340001 145 154 123 255
-0.57016408 -0.056201145 1.6330001 138 147 116 255
-0.56609219 -0.056239244 1.6340001 142 151 122 255
-0.56167114 -0.056242988 1.6340001 137 146 115 255
-0.55759126 -0.056281228 1.6350001 145 154 123 255
-0.55316758 -0.056285102 1.6350001 144 153 124 255
-0.5487439 -0.056289028 1.6350001 142 151 120 255
-0.54432005 -0.056293018 1.6350001 136 145 114 255
-0.53989619 -0.056297064 1.6350001 124 133 102 255
