ply
format ascii 1.0
comment PCL generated
element vertex 1012
property float x
property float y
property float z
property uchar red
property uchar green
property uchar blue
property uchar alpha
element camera 0
property float view_px
property float view_py
property float view_pz
property float x_axisx
property float x_axisy
property float x_axisz
property float y_axisx
property float y_axisy
property float y_axisz
property float z_axisx
property float z_axisy
property float z_axisz
property float focal
property float scalex
property float scaley
property float centerx
property float centery
property int viewportx
property int viewporty
property float k1
property float k2
end_header
0.7478323 0.14055535 1.817 140 148 145 255
0.74903822 0.13985597 1.8080001 133 143 142 255
0.74769449 0.13869281 1.7930001 137 146 149 255
0.74920881 0.13807143 1.7850001 142 149 152 255
0.74983609 0.13729568 1.7750001 142 151 156 255
0.75296146 0.13698433 1.771 144 153 158 255
0.75349945 0.13620922 1.761 146 155 160 255
0.75656813 0.1358985 1.7570001 145 154 159 255
0.75615019 0.13496935 1.7450001 146 152 158 255
0.75654083 0.13419521 1.7350001 149 156 159 255
0.75468469 0.13303466 1.72 148 154 160 255
0.75451487 0.13218385 1.7090001 148 154 160 255
0.75339836 0.13117865 1.6960001 148 154 160 255
0.75400072 0.13048317 1.687 151 157 163 255
0.75455606 0.129788 1.6780001 152 161 166 255
0.75551653 0.12917051 1.6700001 153 162 167 255
0.75643563 0.12855335 1.6620001 155 164 169 255
0.75593948 0.12770446 1.651 158 167 172 255
0.75492489 0.12677856 1.6390001 159 168 173 255
0.7561636 0.12623972 1.6320001 161 170 175 255
0.75829852 0.12585594 1.6270001 165 174 179 255
0.76134598 0.12562719 1.6240001 166 175 180 255
0.76202184 0.12501201 1.6160001 166 175 180 255
0.76313055 0.12447452 1.6090001 168 177 182 255
0.76229542 0.1236279 1.598 170 179 184 255
0.76044303 0.12262688 1.585 170 179 184 255
0.75803953 0.12154879 1.5710001 173 182 187 255
0.75653225 0.1206257 1.559 173 179 185 255
0.75544995 0.11978032 1.5480001 175 181 187 255
0.75529152 0.11908999 1.539 176 182 188 255
0.75557995 0.11847737 1.531 175 184 189 255
0.75533104 0.11778767 1.5220001 178 187 192 255
0.7540375 0.11694352 1.511 176 185 190 255
0.75419182 0.11633185 1.503 177 186 191 255
-0.67499453 0.14222521 1.904 165 173 166 255
-0.66913718 0.14208424 1.9020001 165 173 166 255
-0.66294175 0.1418687 1.899 161 169 161 255
-0.65641642 0.14157861 1.8950001 163 172 161 255
-0.65060014 0.14143807 1.8930001 160 169 158 255
-0.64445388 0.14122295 1.8900001 156 165 154 255
-0.63832378 0.14100796 1.8870001 155 164 153 255
-0.63153899 0.14064363 1.8820001 159 168 157 255
-0.62544668 0.14042886 1.8790001 153 162 150 255
-0.61937064 0.1402142 1.876 151 160 148 255
-0.61232841 0.1397754 1.8700001 166 175 163 255
-0.60564321 0.1394114 1.8650001 158 167 155 255
-0.60027313 0.13934653 1.8640001 148 157 145 255
-0.59490818 0.13928176 1.863 151 160 148 255
-0.59018171 0.13936664 1.8640001 145 154 142 255
-0.58513558 0.13937685 1.8640001 141 150 139 255
-0.58071154 0.13953672 1.8660001 149 158 147 255
-0.57565939 0.13954717 1.8660001 153 162 150 255
-0.57030106 0.1394829 1.8650001 152 161 149 255
-0.56525075 0.13949353 1.8650001 147 156 144 255
-0.5605005 0.13957901 1.8660001 144 154 139 255
-0.55574441 0.13966464 1.8670001 150 160 145 255
-0.5509823 0.13975032 1.868 149 158 146 255
-0.5450455 0.13953683 1.8650001 155 164 152 255
-0.53941369 0.13939817 1.863 151 160 148 255
-0.53321868 0.13910995 1.8590001 151 160 148 255
-0.52846533 0.13919589 1.8600001 145 154 142 255
-0.52314311 0.13913222 1.8590001 155 164 152 255
-0.51698971 0.13884404 1.8550001 146 155 143 255
-0.51030523 0.13840614 1.8490001 148 157 145 255
-0.50365263 0.13796823 1.8430001 149 159 144 255
-0.4964909 0.13738056 1.835 151 161 144 255
-0.48910388 0.13671795 1.8260001 157 167 150 255
-0.48256046 0.13627988 1.8200001 140 151 132 255
-0.47604889 0.13584179 1.8140001 140 151 132 255
-0.46982881 0.13547853 1.8090001 139 150 131 255
-0.46363518 0.13511522 1.8040001 142 153 134 255
-0.4579764 0.13490167 1.8010001 146 157 138 255
-0.45233321 0.13468811 1.7980001 147 158 139 255
-0.44745213 0.13469927 1.7980001 144 155 136 255
-0.44158554 0.13441072 1.794 139 150 131 255
-0.43598342 0.13419709 1.7910001 148 158 141 255
-0.43063745 0.13405833 1.789 147 157 142 255
-0.42553949 0.13399446 1.7880001 136 145 133 255
-0.41997561 0.1337807 1.7850001 158 167 155 255
-0.4144271 0.1335669 1.7820001 162 171 159 255
-0.40912393 0.13342798 1.7800001 150 159 147 255
-0.40405789 0.13336398 1.779 147 156 144 255
-0.39877197 0.13322496 1.7770001 152 161 149 255
-0.39416116 0.13331085 1.7780001 156 165 154 255
0.28153053 0.14010887 1.8650001 75 80 86 255
0.28631985 0.13994916 1.863 81 86 92 255
0.2910974 0.13978937 1.8610001 69 75 78 255
0.29602221 0.1397046 1.8600001 78 84 87 255
0.30094057 0.13961971 1.8590001 69 75 77 255
0.30552337 0.13938454 1.8560001 79 86 85 255
0.31092548 0.13952476 1.858 87 94 93 255
0.31633765 0.13966486 1.8600001 69 76 75 255
0.32106847 0.13950449 1.858 64 68 70 255
0.32543635 0.13919394 1.8540001 80 87 86 255
0.330138 0.13903345 1.8520001 73 80 79 255
0.33555177 0.13917318 1.8540001 76 82 84 255
0.34042427 0.13908762 1.853 73 80 79 255
0.34510392 0.13892691 1.8510001 64 71 70 255
0.34939337 0.13861607 1.8470001 75 82 81 255
0.35423571 0.13853031 1.8460001 79 86 85 255
0.35985014 0.13874468 1.8490001 75 82 79 255
0.36488786 0.13873382 1.8490001 62 69 66 255
0.36932445 0.13849781 1.8460001 73 80 76 255
0.37394652 0.13833684 1.8440001 75 82 78 255
0.37958434 0.13855088 1.8470001 76 81 78 255
0.38502926 0.1386898 1.8490001 57 62 59 255
0.39006224 0.13867867 1.8490001 74 79 76 255
0.3944532 0.13844249 1.8460001 72 77 74 255
0.39904329 0.13828129 1.8440001 74 79 76 255
0.4040598 0.13827004 1.8440001 68 75 74 255
0.40907541 0.13825877 1.8440001 67 74 73 255
0.41476378 0.13847238 1.8470001 71 78 75 255
0.42001295 0.13853598 1.848 64 71 68 255
0.4259567 0.13882442 1.8520001 67 72 68 255
0.43075761 0.13873802 1.8510001 62 67 63 255
0.43602318 0.13880153 1.8520001 64 69 65 255
0.44129324 0.13886499 1.853 62 68 61 255
0.44729048 0.13915323 1.8570001 63 69 62 255
0.4525778 0.13921665 1.858 62 70 63 255
0.45811605 0.13935496 1.8600001 61 68 64 255
0.46316624 0.13934343 1.8600001 60 68 61 255
0.46796393 0.13925697 1.8590001 61 68 64 255
0.47351864 0.13939525 1.8610001 63 70 66 255
0.47856918 0.13938373 1.8610001 66 73 69 255
0.48387879 0.13944711 1.8620001 67 74 70 255
0.48866779 0.13936073 1.8610001 69 76 73 255
0.49318543 0.13919953 1.8590001 73 80 77 255
0.49715543 0.13888861 1.8550001 71 78 75 255
0.50083232 0.13850293 1.8500001 76 83 80 255
0.50502819 0.13826704 1.8470001 79 84 81 255
0.51003557 0.1382558 1.8470001 67 72 68 255
0.51587898 0.13846916 1.8500001 61 65 58 255
0.52173787 0.13868253 1.853 60 64 57 255
0.52732819 0.13882108 1.8550001 55 61 54 255
0.53178084 0.13866033 1.853 53 59 52 255
0.53564268 0.13835004 1.8490001 53 59 52 255
0.53918988 0.13796502 1.8440001 49 56 52 255
0.54329973 0.13772976 1.8410001 58 65 62 255
0.54739279 0.13749464 1.8380001 74 81 78 255
0.55176973 0.13733441 1.8360001 70 77 74 255
0.5561353 0.13717426 1.8340001 68 75 72 255
0.56140751 0.13723862 1.835 62 69 66 255
0.56668478 0.13730305 1.8360001 54 61 57 255
0.57165563 0.13729279 1.8360001 51 56 52 255
0.57631218 0.13720785 1.835 49 55 48 255
0.58127981 0.13719781 1.835 57 63 56 255
0.58848351 0.13771121 1.8420001 70 76 69 255
0.59508049 0.13807511 1.8470001 56 62 55 255
0.60137945 0.13836434 1.8510001 22 28 21 255
0.60573423 0.13820517 1.8490001 40 46 39 255
0.60974783 0.13797143 1.8460001 55 61 54 255
0.61307901 0.13758837 1.8410001 44 49 45 255
0.6170544 0.13735494 1.8380001 56 61 57 255
0.62169051 0.13727115 1.8370001 62 67 63 255
0.62666225 0.13726223 1.8370001 60 67 63 255
0.63197798 0.13732818 1.8380001 59 67 60 255
0.6376456 0.13746898 1.84 62 70 63 255
0.64262569 0.1374605 1.84 63 71 64 255
0.64725405 0.1373775 1.8390001 62 68 61 255
0.65152252 0.13722 1.8370001 67 73 66 255
0.65578032 0.13706264 1.835 51 57 49 255
0.65858734 0.13660675 1.8290001 18 23 12 255
0.6606366 0.13600172 1.8210001 19 24 13 255
0.66483575 0.13584501 1.8190001 17 22 10 255
0.6708656 0.13606191 1.8220001 19 22 10 255
0.67542851 0.13598026 1.8210001 20 23 11 255
0.68036002 0.13597353 1.8210001 20 23 11 255
0.68566853 0.13604166 1.8220001 19 22 10 255
0.69136202 0.13618463 1.8240001 19 22 10 255
0.69439477 0.13580522 1.8190001 20 23 11 255
0.69701666 0.13535137 1.8130001 20 23 11 255
0.69960684 0.13489781 1.807 17 20 8 255
0.70411456 0.13481776 1.8060001 19 22 10 255
0.70743996 0.134514 1.802 20 23 11 255
0.70955855 0.13398658 1.7950001 21 24 12 255
0.71363032 0.13383263 1.7930001 21 24 12 255
0.71769226 0.13367897 1.7910001 20 23 9 255
0.72456831 0.134048 1.7960001 15 22 10 255
0.73715866 0.13546216 1.8150001 14 23 12 255
0.74617356 0.13620481 1.825 29 37 29 255
0.74865884 0.1357536 1.8190001 133 144 139 255
0.7490412 0.13492954 1.8080001 136 146 145 255
0.74811417 0.13388191 1.794 134 143 146 255
0.7500506 0.133357 1.7870001 140 146 152 255
0.75152797 0.13275775 1.779 139 148 153 255
0.75381362 0.13230808 1.7730001 140 149 154 255
0.75435668 0.13156021 1.7630001 143 149 155 255
0.75613874 0.13103653 1.756 144 153 158 255
0.75615108 0.13021468 1.7450001 147 153 159 255
0.75610524 0.12939313 1.7340001 147 153 159 255
0.75512373 0.12842266 1.7210001 148 154 160 255
0.75495613 0.12760173 1.71 148 154 160 255
0.75428629 0.12670653 1.6980001 150 156 162 255
0.75444686 0.12596087 1.6880001 148 154 160 255
0.75410527 0.12514091 1.677 150 159 164 255
0.75461036 0.12447048 1.6680001 149 158 163 255
0.75597882 0.12394965 1.6610001 154 163 168 255
0.75639534 0.12327985 1.6520001 160 166 172 255
0.75630426 0.12253577 1.6420001 158 167 170 255
0.75801414 0.12209049 1.636 162 169 172 255
0.75969368 0.12164556 1.6300001 162 171 174 255
0.76181138 0.12127556 1.6250001 163 172 177 255
0.76201808 0.12060737 1.6160001 169 178 183 255
0.76360083 0.12016341 1.6100001 168 177 182 255
0.76467615 0.11964513 1.603 170 179 184 255
0.76331693 0.11875398 1.5910001 170 179 184 255
0.76092952 0.11771382 1.577 171 180 185 255
0.75798261 0.11659929 1.562 174 180 186 255
0.75690824 0.11578367 1.5510001 175 181 187 255
0.7572484 0.11519226 1.5430001 177 183 189 255
0.75804114 0.11467586 1.536 174 183 188 255
0.75879812 0.11415976 1.529 176 185 190 255
0.75702453 0.11327067 1.5170001 176 184 191 255
0.757195 0.11268051 1.5090001 176 184 191 255
-0.68207115 0.13637 1.8950001 162 170 163 255
-0.67622697 0.13623387 1.8930001 165 173 165 255
-0.66897595 0.13580999 1.8870001 164 173 162 255
-0.66210932 0.13545819 1.8820001 160 169 158 255
-0.65561914 0.13517852 1.8780001 161 170 158 255
-0.648458 0.13475499 1.8720001 163 172 160 255
-0.64304775 0.13469152 1.8710001 157 166 155 255
-0.63696116 0.13448419 1.868 157 166 155 255
-0.63156736 0.13442098 1.8670001 159 168 157 255
-0.6251722 0.13414189 1.863 159 168 157 255
-0.61979735 0.13407895 1.8620001 158 167 155 255
-0.61310714 0.13372806 1.8570001 165 174 162 255
-0.60742623 0.13359331 1.8550001 158 167 155 255
-0.60078174 0.13324256 1.8500001 149 158 146 255
-0.5960964 0.13332409 1.8510001 159 168 156 255
-0.59076673 0.13326167 1.8500001 152 161 149 255
-0.58607554 0.1333434 1.8510001 150 159 147 255
-0.58075082 0.13328117 1.8500001 151 160 148 255
-0.57511997 0.133147 1.848 150 159 147 255
-0.57011658 0.13315699 1.848 152 161 149 255
-0.56480712 0.13309503 1.8470001 144 154 139 255
-0.55980569 0.1331052 1.8470001 146 156 141 255
-0.55480391 0.13311547 1.8470001 144 154 139 255
-0.54980165 0.1331258 1.8470001 146 156 141 255
-0.54391396 0.13291995 1.8440001 149 159 144 255
-0.53804207 0.13271415 1.8410001 152 162 145 255
-0.53218591 0.1325084 1.8380001 151 160 148 255
-0.5257718 0.13215846 1.8330001 152 161 149 255
-0.51938421 0.13180853 1.8280001 152 162 145 255
-0.51330453 0.1315307 1.8240001 155 164 152 255
-0.50724596 0.13125288 1.8200001 151 161 144 255
-0.50065643 0.13083081 1.8140001 156 167 148 255
-0.49409872 0.1304087 1.8080001 157 168 149 255
-0.48784354 0.13005871 1.8030001 148 159 140 255
-0.48161477 0.12970868 1.7980001 134 145 126 255
-0.47620794 0.12957507 1.7960001 121 132 113 255
-0.47054869 0.12936932 1.7930001 131 142 123 255
-0.46516478 0.1292357 1.7910001 131 142 123 255
-0.45953399 0.12902991 1.7880001 131 142 123 255
-0.45417303 0.1288963 1.7860001 129 140 121 255
-0.44857046 0.12869045 1.7830001 128 139 120 255
-0.44348118 0.12862895 1.7820001 136 147 128 255
-0.4376581 0.12835088 1.7780001 143 154 135 255
-0.4323428 0.12821718 1.7760001 147 157 140 255
-0.42703754 0.12808341 1.774 150 160 143 255
-0.42221835 0.12809405 1.774 151 161 146 255
-0.41716301 0.12803246 1.7730001 161 171 156 255
-0.41187966 0.12789862 1.771 142 153 134 255
-0.40706608 0.1279092 1.771 140 151 132 255
-0.40202451 0.12784752 1.7700001 136 147 128 255
-0.39721185 0.12785803 1.7700001 164 175 156 255
-0.39195496 0.12772405 1.7680001 170 181 162 255
-0.38780287 0.12795123 1.771 124 134 117 255
-0.38428238 0.1283952 1.7770001 120 130 115 255
-0.18852711 0.1310035 1.8080001 62 69 68 255
-0.1839774 0.13129985 1.812 60 67 66 255
-0.17930633 0.13152362 1.8150001 61 68 67 255
-0.17432994 0.13152984 1.8150001 76 83 82 255
-0.1695395 0.13168085 1.817 86 93 92 255
0.26100311 0.1349602 1.8640001 98 104 107 255
0.26567262 0.13473435 1.8610001 74 80 83 255
0.27047032 0.13458078 1.8590001 72 77 83 255
0.27584907 0.13471667 1.8610001 90 96 99 255
0.28123784 0.13485244 1.863 82 88 91 255
0.28602186 0.13469854 1.8610001 54 60 63 255
0.29063758 0.13447219 1.858 61 67 70 255
0.29571342 0.13446283 1.858 84 90 92 255
0.30062649 0.13438106 1.8570001 72 78 80 255
0.30520386 0.13415444 1.8540001 64 70 72 255
0.31009859 0.13407245 1.853 90 94 94 255
0.31515703 0.13406277 1.853 67 71 71 255
0.32004169 0.13398062 1.8520001 61 65 65 255
0.32456881 0.13375372 1.8490001 82 89 88 255
0.32925689 0.13359909 1.8470001 71 78 77 255
0.33429509 0.13358906 1.8470001 73 79 81 255
0.33933231 0.13357894 1.8470001 74 80 82 255
0.34418213 0.13349643 1.8460001 61 68 67 255
0.3488363 0.13334155 1.8440001 75 82 81 255
0.35347867 0.13318662 1.8420001 79 86 85 255
0.35888761 0.13332082 1.8440001 67 74 71 255
0.36371446 0.13323808 1.8430001 63 70 67 255
0.36813471 0.13301069 1.84 70 77 73 255
0.37314612 0.13300014 1.84 76 83 79 255
0.37897867 0.13327864 1.8440001 72 77 73 255
0.38420722 0.13334021 1.845 62 67 64 255
0.38944033 0.13340174 1.8460001 73 78 75 255
0.39382312 0.13317417 1.8430001 69 74 71 255
0.39840508 0.13301882 1.8410001 68 72 72 255
0.40363264 0.13308023 1.8420001 70 77 76 255
0.4081991 0.13292487 1.84 69 76 73 255
0.41387662 0.13313065 1.8430001 69 76 73 255
0.41911501 0.13319194 1.8440001 66 73 70 255
0.42504787 0.13346985 1.848 64 71 67 255
0.42983806 0.1333866 1.8470001 64 71 67 255
0.43509269 0.13344777 1.848 64 69 65 255
0.4403519 0.13350891 1.8490001 68 74 67 255
0.44633833 0.13378662 1.853 62 69 65 255
0.45137116 0.1337755 1.853 61 68 64 255
0.45714217 0.13398096 1.8560001 64 71 67 255
0.46193251 0.13389765 1.8550001 63 70 66 255
0.46722007 0.1339587 1.8560001 66 73 69 255
0.47225776 0.13394758 1.8560001 70 77 74 255
0.47729462 0.13393645 1.8560001 72 79 75 255
0.48207098 0.13385321 1.8550001 70 77 73 255
0.4860532 0.13355353 1.8510001 72 79 76 255
0.49027839 0.13332607 1.848 77 84 81 255
0.49421841 0.13302654 1.8440001 77 84 81 255
0.49894831 0.13294348 1.8430001 74 81 78 255
0.50394553 0.13293259 1.8430001 61 66 63 255
0.50921822 0.13299388 1.8440001 60 65 61 255
0.51561105 0.13334365 1.8490001 59 65 58 255
0.52118576 0.13347709 1.8510001 58 62 55 255
0.52677059 0.13361055 1.853 54 60 53 255
0.53093076 0.13338354 1.8500001 55 61 54 255
0.535074 0.13315664 1.8470001 53 59 52 255
0.53890812 0.13285774 1.8430001 54 61 57 255
0.54301524 0.13263105 1.84 58 65 62 255
0.54680765 0.13233237 1.8360001 69 76 73 255
0.55147952 0.13225001 1.835 71 78 75 255
0.55614561 0.13216777 1.8340001 66 73 70 255
0.56202966 0.13237385 1.8370001 58 65 61 255
0.56762087 0.13250794 1.8390001 49 55 48 255
0.57228845 0.13242595 1.8380001 48 54 47 255
0.57663625 0.13227201 1.8360001 53 59 52 255
0.58128965 0.13219023 1.835 52 58 51 255
0.5872153 0.13239671 1.8380001 67 73 66 255
0.59347928 0.13267531 1.8420001 68 74 67 255
0.59943962 0.13288194 1.845 28 34 27 255
0.6044333 0.13287258 1.845 30 34 27 255
0.6087662 0.13271935 1.8430001 64 68 61 255
0.61275506 0.13249426 1.84 41 47 40 255
0.61672771 0.13226932 1.8370001 50 55 51 255
0.62169933 0.13226056 1.8370001 57 62 58 255
0.62632984 0.13217992 1.8360001 56 61 57 255
0.63095498 0.13209943 1.835 58 65 61 255
0.63626784 0.13216308 1.8360001 61 69 62 255
0.64123696 0.13215488 1.8360001 60 68 61 255
0.64585429 0.13207488 1.835 62 68 61 255
0.65046638 0.13199505 1.8340001 62 68 61 255
0.65507329 0.13191539 1.8330001 64 68 60 255
0.65895486 0.13169198 1.83 14 18 10 255
0.6617322 0.13125288 1.8240001 17 22 11 255
0.66557389 0.1310299 1.8210001 18 23 11 255
0.67160892 0.13123883 1.8240001 16 21 9 255
0.67543525 0.13101622 1.8210001 19 22 10 255
0.67999297 0.13093774 1.8200001 18 21 9 255
0.68529856 0.13100334 1.8210001 20 23 11 255
0.69098914 0.13114105 1.8230001 19 22 10 255
0.69363713 0.13070349 1.817 19 22 10 255
0.69510007 0.13005041 1.8080001 20 23 11 255
0.69728929 0.12954144 1.8010001 17 20 8 255
0.70100075 0.12932043 1.7980001 18 21 9 255
0.70430416 0.12902772 1.794 19 22 10 255
0.71035397 0.12923872 1.7970001 19 22 10 255
0.71522683 0.12923418 1.7970001 20 23 11 255
0.71529216 0.12836693 1.7850001 20 23 11 255
0.72295851 0.12886629 1.7920001 15 22 10 255
0.73553783 0.13022876 1.8110001 10 19 8 255
0.74535936 0.13108806 1.8230001 51 59 51 255
0.74907362 0.130869 1.8200001 134 145 140 255
0.74904418 0.13000308 1.8080001 136 146 145 255
0.74978489 0.12928125 1.7980001 137 144 147 255
0.75173187 0.12877543 1.7910001 141 147 153 255
0.75237495 0.12805423 1.7810001 142 148 154 255
0.75296503 0.12733331 1.771 141 147 153 255
0.75350237 0.12661271 1.761 144 150 156 255
0.75484812 0.12603621 1.7530001 148 154 160 255
0.75441855 0.12517239 1.7410001 145 151 157 255
0.7547977 0.1244527 1.7310001 147 153 159 255
0.75380766 0.12351763 1.7180001 148 154 160 255
0.75539762 0.12301423 1.7110001 149 155 161 255
0.7538417 0.12200786 1.697 148 154 160 255
0.75310546 0.12114558 1.6850001 150 156 162 255
0.75365466 0.12049931 1.6760001 148 154 160 255
0.75551391 0.12006902 1.6700001 149 158 163 255
0.75734252 0.11963903 1.664 154 160 166 255
0.75639343 0.11877798 1.6520001 156 162 168 255
0.75676268 0.1181329 1.6430001 158 165 168 255
0.75708503 0.11748814 1.6340001 160 167 170 255
0.7596907 0.11720319 1.6300001 164 173 176 255
0.76133931 0.11677476 1.6240001 166 175 178 255
0.76154298 0.11613092 1.6150001 169 178 183 255
0.76264822 0.11563119 1.608 169 178 183 255
0.76514894 0.11534753 1.6040001 169 178 183 255
0.76475161 0.1146327 1.5940001 173 179 185 255
0.76333708 0.11377433 1.582 170 179 184 255
0.75943327 0.11255664 1.5650001 174 180 186 255
0.7583667 0.11177074 1.554 177 183 189 255
0.75773335 0.11105707 1.544 177 183 189 255
0.75803488 0.11048754 1.536 176 182 188 255
0.75829536 0.10991831 1.5280001 178 184 190 255
0.75751668 0.10920551 1.5180001 176 185 190 255
0.75768954 0.10863687 1.5100001 180 186 192 255
0.75681233 0.10792465 1.5000001 181 187 193 255
-0.68140626 0.13008808 1.8790001 164 172 165 255
-0.67416012 0.12967993 1.8730001 164 172 164 255
-0.66694677 0.12927194 1.8670001 151 160 149 255
-0.66012073 0.1289333 1.8620001 154 163 152 255
-0.65472919 0.12887178 1.8610001 156 165 154 255
-0.64759785 0.12846416 1.8550001 157 166 154 255
-0.6415382 0.1282644 1.8520001 160 169 157 255
-0.63549489 0.12806475 1.8490001 161 170 158 255
-0.62912697 0.12779598 1.845 159 168 157 255
-0.623119 0.12759656 1.8420001 155 164 153 255
-0.61746281 0.12746651 1.84 159 168 156 255
-0.61281598 0.12754445 1.8410001 162 171 159 255
-0.60651284 0.12727608 1.8370001 146 155 143 255
-0.60121369 0.12721565 1.8360001 146 155 143 255
-0.595595 0.12708606 1.8340001 154 163 151 255
-0.5912751 0.12723373 1.8360001 155 164 152 255
-0.58566684 0.12710433 1.8340001 152 161 149 255
-0.58038574 0.12704431 1.8330001 153 162 150 255
-0.57416809 0.12677646 1.8290001 155 164 152 255
-0.56859416 0.12664728 1.8270001 151 161 146 255
-0.56303072 0.12651819 1.825 141 150 138 255
-0.55686623 0.12625049 1.8210001 145 154 142 255
-0.55163211 0.12619084 1.8200001 145 154 142 255
-0.54580241 0.1259926 1.817 155 164 152 255
-0.5408814 0.1260024 1.817 157 167 152 255
-0.5344851 0.12566553 1.812 154 164 147 255
-0.5292846 0.12560613 1.8110001 156 167 148 255
-0.52437836 0.12561612 1.8110001 155 166 147 255
-0.51889795 0.12548743 1.8090001 153 164 145 255
-0.51285958 0.12522003 1.8050001 142 153 134 255
-0.5068422 0.12495262 1.8010001 132 142 127 255
-0.50112474 0.12475462 1.7980001 125 136 117 255
-0.49514684 0.12448722 1.794 115 126 107 255
-0.48918998 0.12421984 1.7900001 113 124 105 255
-0.48352477 0.12402184 1.7870001 117 128 109 255
-0.47787511 0.12382384 1.784 123 134 115 255
-0.47277144 0.12376466 1.7830001 119 130 111 255
-0.46767238 0.12370548 1.7820001 123 134 115 255
-0.46283773 0.12371576 1.7820001 140 151 132 255
-0.45748836 0.12358717 1.7800001 157 168 149 255
-0.45214909 0.12345859 1.7780001 158 169 150 255
-0.44681981 0.12332997 1.7760001 158 169 150 255
-0.44100296 0.12306246 1.7720001 152 163 144 255
-0.43496081 0.12272545 1.7670001 155 165 148 255
-0.42967543 0.12259677 1.7650001 149 159 142 255
-0.42464074 0.12253752 1.7640001 150 160 143 255
-0.42032471 0.12268666 1.766 125 135 118 255
-0.41576171 0.12276635 1.7670001 123 133 116 255
-0.4107272 0.12270705 1.766 116 127 108 255
-0.40615699 0.12278672 1.7670001 115 126 107 255
-0.40067199 0.1225884 1.7640001 108 119 100 255
-0.39565125 0.12252901 1.7630001 177 188 169 255
-0.38996992 0.12226108 1.7590001 118 129 110 255
-0.38540438 0.12234062 1.7600001 129 138 119 255
-0.38169757 0.12269821 1.7650001 122 131 112 255
-0.37967095 0.12361202 1.7780001 117 124 112 255
-0.34227589 0.12417785 1.7850001 138 146 139 255
-0.33835557 0.12453534 1.7900001 118 127 116 255
-0.33496594 0.12510157 1.7980001 101 110 98 255
-0.33153173 0.12566781 1.8060001 82 92 77 255
-0.3289572 0.126582 1.8190001 78 88 73 255
-0.32613268 0.12742667 1.8310001 81 91 76 255
-0.32254016 0.12799297 1.8390001 90 99 87 255
-0.25270203 0.12343316 1.7720001 72 78 80 255
-0.24827529 0.12365009 1.7750001 77 83 85 255
-0.2434199 0.12365793 1.7750001 83 89 91 255
-0.23842925 0.12359598 1.774 84 91 90 255
-0.23370659 0.12367326 1.7750001 94 101 100 255
-0.22962227 0.12409882 1.7810001 95 102 101 255
-0.2248733 0.12417589 1.7820001 82 89 88 255
-0.21937737 0.12383472 1.7770001 83 90 89 255
-0.21451159 0.12384184 1.7770001 84 90 92 255
-0.20988096 0.12398821 1.779 84 90 92 255
-0.20581487 0.12448299 1.7860001 75 81 83 255
-0.2013721 0.12476856 1.7900001 86 93 92 255
-0.19679691 0.12498429 1.7930001 92 99 98 255
-0.19209756 0.12513024 1.7950001 87 94 93 255
-0.18780363 0.1255549 1.8010001 85 92 91 255
-0.18327299 0.12584001 1.8050001 86 93 92 255
-0.17852215 0.12598558 1.807 85 92 91 255
-0.17337546 0.12585211 1.8050001 82 89 88 255
-0.16851898 0.12592766 1.8060001 78 84 86 255
-0.16338468 0.12579387 1.8040001 84 88 90 255
-0.15826067 0.12565991 1.802 98 102 104 255
-0.15280674 0.12524688 1.7960001 93 99 101 255
0.23449802 0.12933202 1.8560001 120 126 128 255
0.24009477 0.12960306 1.8600001 79 86 85 255
0.24610794 0.13008292 1.8670001 74 81 80 255
0.25162041 0.13028392 1.8700001 68 74 76 255
0.25632465 0.13006677 1.8670001 67 73 75 255
0.26073152 0.12971023 1.8620001 71 77 79 255
0.26568115 0.1296322 1.8610001 96 102 105 255
0.2703335 0.12941477 1.858 60 66 69 255
0.27570966 0.12954551 1.8600001 94 98 100 255
0.2806429 0.12946717 1.8590001 64 68 70 255
0.2854161 0.1293191 1.8570001 57 63 65 255
0.28986454 0.12903167 1.853 61 67 69 255
0.29508603 0.12909234 1.8540001 90 96 98 255
0.30015013 0.12908325 1.8540001 69 75 77 255
0.30471939 0.1288652 1.8510001 59 66 65 255
0.30960605 0.12878634 1.8500001 85 90 87 255
0.31448629 0.12870738 1.8490001 71 76 73 255
0.31936008 0.12862833 1.848 58 65 62 255
0.32387635 0.12841001 1.845 73 80 77 255
0.32873189 0.12833084 1.8440001 77 84 81 255
0.33339998 0.12818199 1.8420001 68 72 72 255
0.33842364 0.12817226 1.8420001 79 83 83 255
0.34325987 0.12809287 1.8410001 59 63 63 255
0.34827885 0.12808299 1.8410001 65 69 69 255
0.35310501 0.12800349 1.84 81 86 83 255
0.35850862 0.12813261 1.8420001 63 70 67 255
0.36313269 0.12798341 1.84 61 68 64 255
0.36774492 0.12783419 1.8380001 69 76 72 255
0.37234533 0.12768492 1.8360001 73 80 76 255
0.378167 0.12795286 1.84 70 75 71 255
0.38338476 0.12801211 1.8410001 57 62 58 255
0.38839605 0.12800176 1.8410001 66 71 68 255
0.39319265 0.12792185 1.84 69 74 71 255
0.39798293 0.1278419 1.8390001 70 75 72 255
0.40276676 0.12776195 1.8380001 72 77 74 255
0.40732244 0.12761246 1.8360001 68 75 71 255
0.41298911 0.12781043 1.8390001 64 71 68 255
0.41844389 0.12793887 1.8410001 68 75 72 255
0.42390868 0.12806727 1.8430001 64 71 67 255
0.42891791 0.12805665 1.8430001 63 70 66 255
0.43369088 0.12797655 1.8420001 62 69 65 255
0.43917197 0.12810484 1.8440001 64 71 67 255
0.44490394 0.12830257 1.8470001 64 71 67 255
0.44992056 0.12829186 1.8470001 68 73 69 255
0.45493636 0.12828119 1.8470001 74 79 76 255
0.45970222 0.12820104 1.8460001 74 79 76 255
0.4647136 0.12819035 1.8460001 77 81 81 255
0.46997857 0.12824911 1.8470001 72 79 76 255
0.47447672 0.12809958 1.845 74 81 78 255
0.47922316 0.1280195 1.8440001 73 80 76 255
0.48343807 0.12780063 1.8410001 77 84 81 255
0.48790142 0.12765123 1.8390001 70 77 74 255
0.49288914 0.12764069 1.8390001 64 71 67 255
0.49868831 0.12783837 1.8420001 62 67 63 255
0.50422966 0.12796666 1.8440001 59 64 60 255
0.50978112 0.12809496 1.8460001 54 60 53 255
0.515064 0.12815391 1.8470001 55 61 54 255
0.52035159 0.12821288 1.848 54 60 53 255
0.52535969 0.12820253 1.848 57 63 56 255
0.5300802 0.12812285 1.8470001 59 65 58 255
0.53479469 0.12804323 1.8460001 56 62 55 255
0.53862602 0.12775563 1.8420001 52 59 55 255
0.54302543 0.12760684 1.84 56 63 59 255
0.54651988 0.12725008 1.835 68 75 71 255
0.55088854 0.1271015 1.8330001 71 78 74 255
0.55645883 0.12723033 1.835 64 69 65 255
0.56265146 0.1274979 1.8390001 57 63 56 255
0.56793934 0.12755752 1.84 46 52 45 255
0.57229823 0.12740928 1.8380001 47 53 46 255
0.57695997 0.12733045 1.8370001 51 57 50 255
0.58129919 0.12718241 1.835 52 58 51 255
0.58690536 0.12731174 1.8370001 68 74 67 255
0.59284419 0.12751041 1.84 67 73 66 255
0.5984742 0.12763989 1.8420001 28 34 27 255
0.60345954 0.12763087 1.8420001 31 35 28 255
0.6081146 0.12755273 1.8410001 63 67 60 255
0.61276394 0.12747467 1.84 39 43 36 255
0.61707211 0.12732749 1.8380001 54 58 51 255
0.62170792 0.12724973 1.8370001 59 63 56 255
0.62633824 0.12717211 1.8360001 58 63 59 255
0.63027555 0.12695612 1.8330001 57 62 58 255
0.63523626 0.12694806 1.8330001 59 65 58 255
0.63984793 0.1268709 1.8320001 62 68 61 255
0.64551014 0.12700164 1.8340001 59 65 58 255
0.65011936 0.1269248 1.8330001 61 67 60 255
0.6550808 0.12691736 1.8330001 61 65 57 255
0.65896219 0.12670237 1.83 14 18 10 255
0.6635533 0.12662603 1.8290001 19 21 13 255
0.66667736 0.12627298 1.8240001 19 21 11 255
0.67124742 0.12619701 1.8230001 19 22 10 255
0.67507088 0.12598282 1.8200001 19 22 10 255
0.67999935 0.12597647 1.8200001 20 23 11 255
0.68530476 0.12603955 1.8210001 18 21 9 255
0.68909991 0.12582594 1.8180001 18 21 9 255
0.69249767 0.12554336 1.8140001 19 22 10 255
0.6939522 0.12491497 1.8050001 18 21 9 255
0.69613308 0.12442527 1.7980001 18 20 10 255
0.69632721 0.1235898 1.7860001 17 19 9 255
0.70156091 0.12365416 1.7870001 18 20 10 255
0.70956784 0.12420309 1.7950001 20 22 12 255
0.71483326 0.12426789 1.7960001 20 23 11 255
0.7168991 0.12377937 1.789 18 21 9 255
0.72457618 0.12425976 1.7960001 16 23 11 255
0.73432302 0.12508625 1.8080001 9 17 9 255
0.74331844 0.12577461 1.8180001 78 87 80 255
0.74619573 0.12542543 1.8130001 133 143 140 255
0.74780416 0.124869 1.8050001 132 142 141 255
0.74895352 0.12424368 1.7960001 140 147 150 255
0.75215393 0.12396453 1.7920001 136 142 148 255
0.75237697 0.12320141 1.7810001 140 146 152 255
0.7521165 0.12236943 1.7690001 142 148 154 255
0.75136441 0.12146855 1.756 142 148 154 255
0.7531268 0.12098302 1.7490001 144 150 156 255
0.7526862 0.12015191 1.7370001 146 152 158 255
0.75436229 0.11966698 1.7300001 146 152 158 255
0.75380796 0.11883646 1.7180001 148 155 158 255
0.75583917 0.11842126 1.7120001 147 154 157 255
0.75472993 0.11752217 1.6990001 146 152 158 255
0.7553395 0.11690002 1.6900001 146 155 160 255
0.75455308 0.11607067 1.6780001 147 156 161 255
0.75641745 0.11565664 1.6720001 150 156 162 255
0.75688589 0.1150354 1.6630001 152 158 164 255
0.75730723 0.11441444 1.654 155 162 165 255
0.75629991 0.11358625 1.6420001 158 165 168 255
0.75800914 0.11317341 1.636 161 168 171 255
0.7596879 0.11276086 1.6300001 165 174 177 255
0.76180512 0.11241782 1.6250001 166 175 180 255
0.76106805 0.11165997 1.6140001 169 178 183 255
0.76122171 0.11104076 1.605 167 176 181 255
0.76228273 0.11056024 1.598 168 177 182 255
0.76378781 0.11014921 1.5920001 172 178 184 255
0.76285005 0.10939252 1.5810001 175 181 187 255
0.76039881 0.10842852 1.567 175 181 187 255
0.75933748 0.10767238 1.5560001 176 182 188 255
0.75919998 0.1070549 1.5470001 177 183 189 255
0.75852245 0.10636851 1.5370001 178 184 190 255
0.7582891 0.10575163 1.5280001 178 184 190 255
0.75800908 0.10513499 1.5190001 177 183 190 255
0.759188 0.10472631 1.5130001 179 185 192 255
0.75882322 0.10411027 1.5040001 179 185 191 255
-0.68606621 0.12395386 1.8640001 168 176 169 255
-0.67846221 0.12349499 1.8570001 171 179 172 255
-0.67198449 0.12323577 1.853 163 171 163 255
-0.66480893 0.12284366 1.8470001 174 182 174 255
-0.65838045 0.12258469 1.8430001 158 167 156 255
-0.65339231 0.12259194 1.8430001 158 167 155 255
-0.64770049 0.12246628 1.8410001 163 170 158 255
-0.64097244 0.1221412 1.8360001 163 171 156 255
-0.63427156 0.1218162 1.8310001 164 174 159 255
-0.62862891 0.12169089 1.8290001 163 173 158 255
-0.62163329 0.12129958 1.8230001 165 174 162 255
-0.61568493 0.12110796 1.8200001 170 179 167 255
-0.61042398 0.12104954 1.8190001 163 173 158 255
-0.60616702 0.12119087 1.8210001 166 175 163 255
-0.59991813 0.12093303 1.817 156 165 153 255
-0.59532809 0.12100805 1.8180001 158 167 155 255
-0.58975828 0.12088351 1.8160001 157 167 152 255
-0.58516508 0.12095875 1.817 155 165 148 255
-0.57960838 0.12083438 1.8150001 162 170 153 255
-0.57437885 0.12077669 1.8140001 159 168 149 255
-0.56821269 0.12051931 1.8100001 158 167 148 255
-0.56175661 0.1201954 1.8050001 155 164 143 255
-0.55625284 0.12007132 1.8030001 147 156 135 255
-0.55075955 0.11994728 1.8010001 136 146 123 255
-0.54588282 0.11995653 1.8010001 123 135 100 255
-0.54010463 0.11976602 1.7980001 119 133 92 255
-0.53523511 0.11977537 1.7980001 118 129 100 255
-0.52948034 0.11958496 1.7950001 119 129 106 255
-0.52432585 0.11952782 1.794 120 129 108 255
-0.51946568 0.11953736 1.794 118 127 106 255
-0.5146051 0.11954696 1.794 113 124 105 255
-0.50889158 0.11935668 1.7910001 114 125 106 255
-0.50319362 0.11916643 1.7880001 118 129 110 255
-0.49751139 0.11897618 1.7850001 123 134 115 255
-0.49212077 0.1188526 1.7830001 135 146 127 255
-0.48646706 0.11866237 1.7800001 152 163 144 255
-0.48055837 0.11840547 1.7760001 148 159 140 255
-0.47520643 0.1182819 1.774 153 163 148 255
-0.47012988 0.11822502 1.7730001 168 178 163 255
-0.46532035 0.11823485 1.7730001 175 185 170 255
-0.46025047 0.11817801 1.7720001 160 170 153 255
-0.45441422 0.11792107 1.7680001 152 162 147 255
-0.44910744 0.1177975 1.766 150 160 145 255
-0.44355923 0.11760724 1.7630001 152 162 147 255
-0.43752876 0.11728349 1.7580001 152 162 145 255
-0.43201691 0.11709314 1.7550001 144 153 134 255
-0.4270075 0.1170362 1.7540001 120 129 110 255
-0.42296568 0.11724619 1.7570001 115 124 105 255
-0.41866866 0.11738945 1.7590001 110 119 98 255
-0.4143599 0.11753272 1.761 116 125 106 255
-0.40934172 0.11747577 1.7600001 115 124 105 255
-0.40478784 0.11755229 1.761 108 119 100 255
-0.39931908 0.11736176 1.7580001 171 182 163 255
-0.39409015 0.11723793 1.756 151 162 143 255
-0.38864955 0.11704732 1.7530001 117 128 109 255
-0.38431928 0.11719049 1.7550001 120 131 112 255
-0.38019353 0.11740045 1.7580001 121 132 113 255
-0.37733179 0.11801112 1.7670001 130 139 120 255
-0.37505263 0.11882222 1.779 105 113 96 255
-0.37353963 0.1199006 1.7950001 131 138 127 255
-0.35063311 0.11880306 1.7780001 176 185 180 255
-0.34539962 0.11867879 1.7760001 140 148 140 255
-0.34113482 0.11888856 1.779 125 134 122 255
-0.3372308 0.11923198 1.784 121 131 114 255
-0.33348492 0.11964224 1.7900001 111 122 103 255
-0.33043966 0.12031985 1.8000001 104 113 94 255
-0.32824317 0.12133174 1.8150001 85 94 75 255
-0.3263202 0.12247743 1.8320001 71 80 61 255
-0.32290024 0.12308833 1.8410001 56 64 47 255
-0.31839427 0.12329806 1.8440001 53 61 46 255
-0.31183171 0.12270528 1.835 66 75 64 255
-0.30297649 0.1211761 1.812 158 165 161 255
-0.29342356 0.11931221 1.784 184 191 188 255
-0.28661048 0.11851813 1.7720001 183 191 190 255
-0.28081617 0.11812516 1.766 104 110 112 255
-0.2758351 0.11806649 1.7650001 89 95 97 255
-0.2705515 0.11787392 1.7620001 48 54 56 255
-0.26543424 0.11774814 1.7600001 84 90 92 255
-0.26077124 0.11782295 1.761 82 88 90 255
-0.25595665 0.11783077 1.761 80 86 88 255
-0.25156897 0.11803923 1.7640001 72 78 80 255
-0.24688427 0.11811378 1.7650001 70 76 78 255
-0.24219325 0.1181882 1.766 73 80 79 255
-0.23736151 0.1181956 1.766 78 85 82 255
-0.23266064 0.11826982 1.7670001 82 89 86 255
-0.22795348 0.11834394 1.7680001 67 74 71 255
-0.22311378 0.118351 1.7680001 64 71 70 255
-0.21802637 0.11822405 1.766 71 78 77 255
-0.21319059 0.11823086 1.766 80 86 88 255
-0.20870797 0.11843842 1.7690001 81 87 89 255
-0.20420817 0.11864585 1.7720001 84 91 90 255
-0.19946614 0.11871926 1.7730001 91 98 97 255
-0.1947179 0.11879256 1.774 88 95 92 255
-0.19007045 0.11893269 1.7760001 90 97 94 255
-0.18541135 0.11907271 1.7780001 89 96 93 255
-0.18074058 0.1192126 1.7800001 87 94 93 255
-0.17605813 0.11935236 1.7820001 87 94 93 255
-0.17107591 0.11929107 1.7810001 89 96 95 255
-0.1662851 0.11936358 1.7820001 92 96 98 255
-0.16148818 0.11943596 1.7830001 91 94 98 255
-0.15677296 0.1195752 1.7850001 89 92 96 255
-0.15204613 0.1197143 1.7870001 88 94 96 255
-0.14730774 0.11985324 1.789 86 92 94 255
-0.14279659 0.12019306 1.794 80 86 88 255
-0.1384111 0.12066674 1.8010001 78 85 84 255
0.22518811 0.12472446 1.863 64 70 72 255
0.2295478 0.1243156 1.8570001 82 88 90 255
0.23400013 0.12397359 1.8520001 82 88 90 255
0.2398442 0.1243678 1.858 83 90 89 255
0.24572028 0.12476185 1.8640001 69 76 75 255
0.25135922 0.12502186 1.868 63 70 69 255
0.2557835 0.12467941 1.863 62 69 68 255
0.25989944 0.12420303 1.8560001 68 74 76 255
0.26483282 0.1241281 1.8550001 93 99 101 255
0.26975986 0.12405306 1.8540001 58 64 66 255
0.27542165 0.12431245 1.858 91 95 97 255
0.28034952 0.12423719 1.8570001 52 56 58 255
0.28496367 0.12402805 1.8540001 62 68 70 255
0.28924754 0.12368503 1.8490001 58 64 66 255
0.29413986 0.12360951 1.848 81 87 89 255
0.29934958 0.12366767 1.8490001 71 77 79 255
0.30406991 0.12352511 1.8470001 59 66 65 255
0.30928046 0.12358308 1.848 86 91 88 255
0.31415534 0.12350722 1.8470001 69 74 70 255
0.31885093 0.1233644 1.845 56 63 59 255
0.3233591 0.12315468 1.8420001 64 69 66 255
0.32802823 0.12301175 1.84 85 90 87 255
0.33286649 0.12293561 1.8390001 66 70 70 255
0.33769831 0.12285942 1.8380001 73 77 77 255
0.34271017 0.12284998 1.8380001 68 72 72 255
0.3479102 0.12290731 1.8390001 68 73 70 255
0.35292286 0.12289775 1.8390001 83 88 85 255
0.35773993 0.12282129 1.8380001 57 64 60 255
0.36235315 0.12267797 1.8360001 63 70 66 255
0.36695457 0.12253461 1.8340001 67 74 70 255
0.3717469 0.12245803 1.8330001 70 77 73 255
0.37776601 0.12278221 1.8380001 68 73 69 255
0.38277015 0.12277231 1.8380001 58 63 60 255
0.38777328 0.12276235 1.8380001 67 72 69 255
0.39234808 0.1226188 1.8360001 68 73 70 255
0.39712748 0.12254199 1.835 71 76 73 255
0.40211964 0.12253194 1.835 70 75 72 255
0.40688902 0.1224551 1.8340001 67 74 70 255
0.41210112 0.12251174 1.835 58 65 62 255
0.41754514 0.12263513 1.8370001 67 74 71 255
0.42230898 0.12255818 1.8360001 63 70 66 255
0.42776468 0.12268148 1.8380001 65 72 68 255
0.43252406 0.12260453 1.8370001 66 73 69 255
0.43775344 0.12266104 1.8380001 68 75 71 255
0.44298738 0.12271753 1.8390001 73 78 74 255
0.44749507 0.12257382 1.8370001 73 78 74 255
0.45248365 0.12256357 1.8370001 73 78 75 255
0.45747143 0.12255333 1.8370001 71 75 75 255
0.46271008 0.12260979 1.8380001 69 73 73 255
0.46744445 0.12253284 1.8370001 70 74 74 255
0.47242978 0.12252262 1.8370001 67 74 71 255
0.47715449 0.12244572 1.8360001 64 71 67 255
0.4821355 0.12243553 1.8360001 66 71 67 255
0.4868505 0.12235866 1.835 56 61 57 255
0.49236339 0.12248189 1.8370001 61 67 60 255
0.49815717 0.12267175 1.84 58 64 57 255
0.5036931 0.12279498 1.8420001 57 62 58 255
0.50951529 0.12298487 1.845 53 59 52 255
0.51451647 0.1229748 1.845 53 59 52 255
0.51951706 0.12296478 1.845 55 61 54 255
0.52451694 0.12295481 1.845 55 61 54 255
0.52951628 0.12294488 1.845 55 61 54 255
0.53422534 0.1228684 1.8440001 55 61 54 255
0.53805119 0.12259208 1.84 54 59 55 255
0.54244506 0.12244911 1.8380001 60 65 61 255
0.54623187 0.12217301 1.8340001 67 72 68 255
0.55089819 0.12209684 1.8330001 71 76 72 255
0.5567717 0.12228718 1.8360001 58 64 57 255
0.56296694 0.12254415 1.84 53 59 52 255
0.56825751 0.1226014 1.8410001 44 50 43 255
0.5726189 0.12245896 1.8390001 47 53 46 255
0.57728332 0.12238318 1.8380001 50 56 49 255
0.58194196 0.12230753 1.8370001 54 60 53 255
0.58659494 0.12223198 1.8360001 59 65 58 255
0.59188658 0.12228967 1.8370001 69 75 68 255
0.5965336 0.12221433 1.8360001 43 49 42 255
0.60248554 0.12240536 1.8390001 34 38 31 255
0.60746258 0.12239679 1.8390001 62 66 59 255
0.61277252 0.1224549 1.84 39 43 36 255
0.61741632 0.12238002 1.8390001 48 52 45 255
0.6217162 0.12223873 1.8370001 57 60 56 255
0.62634635 0.12216413 1.8360001 57 62 58 255
0.63028353 0.1219566 1.8330001 55 60 56 255
0.63455093 0.12181576 1.8310001 57 62 58 255
0.63950634 0.12180813 1.8310001 60 66 59 255
0.64516568 0.12193368 1.8330001 60 66 59 255
0.6504814 0.12199287 1.8340001 57 63 56 255
0.6554454 0.12198567 1.8340001 60 64 56 255
0.65932935 0.12177912 1.8310001 22 26 18 255
0.66356021 0.12163924 1.8290001 20 22 14 255
0.66595304 0.12116704 1.8220001 18 20 10 255
0.67014939 0.12102755 1.8200001 19 22 10 255
0.67396444 0.12082174 1.817 19 21 11 255
0.67925823 0.12088211 1.8180001 17 22 11 255
0.68568701 0.12114212 1.8220001 15 20 8 255
0.68986374 0.12100337 1.8200001 16 21 10 255
0.69212145 0.12053242 1.8130001 18 23 12 255
0.69241971 0.11972933 1.8010001 15 20 8 255
0.6926536 0.11892648 1.789 15 20 9 255
0.69438273 0.1183898 1.7810001 16 21 10 255
0.7015655 0.11878395 1.7870001 20 22 12 255
0.71036303 0.11944418 1.7970001 18 20 10 255
0.71682751 0.11970575 1.8010001 19 22 10 255
0.7189067 0.11923643 1.794 19 22 10 255
0.7257902 0.11956491 1.7990001 13 20 9 255
0.73473287 0.12022591 1.8090001 4 12 4 255
0.74209517 0.12062125 1.8150001 107 115 108 255
0.74537569 0.12035226 1.8110001 129 139 136 255
0.74739265 0.11988416 1.8040001 134 143 145 255
0.74853903 0.11928342 1.7950001 138 144 150 255
0.75131667 0.11894876 1.7900001 137 143 149 255
0.7515341 0.11821567 1.779 139 145 151 255
0.75126785 0.1174164 1.7670001 140 146 152 255
0.7505101 0.11655099 1.7540001 147 153 159 255
0.75269735 0.11615098 1.748 144 150 156 255
0.75312036 0.11548547 1.738 144 150 156 255
0.75392675 0.11488669 1.7290001 147 153 159 255
0.75249195 0.11395595 1.715 147 154 157 255
0.75363165 0.11342417 1.7070001 150 157 160 255
0.75384116 0.11275978 1.697 148 155 158 255
0.75489211 0.11222857 1.6890001 146 153 156 255
0.75635087 0.11176408 1.682 149 156 159 255
0.75732118 0.11123342 1.674 150 156 162 255
0.75870502 0.11076951 1.6670001 150 156 162 255
0.75776345 0.10997363 1.6550001 155 162 165 255
0.75675857 0.10917803 1.6430001 156 162 168 255
0.75708026 0.10858206 1.6340001 159 168 171 255
0.75968528 0.10831862 1.6300001 163 172 177 255
0.76180214 0.10798903 1.6250001 163 172 177 255
0.76247948 0.10746036 1.6170001 167 176 181 255
0.76121819 0.10666615 1.605 166 175 180 255
0.76084793 0.10600514 1.595 169 178 183 255
0.76234436 0.10561024 1.5890001 173 179 185 255
0.76236302 0.10501623 1.58 173 179 185 255
0.76136458 0.10428958 1.5690001 173 179 185 255
0.75982046 0.10349672 1.557 175 181 187 255
0.75968534 0.10290354 1.5480001 175 181 187 255
0.7575298 0.10204473 1.5350001 178 184 190 255
0.75778681 0.10151856 1.5270001 178 184 191 255
0.75750381 0.1009262 1.5180001 177 183 190 255
0.75867957 0.10053357 1.5120001 179 185 192 255
0.7588163 0.10000824 1.5040001 182 188 194 255
-0.69467264 0.11860455 1.8600001 170 178 171 255
-0.68815327 0.11835554 1.8560001 172 180 173 255
-0.68055159 0.11791535 1.8490001 175 183 176 255
-0.67262304 0.1174115 1.8410001 166 174 166 255
-0.66510093 0.11697156 1.8340001 168 176 168 255
-0.65833676 0.11665928 1.8290001 172 180 172 255
-0.65231454 0.1164747 1.8260001 176 185 173 255
-0.6470179 0.11641782 1.825 175 184 172 255
-0.64102322 0.11623348 1.8220001 145 155 140 255
-0.63504493 0.11604928 1.8190001 167 177 162 255
-0.6294294 0.11592898 1.817 154 164 149 255
-0.62382478 0.11580879 1.8150001 152 162 147 255
-0.61754912 0.11556111 1.8110001 146 156 141 255
-0.61197156 0.11544115 1.8090001 141 151 136 255
-0.60674053 0.11538511 1.8080001 144 154 139 255
-0.6021806 0.11545683 1.8090001 150 160 143 255
-0.59629452 0.11527336 1.8060001 162 172 155 255
-0.59107941 0.11521763 1.8050001 146 156 139 255
-0.58522004 0.11503432 1.802 136 146 129 255
-0.58034283 0.11504261 1.802 137 146 127 255
-0.57514626 0.11498716 1.8010001 129 138 119 255
-0.57027131 0.11499564 1.8010001 121 130 109 255
-0.56476825 0.11487651 1.7990001 124 133 112 255
-0.55896449 0.11469357 1.7960001 120 129 108 255
-0.55379361 0.11463843 1.7950001 120 130 107 255
-0.54832202 0.11451946 1.7930001 118 128 105 255
-0.54316401 0.11446445 1.7920001 122 132 107 255
-0.53771055 0.11434561 1.7900001 114 124 99 255
-0.53286284 0.11435459 1.7900001 115 128 99 255
-0.52742475 0.11423585 1.7880001 123 135 112 255
-0.52199697 0.11411716 1.7860001 137 148 127 255
-0.51686907 0.1140624 1.7850001 144 155 136 255
-0.51174599 0.11400768 1.784 158 168 153 255
-0.50577539 0.11376126 1.7800001 158 169 150 255
-0.49954447 0.11345094 1.7750001 159 170 151 255
-0.49389756 0.11326847 1.7720001 166 177 158 255
-0.48881811 0.11321382 1.771 147 157 142 255
-0.48347029 0.11309531 1.7690001 139 149 134 255
-0.47705033 0.11272105 1.7630001 142 152 135 255
-0.47119784 0.11247461 1.7590001 158 168 153 255
-0.46589682 0.11235607 1.7570001 168 177 165 255
-0.4608683 0.11230148 1.756 174 184 169 255
-0.45584455 0.11224691 1.7550001 162 172 157 255
-0.45056847 0.11212837 1.7530001 153 163 148 255
-0.4455567 0.11207377 1.7520001 135 145 130 255
-0.44004643 0.11189125 1.7490001 154 164 149 255
-0.43455172 0.11170869 1.7460001 129 139 122 255
-0.43005717 0.11178204 1.7470001 125 134 115 255
-0.42579982 0.1119194 1.7490001 115 121 103 255
-0.42177156 0.11212078 1.7520001 117 124 102 255
-0.41772616 0.11232217 1.7550001 113 120 98 255
-0.41366363 0.11252358 1.7580001 114 121 100 255
-0.40888613 0.11253298 1.7580001 111 120 101 255
-0.40433767 0.11260639 1.7590001 123 132 113 255
-0.39842001 0.11229564 1.7540001 171 181 164 255
-0.39275312 0.11204886 1.7500001 118 128 111 255
-0.38755044 0.11193005 1.748 125 136 117 255
-0.38323379 0.11206737 1.7500001 121 132 113 255
-0.37890536 0.11220467 1.7520001 124 133 112 255
-0.37541932 0.11259816 1.7580001 126 135 116 255
-0.37253216 0.11318383 1.7670001 114 123 104 255
-0.37063569 0.11408988 1.7810001 98 106 89 255
-0.36681357 0.11441941 1.7860001 141 151 136 255
-0.36215264 0.11449268 1.7870001 183 193 178 255
-0.35508612 0.11379702 1.7760001 180 190 175 255
-0.34926182 0.11348567 1.771 134 144 127 255
-0.34443632 0.11349464 1.771 120 131 112 255
-0.33999336 0.11363175 1.7730001 109 120 101 255
-0.3355386 0.1137688 1.7750001 110 119 98 255
-0.33144456 0.11403402 1.779 101 110 91 255
-0.32824573 0.11461972 1.7880001 136 142 124 255
-0.32644367 0.11571833 1.8050001 128 134 116 255
-0.32472605 0.11688115 1.8230001 61 67 49 255
-0.32115525 0.11740287 1.8310001 65 71 54 255
-0.31564048 0.11721922 1.8280001 32 37 23 255
-0.30827183 0.11633007 1.8140001 43 49 42 255
-0.29980811 0.11499174 1.7930001 103 109 102 255
-0.2916227 0.11371728 1.7730001 100 107 104 255
-0.28516296 0.11308397 1.7630001 47 54 53 255
-0.28002918 0.11296366 1.761 36 42 44 255
-0.27490538 0.11284325 1.7590001 27 33 35 255
-0.26933101 0.11253026 1.7540001 125 131 134 255
-0.26378304 0.11221714 1.7490001 106 112 115 255
-0.25885388 0.11216052 1.748 91 97 100 255
-0.25451073 0.11236049 1.751 87 93 95 255
-0.24972245 0.11236786 1.751 90 96 98 255
-0.24479346 0.11231095 1.7500001 97 104 103 255
-0.24028052 0.11244647 1.7520001 99 106 105 255
-0.23589024 0.1126461 1.7550001 97 104 101 255
-0.23121932 0.11271724 1.756 84 91 88 255
-0.22628425 0.1126599 1.7550001 85 92 89 255
-0.22122766 0.11253826 1.7530001 84 91 90 255
-0.21630466 0.11248066 1.7520001 89 96 95 255
-0.21126564 0.11235876 1.7500001 95 101 103 255
-0.20623681 0.11223671 1.748 111 117 119 255
-0.20144866 0.11224294 1.748 110 117 116 255
-0.19665976 0.11224907 1.748 106 113 110 255
-0.1919799 0.11231928 1.7490001 93 100 97 255
-0.18740086 0.11245361 1.751 88 95 92 255
-0.1826016 0.11245937 1.751 91 98 95 255
-0.17810623 0.11265768 1.7540001 89 96 93 255
-0.17349495 0.11279164 1.756 87 94 93 255
-0.16867992 0.11279702 1.756 91 98 97 255
-0.16358428 0.11260956 1.7530001 96 102 104 255
-0.15886675 0.1126789 1.7540001 97 103 105 255
-0.15449442 0.11300509 1.7590001 97 103 105 255
-0.15000899 0.11326692 1.7630001 97 103 105 255
-0.14566566 0.11365712 1.7690001 96 102 104 255
-0.14168687 0.11436848 1.7800001 88 95 94 255
-0.13810824 0.11546528 1.7970001 78 85 82 255
-0.13399108 0.11617646 1.8080001 76 83 80 255
-0.12902796 0.11618073 1.8080001 74 81 78 255
0.19488274 0.11984499 1.8660001 54 60 62 255
0.20021152 0.11996728 1.868 54 60 62 255
0.20489101 0.11970413 1.8640001 77 83 85 255
0.20954782 0.11944088 1.8600001 57 63 65 255
0.21441267 0.11930592 1.858 75 81 84 255
0.21962024 0.11936348 1.8590001 102 108 110 255
0.22459072 0.11929251 1.858 61 67 69 255
0.22918403 0.11902881 1.8540001 81 88 87 255
0.23362827 0.11870082 1.8490001 70 77 74 255
0.23907703 0.11888629 1.8520001 72 79 76 255
0.24493681 0.11926419 1.858 78 85 82 255
0.25055948 0.11951356 1.8620001 60 67 66 255
0.25537932 0.11937768 1.8600001 63 70 67 255
0.25934714 0.11885665 1.8520001 70 77 76 255
0.2641269 0.11872062 1.8500001 77 83 85 255
0.26918587 0.11871282 1.8500001 64 68 70 255
0.27498505 0.11902574 1.8550001 86 90 90 255
0.27990487 0.11895356 1.8540001 51 55 55 255
0.28451085 0.11875297 1.8510001 61 65 65 255
0.28847378 0.11829571 1.8440001 62 66 66 255
