ply
format ascii 1.0
comment PCL generated
element vertex 967
property float x
property float y
property float z
property uchar red
property uchar green
property uchar blue
property uchar alpha
element camera 0
property float view_px
property float view_py
property float view_pz
property float x_axisx
property float x_axisy
property float x_axisz
property float y_axisx
property float y_axisy
property float y_axisz
property float z_axisx
property float z_axisy
property float z_axisz
property float focal
property float scalex
property float scaley
property float centerx
property float centery
property int viewportx
property int viewporty
property float k1
property float k2
end_header
-0.95544392 -0.86860383 1.9250001 207 208 214 255
-0.95037156 -0.86882001 1.9260001 210 211 217 255
-0.94333863 -0.86723626 1.9230001 208 209 215 255
-0.93730569 -0.86655903 1.9220001 208 209 215 255
-0.93225509 -0.86678761 1.9230001 208 209 215 255
-0.92913353 -0.86882252 1.9280001 209 210 216 255
-0.92359477 -0.86860758 1.9280001 207 208 214 255
-0.91901523 -0.86929739 1.9300001 207 208 214 255
-0.91017103 -0.86593789 1.9230001 209 210 216 255
-0.90419602 -0.86528486 1.9220001 207 208 214 255
-0.89776552 -0.86418563 1.9200001 207 208 214 255
-0.89321166 -0.86489052 1.9220001 207 208 214 255
-0.88495737 -0.86199945 1.9160001 208 209 215 255
-0.87949747 -0.86181188 1.9160001 207 210 216 255
-0.87723678 -0.86477578 1.9230001 205 208 214 255
-0.87176847 -0.86459446 1.9230001 206 209 215 255
-0.86630595 -0.8644166 1.9230001 205 208 214 255
-0.8621918 -0.86559039 1.9260001 206 209 216 255
-0.85984546 -0.86856431 1.9330001 208 208 216 255
-0.85083485 -0.86480153 1.9250001 208 209 215 255
-0.84231389 -0.86149257 1.9180001 208 209 215 255
-0.83514673 -0.85953516 1.914 208 209 215 255
-0.83320916 -0.86296952 1.9220001 207 208 214 255
-0.82821655 -0.86326325 1.9230001 207 208 214 255
-0.82322317 -0.8635599 1.9240001 208 209 215 255
-0.81737864 -0.86296189 1.9230001 206 207 213 255
-0.81323338 -0.86416161 1.9260001 207 208 214 255
-0.80572015 -0.86177492 1.9210001 205 206 212 255
-0.7994895 -0.8607375 1.9190001 206 207 213 255
-0.79286051 -0.85925472 1.9160001 205 208 215 255
-0.78625262 -0.85777521 1.9130001 204 207 213 255
-0.78170663 -0.8585403 1.9150001 200 203 209 255
-0.77755892 -0.85975623 1.9180001 202 205 211 255
-0.77259308 -0.86007792 1.9190001 200 203 209 255
-0.76562661 -0.85816151 1.9150001 199 202 208 255
-0.76067126 -0.8584885 1.9160001 201 204 210 255
-0.75729096 -0.86060989 1.9210001 200 203 209 255
-0.75192928 -0.86049348 1.9210001 195 198 204 255
-0.74618238 -0.85993165 1.9200001 200 203 209 255
-0.73967308 -0.85847676 1.9170001 199 202 208 255
-0.73356676 -0.85747224 1.9150001 200 203 210 255
-0.72747499 -0.85647041 1.9130001 198 201 207 255
-0.7229076 -0.85726172 1.9150001 198 201 207 255
-0.71720809 -0.85671222 1.914 196 199 205 255
-0.71114528 -0.8557176 1.9120001 195 198 204 255
-0.70509666 -0.85472536 1.9100001 198 201 207 255
-0.70016122 -0.85507786 1.9110001 195 198 204 255
-0.69485956 -0.85498494 1.9110001 198 201 207 255
-0.6899215 -0.85534149 1.9120001 197 200 206 255
-0.68426454 -0.85480535 1.9110001 196 201 207 255
-0.67968178 -0.85561323 1.9130001 194 199 205 255
-0.67509055 -0.8564229 1.9150001 197 200 206 255
-0.67154014 -0.85857588 1.9200001 195 198 204 255
-0.66588253 -0.85804749 1.9190001 193 196 203 255
-0.65920031 -0.85617995 1.9150001 191 194 200 255
-0.65220112 -0.85386747 1.9100001 195 198 204 255
-0.64624798 -0.85289842 1.9080001 194 197 203 255
-0.64165199 -0.85371912 1.9100001 194 197 203 255
-0.63638073 -0.85364753 1.9100001 196 199 205 255
-0.63210291 -0.85491842 1.9130001 195 198 204 255
-0.62650013 -0.85440338 1.9120001 192 195 201 255
-0.62187958 -0.85523057 1.914 197 198 204 255
-0.61628348 -0.85471892 1.9130001 194 197 203 255
-0.61229193 -0.85644281 1.9170001 192 195 201 255
-0.60733032 -0.8568278 1.9180001 194 197 203 255
-0.60236514 -0.85721439 1.9190001 194 197 203 255
-0.59646279 -0.85626251 1.9170001 195 198 204 255
-0.5899564 -0.85441899 1.9130001 192 195 201 255
-0.58469641 -0.85436356 1.9130001 193 196 202 255
-0.579135 -0.85386294 1.9120001 192 195 201 255
-0.5723803 -0.85157776 1.9070001 191 194 200 255
-0.56714165 -0.85152692 1.9070001 194 197 203 255
-0.56219912 -0.85192388 1.9080001 193 196 200 255
-0.55725259 -0.85232216 1.909 190 193 199 255
-0.55172384 -0.85182899 1.9080001 191 194 198 255
-0.54620183 -0.85133696 1.9070001 190 193 197 255
-0.54153776 -0.85218555 1.909 192 195 201 255
-0.53574032 -0.85124981 1.9070001 191 194 200 255
-0.53162438 -0.85299355 1.9110001 190 193 199 255
-0.52693671 -0.8538456 1.9130001 190 193 199 255
-0.52223939 -0.85469884 1.9150001 190 193 199 255
-0.51537257 -0.85198271 1.909 190 193 199 255
-0.5101431 -0.85194576 1.909 190 193 199 255
-0.50465029 -0.85146356 1.9080001 189 192 198 255
-0.49994937 -0.85232133 1.9100001 187 190 196 255
-0.49446139 -0.85184127 1.909 189 192 198 255
-0.48923621 -0.85180861 1.909 187 190 196 255
-0.48350495 -0.85088456 1.9070001 188 191 195 255
-0.47828719 -0.85085398 1.9070001 187 190 196 255
-0.47307035 -0.85082436 1.9070001 188 191 197 255
-0.46809977 -0.85124201 1.9080001 186 189 195 255
-0.46288195 -0.85121417 1.9080001 187 190 196 255
-0.45694539 -0.8498491 1.9050001 185 188 192 255
-0.41741475 -0.84344155 1.891 184 187 191 255
-0.41334 -0.84565181 1.8960001 184 187 191 255
-0.41117603 -0.85187668 1.9100001 183 186 190 255
-0.40723583 -0.85453409 1.9160001 183 187 189 255
-0.40263391 -0.85585397 1.9190001 182 188 190 255
-0.3967737 -0.85449874 1.9160001 181 187 189 255
-0.39113468 -0.85359007 1.914 180 186 188 255
-0.38570878 -0.85312825 1.9130001 181 187 189 255
-0.38028878 -0.85266691 1.9120001 179 185 188 255
-0.37487471 -0.85220641 1.9110001 180 186 188 255
-0.37043375 -0.85397601 1.9150001 181 187 189 255
-0.36444572 -0.85217893 1.9110001 178 184 186 255
-0.35960779 -0.85305786 1.9130001 179 185 187 255
-0.35475928 -0.85393733 1.9150001 179 185 187 255
-0.3506304 -0.856601 1.9210001 180 186 188 255
-0.34539032 -0.85658967 1.9210001 179 185 187 255
-0.33926532 -0.85434943 1.9160001 179 185 188 255
-0.33369082 -0.85344732 1.914 179 185 188 255
-0.32812765 -0.8525458 1.9120001 179 185 187 255
-0.32325116 -0.85342813 1.914 178 184 187 255
-0.31819794 -0.85386521 1.9150001 180 186 189 255
-0.31346637 -0.85519433 1.9180001 183 189 192 255
-0.30855799 -0.85607815 1.9200001 185 191 194 255
-0.30427086 -0.85874563 1.9260001 180 186 189 255
-0.2994855 -0.86007607 1.9290001 181 187 190 255
-0.29437894 -0.860515 1.9300001 182 188 191 255
-0.2879189 -0.85694164 1.9220001 180 186 188 255
-0.28179684 -0.85426033 1.9160001 181 187 189 255
-0.27585208 -0.85202533 1.9110001 183 189 191 255
-0.27078444 -0.85246569 1.9120001 183 189 191 255
-0.26585039 -0.85335225 1.914 183 190 189 255
-0.26063329 -0.85334742 1.914 183 189 191 255
-0.25514942 -0.85245121 1.9120001 183 190 189 255
-0.25006881 -0.85289282 1.9130001 182 189 188 255
-0.24472682 -0.85244292 1.9120001 183 189 191 255
-0.2397662 -0.85333085 1.914 183 189 191 255
-0.23430468 -0.85243577 1.9120001 185 191 193 255
-0.22897398 -0.85198677 1.9110001 184 191 190 255
-0.2234146 -0.8506462 1.9080001 185 189 189 255
-0.21775731 -0.84886009 1.904 184 189 186 255
-0.21256846 -0.84885746 1.904 180 185 182 255
-0.20781541 -0.85063845 1.9080001 163 167 167 255
-0.20325296 -0.85331112 1.914 168 172 172 255
-0.19793366 -0.85286331 1.9130001 157 161 161 255
-0.19241834 -0.85152394 1.9100001 144 148 148 255
-0.18701747 -0.85063058 1.9080001 126 131 128 255
-0.18191345 -0.85107481 1.909 121 126 123 255
-0.17680398 -0.85151923 1.9100001 110 115 112 255
-0.17141962 -0.85062641 1.9080001 101 106 103 255
-0.16595905 -0.84928763 1.9050001 98 103 100 255
-0.16068366 -0.84884071 1.904 74 79 76 255
-0.15557709 -0.84928566 1.9050001 70 75 72 255
-0.15046513 -0.84973073 1.9060001 56 61 57 255
-0.14550012 -0.8510673 1.909 47 52 48 255
-0.14022487 -0.85062093 1.9080001 44 49 45 255
-0.13488428 -0.8497287 1.9060001 43 48 44 255
-0.12962267 -0.84928238 1.9050001 36 41 37 255
-0.12449716 -0.84972769 1.9060001 35 40 36 255
-0.11924104 -0.84928161 1.9050001 38 41 37 255
-0.11405024 -0.84928125 1.9050001 35 39 32 255
-0.10874516 -0.84838933 1.9030001 32 36 29 255
-0.10350542 -0.84794325 1.9020001 32 38 31 255
-0.098322809 -0.84794313 1.9020001 35 41 34 255
-0.093287133 -0.84928048 1.9050001 34 39 35 255
-0.088235103 -0.85061777 1.9080001 33 38 34 255
-0.083036177 -0.85061771 1.9080001 35 40 36 255
-0.077796452 -0.8501718 1.9070001 34 39 35 255
-0.07267639 -0.85106343 1.909 36 41 37 255
-0.067368709 -0.84972602 1.9060001 36 42 35 255
-0.062240474 -0.85061765 1.9080001 35 41 34 255
-0.056862172 -0.84794271 1.9020001 39 43 36 255
-0.051652431 -0.84749693 1.9010001 38 42 35 255
-0.046399243 -0.84615946 1.8980001 37 41 34 255
-0.041401345 -0.84972614 1.9060001 37 41 34 255
-0.036283858 -0.85150933 1.9100001 42 46 39 255
-0.031030668 -0.85017192 1.9070001 41 45 38 255
-0.025780283 -0.84838867 1.9030001 39 43 36 255
-0.020562518 -0.84705126 1.9000001 39 43 36 255
-0.01539349 -0.84749711 1.9010001 41 45 38 255
-0.010208266 -0.84705126 1.9000001 40 44 37 255
-0.0050337873 -0.84749711 1.9010001 41 45 38 255
0.00014583218 -0.84615964 1.8980001 44 45 39 255
0.0053091031 -0.84482217 1.8950001 46 47 41 255
0.010450498 -0.84303886 1.891 46 50 43 255
0.015660862 -0.84615964 1.8980001 49 50 44 255
0.02085449 -0.84705126 1.9000001 49 50 44 255
0.026045313 -0.84749705 1.9010001 48 49 43 255
0.031159457 -0.84571373 1.8970001 47 48 42 255
0.036424164 -0.84794283 1.9020001 48 49 43 255
0.041628614 -0.84838867 1.9030001 48 49 43 255
0.046813909 -0.84838855 1.9030001 48 49 43 255
0.051889904 -0.84660524 1.899 49 48 42 255
0.057094354 -0.84705108 1.9000001 49 48 42 255
0.06217315 -0.84571362 1.8970001 51 50 44 255
0.067377605 -0.84615946 1.8980001 48 47 41 255
0.072396375 -0.84437615 1.8940001 49 48 42 255
0.077516213 -0.84393036 1.8930001 51 48 44 255
0.082586922 -0.8430388 1.891 53 50 44 255
0.087878726 -0.84437633 1.8940001 48 47 41 255
0.093236014 -0.84615976 1.8980001 48 47 41 255
0.098407708 -0.84615988 1.8980001 49 48 42 255
0.10396142 -0.84928071 1.9050001 48 48 40 255
0.10880841 -0.84660602 1.899 48 48 40 255
0.11380279 -0.84526891 1.8960001 50 47 41 255
0.11865532 -0.84304011 1.891 51 48 42 255
0.12361158 -0.84170312 1.8880001 50 47 40 255
0.12882426 -0.84214926 1.8890001 51 48 42 255
0.13411336 -0.84304142 1.891 51 48 42 255
0.13801408 -0.83546311 1.8740001 50 47 40 255
0.14350235 -0.83769292 1.8790001 49 46 39 255
0.1487806 -0.8385852 1.881 49 46 40 255
0.15406978 -0.83947778 1.8830001 48 45 39 255
0.15928532 -0.83992445 1.8840001 50 47 41 255
0.16468093 -0.841263 1.8870001 50 47 41 255
0.1699129 -0.84170997 1.8880001 52 49 43 255
0.17431587 -0.83814466 1.8800001 50 47 41 255
0.17657548 -0.82477134 1.8500001 48 45 39 255
0.1831875 -0.83190608 1.8660001 49 46 39 255
0.20827743 -0.83057863 1.863 51 48 41 255
0.20728485 -0.80695218 1.8100001 53 48 41 255
0.2501578 -0.81812596 1.835 48 45 38 255
0.5078339 -0.83904219 1.8800001 37 34 20 255
0.49361178 -0.80739129 1.8090001 44 40 29 255
0.50408161 -0.81635535 1.8290001 47 43 32 255
0.51045626 -0.81063133 1.8160001 47 43 32 255
0.52281642 -0.82227886 1.8420001 52 48 38 255
0.51845813 -0.80004293 1.7920001 51 49 39 255
0.53505933 -0.8179462 1.8320001 51 49 39 255
0.63901126 -0.85677999 1.9170001 51 48 41 255
0.63959658 -0.85059434 1.9030001 50 47 40 255
0.63671815 -0.83993906 1.8790001 50 47 40 255
0.66328704 -0.86110234 1.9260001 52 47 40 255
0.68180358 -0.87817311 1.9640001 50 47 40 255
0.68303698 -0.87289011 1.9520001 53 50 43 255
0.71019405 -0.89363557 1.9980001 51 48 42 255
0.70068324 -0.87493932 1.9560001 52 51 45 255
0.67830759 -0.8405838 1.8790001 50 49 43 255
0.69588596 -0.85588491 1.9130001 51 50 44 255
0.69459569 -0.84792387 1.8950001 51 48 42 255
0.7005946 -0.84891325 1.8970001 52 49 43 255
0.69618893 -0.83737338 1.8710001 55 52 46 255
0.70288807 -0.83926135 1.8750001 53 50 44 255
0.70659119 -0.83757049 1.8710001 50 47 40 255
0.72587305 -0.85423779 1.9080001 50 47 40 255
0.72850245 -0.85120958 1.9010001 45 45 37 255
0.72878015 -0.845496 1.8880001 32 33 27 255
0.72976619 -0.84067893 1.8770001 147 151 144 255
0.72991127 -0.8349672 1.8640001 155 158 155 255
0.73353666 -0.83328831 1.8600001 156 159 156 255
0.7371431 -0.83161122 1.8560001 159 162 159 255
0.74193078 -0.83128065 1.8550001 159 161 161 255
0.74268895 -0.82647038 1.8440001 162 164 164 255
0.74338919 -0.82166123 1.8330001 162 164 164 255
0.74566519 -0.81864643 1.8260001 163 165 165 255
0.74913925 -0.81697857 1.8220001 164 166 166 255
0.74804109 -0.81037945 1.807 166 168 170 255
0.74519575 -0.80198675 1.7880001 172 174 176 255
0.74644351 -0.79808009 1.779 172 174 176 255
0.7472223 -0.79372597 1.7690001 173 175 177 255
0.74964994 -0.79116821 1.7630001 175 178 182 255
0.75204796 -0.78861213 1.7570001 176 179 183 255
0.75269312 -0.78426218 1.7470001 175 178 182 255
0.7524187 -0.77901536 1.7350001 176 179 183 255
0.75426364 -0.7760148 1.728 178 181 185 255
0.75431615 -0.77121931 1.7170001 180 181 185 255
0.75386876 -0.76597536 1.705 179 182 186 255
0.75424814 -0.76163107 1.6950001 178 179 183 255
0.75591892 -0.75863606 1.6880001 177 178 182 255
0.7548508 -0.7529456 1.6750001 182 183 187 255
0.75416726 -0.74770534 1.6630001 183 184 188 255
0.75159496 -0.74066699 1.6470001 183 184 190 255
0.7512325 -0.73587757 1.636 183 184 190 255
0.74942625 -0.72973925 1.6220001 186 185 191 255
0.75126427 -0.72720122 1.6160001 183 184 190 255
0.75260562 -0.72421491 1.6090001 183 184 188 255
0.75438261 -0.72168046 1.603 184 185 189 255
0.7547102 -0.71779686 1.5940001 185 186 190 255
0.75356263 -0.71256328 1.582 186 187 191 255
0.75187242 -0.70687973 1.5690001 188 189 193 255
0.75059521 -0.70164716 1.557 186 187 191 255
0.74925452 -0.69641501 1.5450001 187 188 192 255
0.74833822 -0.69163418 1.534 188 189 193 255
0.74441993 -0.68414819 1.5170001 186 187 191 255
0.74287724 -0.67891687 1.5050001 188 189 193 255
0.74722904 -0.67910075 1.5050001 190 191 195 255
-1.1370604 -0.87887824 1.9120001 193 193 195 255
-1.1317961 -0.88310236 1.9230001 195 195 197 255
-1.1235718 -0.88086039 1.9190001 197 194 197 255
-1.1124728 -0.87633264 1.9100001 198 195 198 255
-1.1095536 -0.8782357 1.9150001 200 197 201 255
-1.1083459 -0.88151842 1.9230001 199 196 199 255
-1.1082488 -0.88572073 1.9330001 196 194 194 255
-1.1024009 -0.88534528 1.9330001 195 193 193 255
-1.0948632 -0.88360262 1.9300001 193 191 191 255
-1.0890484 -0.8832401 1.9300001 191 191 191 255
-1.0832456 -0.88288367 1.9300001 181 181 183 255
-1.0780127 -0.88299048 1.9310001 182 182 184 255
-1.0716743 -0.8821885 1.9300001 183 183 185 255
-1.0670103 -0.88276345 1.932 187 184 187 255
-1.0606972 -0.88197321 1.9310001 188 185 189 255
-1.0560399 -0.88255852 1.9330001 190 187 191 255
-1.0502944 -0.88223594 1.9330001 192 189 193 255
-1.0494229 -0.88602501 1.9420002 190 187 191 255
-1.0420592 -0.88434356 1.9390001 192 189 193 255
-1.033654 -0.88175648 1.9340001 190 187 191 255
-1.0247569 -0.87872046 1.9280001 190 187 191 255
-1.0196049 -0.87888074 1.9290001 189 186 190 255
-1.013405 -0.87813479 1.9280001 186 185 189 255
-1.0061747 -0.87648338 1.9250001 184 184 186 255
-1.0010504 -0.87665862 1.9260001 191 188 192 255
-0.99747932 -0.87820339 1.9300001 192 191 195 255
-0.99132431 -0.87747741 1.9290001 191 190 194 255
-0.98467249 -0.87630153 1.927 196 195 201 255
-0.97702485 -0.87422168 1.9230001 194 193 199 255
-0.97041881 -0.87305647 1.9210001 197 196 202 255
-0.96483713 -0.87280488 1.9210001 197 196 202 255
-0.96076137 -0.87392044 1.9240001 209 208 214 255
-0.95419359 -0.87276894 1.9220001 209 208 214 255
-0.94764519 -0.87162244 1.9200001 211 210 216 255
-0.94209701 -0.87138826 1.9200001 211 210 216 255
-0.93704408 -0.87161201 1.9210001 209 208 214 255
-0.93150753 -0.87138593 1.9210001 211 210 216 255
-0.92694217 -0.87207103 1.9230001 211 210 216 255
-0.91997641 -0.8704927 1.9200001 210 211 217 255
-0.91398728 -0.86982548 1.9190001 210 211 217 255
-0.90611684 -0.86734974 1.914 210 211 217 255
-0.90157545 -0.86805022 1.9160001 211 210 216 255
-0.89609355 -0.86784822 1.9160001 209 208 214 255
-0.89108282 -0.86810273 1.9170001 209 210 216 255
-0.88468653 -0.86700249 1.9150001 209 210 216 255
-0.87922597 -0.86681145 1.9150001 210 211 217 255
-0.87605262 -0.86888677 1.9200001 209 210 216 255
-0.87013602 -0.86824983 1.9190001 208 209 215 255
-0.8660332 -0.86942601 1.9220001 209 210 216 255
-0.85968006 -0.86834365 1.9200001 210 211 217 255
-0.85556835 -0.86952603 1.9230001 209 210 216 255
-0.84702426 -0.86619031 1.9160001 209 210 216 255
-0.84116048 -0.86557102 1.9150001 210 211 217 255
-0.83443457 -0.86405116 1.9120001 209 210 216 255
-0.83163309 -0.86660159 1.9180001 209 210 216 255
-0.82664877 -0.86689532 1.9190001 207 210 216 255
-0.8229475 -0.86854702 1.9230001 207 210 216 255
-0.81540215 -0.86613673 1.9180001 208 209 215 255
-0.80915666 -0.86508483 1.9160001 209 210 216 255
-0.80166841 -0.86268187 1.9110001 208 211 217 255
-0.79629624 -0.86253935 1.9110001 207 210 217 255
-0.79010057 -0.86149704 1.909 208 211 218 255
-0.78474253 -0.86136031 1.909 206 209 216 255
-0.77938867 -0.86122626 1.909 206 209 216 255
-0.77403873 -0.86109489 1.909 207 210 216 255
-0.76869297 -0.86096638 1.909 206 209 215 255
-0.7641508 -0.8617422 1.9110001 204 207 213 255
-0.75999832 -0.86297131 1.914 205 208 214 255
-0.75386137 -0.86194855 1.9120001 206 209 215 255
-0.74852234 -0.86183006 1.9120001 206 209 215 255
-0.74279815 -0.86126339 1.9110001 205 208 214 255
-0.73824072 -0.86205107 1.9130001 206 209 215 255
-0.73137689 -0.86013758 1.909 205 208 214 255
-0.72644043 -0.86047959 1.9100001 206 209 215 255
-0.72036892 -0.85947233 1.9080001 205 208 214 255
-0.71581089 -0.86026925 1.9100001 204 207 213 255
-0.70938486 -0.85881644 1.9070001 204 207 213 255
-0.70445544 -0.85916734 1.9080001 204 207 213 255
-0.69952345 -0.85952038 1.909 204 207 213 255
-0.69386154 -0.85897505 1.9080001 204 207 213 255
-0.68892974 -0.8593322 1.909 202 205 211 255
-0.6832791 -0.85879123 1.9080001 200 205 211 255
-0.67834735 -0.85915244 1.909 200 205 211 255
-0.67341268 -0.85951567 1.9100001 203 206 213 255
-0.66917479 -0.86078072 1.9130001 203 206 213 255
-0.66353452 -0.86024761 1.9120001 201 204 211 255
-0.65755808 -0.85926694 1.9100001 202 205 211 255
-0.6512537 -0.85783827 1.9070001 202 205 211 255
-0.64598441 -0.85776114 1.9070001 199 202 208 255
-0.64038152 -0.85723621 1.9060001 199 202 208 255
-0.63445306 -0.85626334 1.904 199 202 208 255
-0.62919885 -0.85619169 1.904 195 198 204 255
-0.6246022 -0.85702121 1.9060001 194 197 203 255
-0.62032145 -0.85830182 1.909 195 198 204 255
-0.6153819 -0.85868484 1.9100001 196 199 205 255
-0.60979992 -0.85817027 1.909 196 199 205 255
-0.60454208 -0.85810697 1.909 195 198 204 255
-0.59834439 -0.85669684 1.9060001 196 199 205 255
-0.59372091 -0.85753566 1.9080001 196 199 205 255
-0.58754605 -0.85612887 1.9050001 191 194 200 255
-0.58322358 -0.85742015 1.9080001 194 197 203 255
-0.57797742 -0.85736454 1.9080001 194 197 203 255
-0.57333332 -0.85820907 1.9100001 193 196 202 255
-0.56719267 -0.85680848 1.9070001 194 197 203 255
-0.56254351 -0.85765582 1.909 193 196 200 255
-0.55730098 -0.85760587 1.909 192 195 201 255
-0.5514816 -0.856659 1.9070001 193 196 202 255
-0.5451017 -0.85481501 1.9030001 192 195 201 255
-0.54016364 -0.85521841 1.904 192 195 201 255
-0.53409767 -0.85382658 1.9010001 190 193 199 255
-0.52999705 -0.85557991 1.9050001 191 194 200 255
-0.52449828 -0.85508877 1.904 191 194 200 255
-0.52036995 -0.85684437 1.9080001 192 195 201 255
-0.51514089 -0.85680467 1.9080001 191 194 200 255
-0.50991303 -0.85676622 1.9080001 191 194 200 255
-0.50362831 -0.85493267 1.904 190 193 199 255
-0.49736661 -0.85310066 1.9000001 190 193 199 255
-0.49190497 -0.85261661 1.899 189 192 198 255
-0.48696244 -0.85303164 1.9000001 188 191 197 255
-0.48125473 -0.85210091 1.8980001 188 191 197 255
-0.47631136 -0.85251796 1.899 188 191 197 255
-0.4708674 -0.85203826 1.8980001 188 191 197 255
-0.46567509 -0.85200846 1.8980001 187 190 196 255
-0.45951322 -0.85018396 1.8940001 187 190 196 255
-0.45337415 -0.84836072 1.8900001 186 189 195 255
-0.41074401 -0.84547669 1.8840001 181 184 188 255
-0.40904275 -0.85263652 1.9000001 184 187 191 255
-0.40619197 -0.85755306 1.9110001 184 187 191 255
-0.40160295 -0.8588801 1.914 183 187 189 255
-0.39596277 -0.85796428 1.9120001 183 187 189 255
-0.39033407 -0.85704923 1.9100001 185 188 192 255
-0.38471675 -0.85613477 1.9080001 183 186 190 255
-0.37871304 -0.85432369 1.904 182 185 189 255
-0.37273163 -0.85251331 1.9000001 184 187 191 255
-0.36832014 -0.85429311 1.904 183 186 190 255
-0.36331508 -0.85472739 1.9050001 184 187 191 255
-0.35830495 -0.85516226 1.9060001 183 186 190 255
-0.35347503 -0.85604632 1.9080001 182 185 189 255
-0.34845206 -0.85648221 1.909 182 185 189 255
-0.34270486 -0.85512418 1.9060001 183 186 190 255
-0.33715138 -0.8542152 1.904 181 184 188 255
-0.33160913 -0.85330677 1.9020001 180 183 187 255
-0.32693627 -0.85464209 1.9050001 182 185 189 255
-0.32224736 -0.85597783 1.9080001 178 183 189 255
-0.31754237 -0.85731399 1.9110001 179 184 190 255
-0.3124944 -0.85775328 1.9120001 183 189 192 255
-0.30728054 -0.85774446 1.9120001 184 190 193 255
-0.30269888 -0.85953051 1.9160001 181 186 192 255
-0.29809564 -0.86131686 1.9200001 179 185 188 255
-0.29286072 -0.86130929 1.9200001 178 184 187 255
-0.28657734 -0.85816181 1.9130001 178 184 187 255
-0.28047946 -0.85546339 1.9070001 177 183 186 255
-0.27499193 -0.85455984 1.9050001 177 183 185 255
-0.27008194 -0.85545075 1.9070001 177 183 185 255
-0.26516122 -0.85634208 1.909 177 183 185 255
-0.25995743 -0.85633659 1.909 176 182 184 255
-0.25395313 -0.85364002 1.9030001 177 184 183 255
-0.24863526 -0.85318649 1.9020001 177 184 183 255
-0.243451 -0.8531819 1.9020001 177 184 183 255
-0.23876795 -0.85497183 1.9060001 177 183 185 255
-0.23332797 -0.8540706 1.904 177 184 183 255
-0.22813863 -0.85406679 1.904 176 182 184 255
-0.22283229 -0.85361463 1.9030001 175 181 183 255
-0.2176459 -0.85361129 1.9030001 175 182 181 255
-0.21245959 -0.85360819 1.9030001 175 181 183 255
-0.20760015 -0.8549509 1.9060001 175 182 181 255
-0.2028306 -0.85674238 1.9100001 177 184 183 255
-0.19762544 -0.85673982 1.9100001 176 183 182 255
-0.1922189 -0.85584038 1.9080001 178 185 184 255
-0.18643123 -0.85314679 1.9020001 177 184 183 255
-0.18115284 -0.85269624 1.9010001 176 183 182 255
-0.17587988 -0.85224581 1.9000001 178 185 184 255
-0.17079216 -0.8526926 1.9010001 177 184 183 255
-0.16569901 -0.85313958 1.9020001 178 185 184 255
-0.1604317 -0.85268962 1.9010001 178 185 184 255
-0.15516984 -0.85223961 1.9000001 177 184 183 255
-0.15007138 -0.852687 1.9010001 178 185 182 255
-0.14511992 -0.8540315 1.904 180 187 184 255
-0.14007868 -0.8549276 1.9060001 180 187 184 255
-0.1346727 -0.85358101 1.9030001 180 187 184 255
-0.12935114 -0.85268307 1.9010001 180 187 184 255
-0.12410581 -0.85223383 1.9000001 181 188 185 255
-0.11886597 -0.85178459 1.899 180 187 184 255
-0.1138112 -0.85268104 1.9010001 180 187 184 255
-0.1085741 -0.85223186 1.9000001 178 185 182 255
-0.10356016 -0.85357714 1.9030001 183 190 187 255
-0.098271392 -0.85267955 1.9010001 185 192 189 255
-0.093042515 -0.85223055 1.9000001 183 190 187 255
-0.088004082 -0.85357594 1.9030001 184 191 190 255
-0.082818747 -0.85357559 1.9030001 183 190 187 255
-0.077633418 -0.85357541 1.9030001 181 188 187 255
-0.07241001 -0.85312659 1.9020001 180 187 186 255
-0.067156725 -0.85222942 1.9000001 182 189 186 255
-0.062142689 -0.85447186 1.9050001 184 191 188 255
-0.056832336 -0.85267752 1.9010001 180 187 183 255
-0.0516253 -0.85222888 1.9000001 183 190 186 255
-0.046374828 -0.85088313 1.8970001 176 183 180 255
-0.041314475 -0.85312575 1.9020001 158 165 161 255
-0.036169898 -0.8540228 1.904 150 157 154 255
-0.03093305 -0.85267717 1.9010001 141 148 145 255
-0.025753196 -0.85267717 1.9010001 135 142 138 255
-0.020584164 -0.85312557 1.9020001 132 140 133 255
-0.015417784 -0.85402262 1.904 106 114 107 255
-0.010219011 -0.85312557 1.9020001 104 110 103 255
-0.0050337883 -0.85267705 1.9010001 89 95 88 255
0.00014598586 -0.85222846 1.9000001 69 74 70 255
0.005323112 -0.85222846 1.9000001 66 71 67 255
0.010500238 -0.85222846 1.9000001 40 47 43 255
0.015710369 -0.85402262 1.904 38 45 41 255
0.020876445 -0.85312557 1.9020001 34 39 35 255
0.026059022 -0.85312569 1.9020001 31 36 32 255
0.031192318 -0.85178006 1.899 30 36 29 255
0.036405027 -0.85267723 1.9010001 25 31 24 255
0.041650511 -0.85402292 1.904 27 33 26 255
0.046813939 -0.8535744 1.9030001 28 34 27 255
0.051999249 -0.85357451 1.9030001 25 30 26 255
0.057184566 -0.85357469 1.9030001 27 33 26 255
0.062435426 -0.85447186 1.9050001 29 35 28 255
0.067626193 -0.8544721 1.9050001 28 34 27 255
0.072664075 -0.85267812 1.9010001 28 34 27 255
0.077721104 -0.85133272 1.8980001 29 35 28 255
0.082892813 -0.8513329 1.8980001 31 35 28 255
0.088018127 -0.85088468 1.8970001 29 35 28 255
0.093383633 -0.85267925 1.9010001 30 36 29 255
0.09845984 -0.8517825 1.899 32 38 31 255
0.10379802 -0.85312855 1.9020001 32 38 31 255
0.10880879 -0.85178345 1.899 34 40 33 255
0.11392326 -0.85133541 1.8980001 38 42 35 255
0.11915779 -0.85178459 1.899 40 44 37 255
0.12426686 -0.85133672 1.8980001 38 42 35 255
0.12950689 -0.85178602 1.899 40 44 37 255
0.13432685 -0.84954411 1.8940001 40 44 37 255
0.13956146 -0.84999359 1.8950001 40 44 37 255
0.14434333 -0.84775198 1.8900001 41 45 38 255
0.14957255 -0.84820163 1.891 40 44 37 255
0.15439813 -0.84640861 1.8870001 44 45 39 255
0.15996289 -0.84865266 1.8920001 48 49 43 255
0.16529313 -0.84955126 1.8940001 47 48 42 255
0.17054433 -0.85000139 1.8950001 47 48 42 255
0.17505921 -0.84686327 1.8880001 46 47 41 255
0.18029961 -0.8473137 1.8890001 45 49 42 255
0.18574181 -0.84866142 1.8920001 47 48 42 255
0.19089778 -0.84866363 1.8920001 47 48 42 255
0.19615743 -0.84911454 1.8930001 46 47 41 255
0.20163529 -0.85046273 1.8960001 46 47 41 255
0.20680234 -0.85046548 1.8960001 44 45 39 255
0.21163411 -0.84912276 1.8930001 46 47 41 255
0.21656412 -0.84822869 1.891 46 47 41 255
0.22242129 -0.85092342 1.8970001 47 48 42 255
0.23239362 -0.84958518 1.8940001 48 48 40 255
0.23743044 -0.8491407 1.8930001 49 49 39 255
0.24348707 -0.85228503 1.9000001 48 48 40 255
0.24840415 -0.85139257 1.8980001 50 50 42 255
0.25317684 -0.85005164 1.8950001 46 46 38 255
0.2568427 -0.84512246 1.8840001 47 47 39 255
0.26197833 -0.84512782 1.8840001 51 48 41 255
0.26711416 -0.84513366 1.8840001 50 47 40 255
0.27138314 -0.84244823 1.8780001 50 50 42 255
0.28147298 -0.84201276 1.8770001 51 50 44 255
0.28689584 -0.84291714 1.8790001 48 47 41 255
0.29108649 -0.84023297 1.8730001 50 49 43 255
0.29492846 -0.83665198 1.8650001 51 48 42 255
0.30049652 -0.83800608 1.868 49 46 40 255
0.3068991 -0.84160364 1.876 50 47 41 255
0.33741939 -0.84121662 1.8750001 47 45 34 255
0.35559165 -0.8358838 1.863 47 44 37 255
0.36009485 -0.83455187 1.8600001 49 47 37 255
0.36752692 -0.83995086 1.8720001 50 46 36 255
0.38693106 -0.83777267 1.8670001 48 45 38 255
0.3953259 -0.81316656 1.812 49 47 37 255
0.41077602 -0.80472463 1.7930001 49 47 37 255
0.4643954 -0.79607952 1.7730001 33 30 16 255
0.48618993 -0.8248505 1.8370001 34 30 19 255
0.50058126 -0.84060287 1.8720001 34 30 19 255
0.51057315 -0.84872383 1.8900001 38 35 21 255
0.50592905 -0.8325963 1.8540001 44 41 27 255
0.50742817 -0.82679766 1.8410001 44 40 29 255
0.52166218 -0.84165949 1.8740001 46 42 31 255
0.52230406 -0.83451575 1.858 50 46 35 255
0.52654946 -0.83321166 1.8550001 51 47 37 255
0.52877355 -0.82876432 1.845 50 48 38 255
0.55409151 -0.85221767 1.8970001 51 49 39 255
0.55664772 -0.84822404 1.8880001 49 49 39 255
0.56251317 -0.83400118 1.8560001 47 47 39 255
0.62728316 -0.87487322 1.9460001 54 50 40 255
0.62516969 -0.86460024 1.9230001 51 49 39 255
0.6179235 -0.84045678 1.8690001 49 46 39 255
0.62241453 -0.83962774 1.8670001 50 47 40 255
0.64975399 -0.86938381 1.9330001 51 48 41 255
0.64915925 -0.85469377 1.9000001 52 49 42 255
0.65854484 -0.86017108 1.9120001 51 48 41 255
0.66626322 -0.86340189 1.9190001 51 48 41 255
0.68977094 -0.88688344 1.9710001 51 48 41 255
0.68182373 -0.86987078 1.9330001 52 49 42 255
0.66709691 -0.83809155 1.8620001 53 50 44 255
0.68561792 -0.85483593 1.899 50 47 41 255
0.68833905 -0.85177714 1.8920001 54 51 45 255
0.68405896 -0.84016508 1.8660001 52 49 43 255
0.69256526 -0.84431303 1.8750001 53 50 44 255
0.69889152 -0.84576195 1.8780001 53 50 44 255
0.70261306 -0.84406048 1.8740001 54 51 45 255
0.71009248 -0.84686542 1.8800001 51 48 41 255
0.71456462 -0.84606916 1.8780001 50 47 40 255
0.72209489 -0.84887958 1.8840001 46 46 38 255
0.72502923 -0.8462854 1.8780001 34 35 29 255
0.72676694 -0.84234083 1.8690001 154 155 149 255
0.72924119 -0.83929914 1.8620001 152 155 151 255
0.73246872 -0.83716065 1.8570001 155 158 155 255
0.7356717 -0.83502382 1.8520001 158 161 158 255
0.73725039 -0.83108521 1.8430001 160 162 162 255
0.74079657 -0.82940304 1.8390001 160 162 162 255
0.74189031 -0.82501632 1.8290001 159 162 159 255
0.74619937 -0.82423997 1.8270001 164 166 166 255
0.7459774 -0.81850255 1.8140001 167 169 169 255
0.74692863 -0.81411982 1.8040001 167 169 169 255
0.74907827 -0.81109238 1.7970001 166 168 170 255
0.75035328 -0.8071636 1.7880001 172 174 176 255
0.75327176 -0.80504233 1.7830001 173 175 177 255
0.75489044 -0.80156821 1.7750001 176 178 180 255
0.75689644 -0.79854727 1.7680001 175 178 182 255
0.75412709 -0.79055876 1.7500001 176 179 183 255
0.75212801 -0.78347379 1.7340001 177 178 182 255
0.7544089 -0.78090811 1.728 179 181 183 255
0.75446332 -0.77608424 1.7170001 178 182 184 255
0.75534451 -0.77216554 1.7080001 178 182 184 255
0.75573438 -0.76779598 1.6980001 182 184 186 255
0.75517637 -0.76252306 1.6860001 178 180 182 255
0.75545669 -0.75815558 1.6760001 181 182 186 255
0.7543242 -0.75243187 1.6630001 183 184 188 255
0.75312263 -0.74670851 1.6500001 182 183 187 255
0.75139278 -0.74053311 1.636 184 185 189 255
0.74866396 -0.73345256 1.6200001 183 184 188 255
0.75142866 -0.73180586 1.6160001 182 183 187 255
0.75090086 -0.72699082 1.605 183 186 190 255
0.75549322 -0.72716027 1.605 183 184 188 255
0.7558288 -0.72325438 1.5960001 185 186 190 255
0.75516528 -0.7184431 1.585 184 185 189 255
0.75444406 -0.71363264 1.5740001 184 185 189 255
0.75462961 -0.70972991 1.5650001 186 187 191 255
0.75428391 -0.70537472 1.5550001 187 188 192 255
0.74900687 -0.69648314 1.5350001 189 190 194 255
0.74558353 -0.68940556 1.5190001 187 188 192 255
0.74552965 -0.68550527 1.5100001 188 189 193 255
0.74840939 -0.68433058 1.5070001 189 190 194 255
0.75027859 -0.68225014 1.5020001 190 191 195 255
-1.0901244 -0.88512272 1.9210001 197 197 199 255
-1.0848951 -0.88521671 1.9220001 199 199 201 255
-1.0796717 -0.88531649 1.9230001 199 199 201 255
-1.0783632 -0.88864332 1.9310001 201 201 203 255
-1.0692416 -0.88553286 1.9250001 201 201 203 255
-1.0667969 -0.88794851 1.9310001 200 200 202 255
-1.0582831 -0.88531148 1.9260001 204 201 205 255
-1.0536355 -0.88589823 1.9280001 204 201 205 255
-1.0473558 -0.88511193 1.927 197 194 198 255
-1.045417 -0.88800478 1.9340001 198 195 199 255
-1.0369959 -0.88539279 1.9290001 199 196 200 255
-1.0312876 -0.88508195 1.9290001 195 192 196 255
-1.0223989 -0.88202435 1.9230001 193 192 196 255
-1.0156705 -0.88080782 1.9210001 191 188 191 255
-1.0089631 -0.87959701 1.9190001 191 191 193 255
-1.005414 -0.88114113 1.9230001 189 189 191 255
-1.0018502 -0.88268894 1.927 192 192 194 255
-1.0003401 -0.88607222 1.9350001 190 190 192 255
-0.99622154 -0.88716906 1.9380001 192 191 195 255
-0.98902756 -0.88552415 1.9350001 191 190 194 255
-0.97931838 -0.88159716 1.927 191 190 194 255
-0.97168529 -0.87950647 1.9230001 192 191 195 255
-0.9660933 -0.87925035 1.9230001 190 189 195 255
-0.96000975 -0.87854159 1.9220001 188 187 191 255
-0.95195353 -0.87600952 1.9170001 189 185 192 255
-0.94492126 -0.87439686 1.914 189 186 190 255
-0.94085872 -0.87552947 1.9170001 191 188 192 255
-0.93629825 -0.87620902 1.9190001 190 189 193 255
-0.93027842 -0.87552273 1.9180001 191 190 194 255
-0.92330718 -0.87392807 1.9150001 190 189 193 255
-0.91731864 -0.8732506 1.914 199 198 202 255
-0.91134268 -0.87257743 1.9130001 200 199 203 255
-0.90443212 -0.8709963 1.9100001 200 199 203 255
-0.89989859 -0.87169921 1.9120001 202 201 205 255
-0.89348882 -0.87058228 1.9100001 201 200 204 255
-0.88942152 -0.87174803 1.9130001 204 203 207 255
-0.88257074 -0.87018323 1.9100001 204 203 209 255
-0.87803924 -0.87090009 1.9120001 202 203 209 255
-0.87304592 -0.87116492 1.9130001 209 210 216 255
-0.86669219 -0.87006706 1.9110001 210 211 217 255
-0.86215824 -0.87079388 1.9130001 209 210 216 255
-0.85537928 -0.86924827 1.9100001 211 210 216 255
-0.85129291 -0.87043655 1.9130001 211 210 216 255
-0.84498399 -0.86935312 1.9110001 211 212 218 255
-0.84088832 -0.87054747 1.914 210 211 217 255
-0.83459836 -0.86947078 1.9120001 210 211 217 255
-0.82832479 -0.86839765 1.9100001 209 210 216 255
-0.82249832 -0.86778259 1.909 209 210 216 255
-0.81796652 -0.86853433 1.9110001 210 211 217 255
-0.81172723 -0.86747104 1.909 213 212 218 255
-0.80550396 -0.86641115 1.9070001 212 211 217 255
-0.7992965 -0.86535454 1.9050001 209 210 216 255
-0.79393816 -0.8652094 1.9050001 210 211 217 255
-0.78858423 -0.86506718 1.9050001 211 212 218 255
-0.78282356 -0.86447382 1.904 210 211 217 255
-0.77707273 -0.86388338 1.9030001 210 211 217 255
-0.77092594 -0.86284196 1.9010001 210 211 217 255
-0.76519704 -0.86225724 1.9000001 210 211 217 255
-0.76107758 -0.86349034 1.9030001 209 210 216 255
-0.75615072 -0.86381835 1.904 210 211 217 255
-0.75161642 -0.86460233 1.9060001 209 210 216 255
-0.74590015 -0.86402804 1.9050001 207 210 216 255
-0.74058157 -0.86390984 1.9050001 208 211 217 255
-0.73565274 -0.8642475 1.9060001 208 211 217 255
-0.72995526 -0.86368078 1.9050001 207 210 216 255
-0.7254079 -0.86447644 1.9070001 205 208 214 255
-0.71934241 -0.86346132 1.9050001 207 210 216 255
-0.71404088 -0.8633551 1.9050001 206 209 215 255
-0.70874256 -0.86325121 1.9050001 207 210 216 255
-0.70270872 -0.86224335 1.9030001 204 207 213 255
-0.69742197 -0.86214399 1.9030001 205 208 214 255
-0.69031966 -0.8597818 1.8980001 205 208 214 255
-0.68613547 -0.86104584 1.9010001 205 208 214 255
-0.6808629 -0.86095303 1.9010001 204 207 213 255
-0.67665929 -0.8622207 1.904 205 208 214 255
-0.67138392 -0.86213195 1.904 204 207 213 255
-0.66646105 -0.86249787 1.9050001 206 209 215 255
-0.66188222 -0.86331844 1.9070001 205 208 214 255
-0.65591764 -0.86233008 1.9050001 203 206 212 255
-0.65030813 -0.86179644 1.904 203 206 212 255
-0.64436764 -0.86081219 1.9020001 204 207 213 255
-0.63944882 -0.86118764 1.9030001 203 206 212 255
-0.63319349 -0.8597548 1.9000001 204 207 213 255
-0.62860948 -0.86058617 1.9020001 203 206 212 255
-0.62270576 -0.8596096 1.9000001 202 205 211 255
-0.61779004 -0.85999209 1.9010001 202 205 211 255
-0.61158198 -0.8585667 1.8980001 201 204 210 255
-0.605712 -0.85759556 1.8960001 200 203 209 255
-0.60017157 -0.85707855 1.8950001 201 204 210 255
-0.59463865 -0.85656303 1.8940001 202 205 211 255
-0.59004676 -0.85740608 1.8960001 200 203 209 255
-0.58452016 -0.85689378 1.8950001 201 204 210 255
-0.58022368 -0.85819179 1.8980001 199 202 208 255
-0.57621539 -0.85994327 1.9020001 201 204 210 255
-0.57218677 -0.86169595 1.9060001 199 202 208 255
-0.5660556 -0.86028534 1.9030001 199 202 208 255
-0.56023723 -0.85932845 1.9010001 198 201 207 255
-0.55589122 -0.86063313 1.904 198 201 207 255
-0.55066252 -0.86058307 1.904 197 200 206 255
-0.54543531 -0.86053431 1.904 198 201 207 255
-0.53992593 -0.86003506 1.9030001 198 201 207 255
-0.5335803 -0.8581813 1.899 196 199 205 255
-0.52781457 -0.85723287 1.8970001 197 200 206 255
-0.52261198 -0.85718942 1.8970001 197 200 206 255
-0.51904726 -0.85985839 1.9030001 197 200 206 255
-0.51437074 -0.86072081 1.9050001 194 197 203 255
-0.50914997 -0.86068094 1.9050001 193 196 202 255
-0.5026077 -0.8583833 1.9000001 195 198 204 255
-0.49635571 -0.85653859 1.8960001 195 198 204 255
-0.49090385 -0.85605043 1.8950001 192 195 201 255
-0.48571497 -0.85601526 1.8950001 193 196 202 255
-0.47925913 -0.85372251 1.8900001 192 195 201 255
-0.47383499 -0.85323769 1.8890001 193 196 202 255
-0.46816927 -0.85230225 1.8870001 190 193 199 255
-0.46251535 -0.85136801 1.8850001 187 190 196 255
-0.45517489 -0.84727323 1.876 191 194 200 255
-0.40749475 -0.84388387 1.8690001 174 175 179 255
-0.40518802 -0.84973222 1.8820001 158 160 162 255
-0.40302345 -0.85603261 1.8960001 165 167 169 255
-0.39910427 -0.85872144 1.9020001 182 184 186 255
-0.39411741 -0.85915357 1.9030001 186 188 190 255
-0.38953444 -0.86048925 1.9060001 188 189 193 255
-0.38392735 -0.85956836 1.904 184 187 191 255
-0.37793389 -0.85774523 1.9000001 185 188 194 255
-0.37137419 -0.85456854 1.8930001 184 187 193 255
-0.36659425 -0.8554554 1.8950001 184 187 193 255
-0.36199459 -0.8567943 1.8980001 183 186 192 255
-0.35737905 -0.85813391 1.9010001 184 187 191 255
-0.35182112 -0.85721684 1.899 185 188 192 255
-0.34682217 -0.85765463 1.9000001 183 186 190 255
-0.3410989 -0.85628736 1.8970001 184 187 191 255
-0.33592364 -0.8562749 1.8970001 183 186 190 255
-0.33005127 -0.85445738 1.8930001 184 187 191 255
-0.3255741 -0.85625148 1.8970001 183 186 190 255
-0.32073763 -0.85714316 1.899 183 186 192 255
-0.31622291 -0.85893804 1.9030001 183 186 192 255
-0.31119633 -0.85937935 1.904 184 187 191 255
-0.30632529 -0.86027241 1.9060001 184 187 191 255
-0.30144358 -0.86116588 1.9080001 181 187 190 255
-0.29655129 -0.86205983 1.9100001 182 185 189 255
-0.29119065 -0.86159998 1.909 182 185 189 255
-0.28523648 -0.85933542 1.904 180 183 187 255
-0.27916276 -0.85661989 1.8980001 180 183 187 255
-0.27341065 -0.85480732 1.8940001 179 182 186 255
-0.26853034 -0.85570318 1.8960001 180 183 187 255
-0.26377818 -0.8570506 1.899 181 183 185 255
-0.25860134 -0.8570444 1.899 181 183 185 255
-0.25289091 -0.85523343 1.8950001 180 184 186 255
-0.24759457 -0.85477656 1.8940001 180 184 186 255
-0.24268784 -0.85567397 1.8960001 176 182 184 255
-0.23789556 -0.85702282 1.899 178 184 186 255
-0.23235185 -0.85566437 1.8960001 177 183 185 255
-0.22718407 -0.8556599 1.8960001 176 182 184 255
-0.22213349 -0.856107 1.8970001 177 181 183 255
-0.21696322 -0.85610306 1.8970001 178 182 184 255
-0.21179304 -0.85609931 1.8970001 177 181 183 255
-0.20673189 -0.85654718 1.8980001 178 182 184 255
-0.20177153 -0.85744643 1.9000001 177 181 183 255
-0.19659348 -0.85744339 1.9000001 175 181 183 255
-0.19131473 -0.8569892 1.899 176 182 184 255
-0.1859435 -0.85608393 1.8970001 174 181 180 255
-0.18039265 -0.8542763 1.8930001 175 181 183 255
-0.17514136 -0.85382271 1.8920001 175 181 183 255
-0.17034483 -0.85562575 1.8960001 175 179 179 255
-0.1653523 -0.85652626 1.8980001 173 180 179 255
-0.16001134 -0.85562181 1.8960001 178 182 182 255
-0.154763 -0.85516882 1.8950001 176 180 180 255
-0.14967802 -0.85561836 1.8960001 174 181 178 255
-0.14466389 -0.85651946 1.8980001 176 183 180 255
-0.13949189 -0.85651809 1.8980001 175 180 177 255
-0.1343199 -0.85651678 1.8980001 172 179 176 255
-0.12907992 -0.8560642 1.8970001 172 179 176 255
-0.12364946 -0.85425812 1.8930001 173 180 179 255
-0.11830342 -0.85290337 1.8900001 174 181 180 255
-0.11333296 -0.85425627 1.8930001 173 180 177 255
-0.10828905 -0.85515797 1.8950001 173 180 179 255
-0.10323423 -0.85605973 1.8970001 173 180 177 255
-0.097961761 -0.85515642 1.8950001 173 180 177 255
-0.092749178 -0.85470456 1.8940001 173 180 179 255
-0.087680787 -0.85560656 1.8960001 172 179 178 255
-0.082601525 -0.85650855 1.8980001 170 177 174 255
-0.077429779 -0.85650814 1.8980001 174 181 178 255
-0.072181903 -0.85560524 1.8960001 172 179 176 255
-0.066944912 -0.85470229 1.8940001 171 178 175 255
-0.061947197 -0.85695827 1.899 172 179 176 255
-0.056653164 -0.85515296 1.8950001 172 179 176 255
-0.051435281 -0.85425007 1.8930001 170 177 174 255
-0.046228301 -0.8533473 1.891 175 182 179 255
-0.041162558 -0.85515219 1.8950001 172 179 176 255
-0.035999034 -0.85515201 1.8950001 171 178 177 255
-0.030786691 -0.85379809 1.8920001 172 179 176 255
-0.025658438 -0.85470051 1.8940001 172 179 176 255
-0.020508466 -0.85515171 1.8950001 175 182 178 255
-0.015336848 -0.85470033 1.8940001 172 179 175 255
-0.010176058 -0.85470033 1.8940001 173 180 176 255
-0.0050152652 -0.85470027 1.8940001 173 180 176 255
0.00014560207 -0.85515153 1.8950001 174 181 178 255
0.0053035147 -0.854249 1.8930001 173 180 177 255
0.010500267 -0.85740799 1.9000001 174 181 178 255
0.015677407 -0.85740799 1.9000001 175 182 179 255
0.020876503 -0.85831058 1.9020001 177 184 181 255
0.026017992 -0.85695684 1.899 176 183 180 255
0.031175986 -0.85650575 1.8980001 175 182 178 255
0.036347684 -0.85650587 1.8980001 174 181 177 255
0.041497514 -0.85605472 1.8970001 173 180 176 255
0.046691094 -0.85650623 1.8980001 174 181 177 255
0.051890124 -0.85695767 1.899 176 183 180 255
0.057154715 -0.85831177 1.9020001 177 184 181 255
0.062337335 -0.85831207 1.9020001 179 184 180 255
0.067519955 -0.85831243 1.9020001 178 183 179 255
0.072626151 -0.85741031 1.9000001 176 181 177 255
0.077721447 -0.85650814 1.8980001 178 183 179 255
0.082849525 -0.85605741 1.8970001 179 184 180 255
0.087972164 -0.85560668 1.8960001 178 183 179 255
0.093236737 -0.85650969 1.8980001 176 181 177 255
0.098356679 -0.85605907 1.8970001 174 179 175 255
0.10352576 -0.85605979 1.8970001 163 170 166 255
0.10852295 -0.85470665 1.8940001 160 166 159 255
0.11380395 -0.85561013 1.8960001 147 152 148 255
0.11909584 -0.85651356 1.8980001 143 148 144 255
0.12439869 -0.85741705 1.9000001 129 134 130 255
0.12950784 -0.85696685 1.899 119 124 120 255
0.13461159 -0.8565169 1.8980001 107 112 108 255
0.13970992 -0.85606688 1.8970001 101 104 100 255
0.14449732 -0.8538118 1.8920001 95 99 92 255
0.149653 -0.85381335 1.8920001 89 93 86 255
0.15448144 -0.85200989 1.8880001 82 86 79 255
0.15996452 -0.85381675 1.8920001 55 59 52 255
0.16512035 -0.85381871 1.8920001 51 55 48 255
0.17027622 -0.85382074 1.8920001 38 42 35 255
0.17496853 -0.85156649 1.8870001 33 37 30 255
0.18001544 -0.85111749 1.886 32 36 29 255
0.18554786 -0.85292524 1.8900001 30 34 27 255
0.1909003 -0.85383034 1.8920001 30 34 27 255
0.19626375 -0.85473585 1.8940001 28 32 25 255
0.20131914 -0.85428762 1.8930001 33 37 30 255
0.20658731 -0.85474223 1.8940001 33 37 30 255
0.21174921 -0.85474569 1.8940001 32 36 29 255
0.2167967 -0.85429811 1.8930001 31 35 28 255
0.22219057 -0.85520464 1.8950001 28 32 25 255
0.2268756 -0.85340357 1.891 30 34 26 255
0.23239788 -0.85476196 1.8940001 27 31 23 255
0.23743495 -0.8543154 1.8930001 29 33 25 255
0.24323559 -0.85657686 1.8980001 30 34 26 255
0.24814747 -0.85567951 1.8960001 33 37 29 255
0.25331584 -0.85568511 1.8960001 37 39 31 255
0.25821167 -0.85478824 1.8940001 38 40 32 255
0.26379207 -0.85614842 1.8970001 38 40 32 255
0.26896361 -0.85615486 1.8970001 39 41 31 255
0.27370188 -0.85480779 1.8940001 37 39 29 255
0.27768776 -0.85120428 1.886 43 45 37 255
0.28297991 -0.85166317 1.8870001 43 45 37 255
0.28781968 -0.85076845 1.8850001 45 46 40 255
0.29311499 -0.85122812 1.886 45 46 40 255
0.2979416 -0.85033405 1.8840001 46 47 41 255
0.30307925 -0.85034323 1.8840001 46 47 41 255
0.30838081 -0.85080415 1.8850001 47 46 40 255
0.31402075 -0.85216826 1.8880001 46 45 39 255
0.31984639 -0.85398418 1.8920001 43 45 35 255
0.32466346 -0.85309243 1.8900001 44 46 36 255
0.32929546 -0.85174978 1.8870001 45 47 37 255
0.33337969 -0.84905332 1.881 44 46 36 255
0.33869132 -0.84951717 1.8820001 45 47 37 255
0.34473956 -0.85178727 1.8870001 45 45 35 255
0.35118625 -0.85496056 1.8940001 49 49 39 255
0.35616639 -0.85452342 1.8930001 47 47 39 255
0.35999617 -0.85137814 1.886 46 46 38 255
0.36494988 -0.85094208 1.8850001 50 47 40 255
0.37048757 -0.85186082 1.8870001 48 46 36 255
0.37703198 -0.85503751 1.8940001 50 48 38 255
0.38200074 -0.85460335 1.8930001 49 47 37 255
0.38696456 -0.85416973 1.8920001 47 47 39 255
0.3906799 -0.85102808 1.8850001 50 47 40 255
0.39582741 -0.85104734 1.8850001 49 49 41 255
0.40118825 -0.85151875 1.886 49 46 39 255
0.40590885 -0.85063648 1.8840001 48 45 38 255
0.41040093 -0.84930342 1.881 50 47 40 255
0.4139936 -0.84616488 1.8740001 50 47 40 255
0.42023236 -0.84844542 1.8790001 48 45 38 255
0.42446178 -0.84666294 1.8750001 46 48 40 255
0.43073207 -0.84894532 1.8800001 44 44 34 255
0.43471196 -0.84671295 1.8750001 47 47 37 255
0.43960354 -0.84628749 1.8740001 47 47 37 255
0.45716384 -0.85043639 1.8830001 45 45 35 255
0.46280625 -0.8513698 1.8850001 44 44 34 255
0.46771568 -0.85094911 1.8840001 43 41 31 255
0.47337362 -0.85188442 1.886 44 42 32 255
0.48446873 -0.85330683 1.8890001 35 31 21 255
0.4880861 -0.85063159 1.8830001 35 31 20 255
0.49167165 -0.84795719 1.8770001 33 29 18 255
0.49601945 -0.84663904 1.8740001 33 29 18 255
0.50222391 -0.84848452 1.8780001 34 30 20 255
0.5084514 -0.85033125 1.8820001 40 36 26 255
0.51497495 -0.85263121 1.8870001 45 41 31 255
0.5207001 -0.8535769 1.8890001 47 43 33 255
0.52532399 -0.85271639 1.8870001 48 44 34 255
0.52768916 -0.84824175 1.8770001 49 45 34 255
0.53312349 -0.84873927 1.8780001 49 45 35 255
0.54114419 -0.85330564 1.8880001 48 46 36 255
0.54806364 -0.85606593 1.8940001 50 47 40 255
0.55180442 -0.85385579 1.8890001 50 48 38 255
0.55581409 -0.85209876 1.8850001 50 47 40 255
0.55980319 -0.85034287 1.881 50 48 38 255
0.56347156 -0.84813613 1.876 50 48 38 255
0.5692358 -0.8490954 1.8780001 49 47 37 255
0.57470685 -0.84960407 1.8790001 50 47 40 255
0.58203679 -0.85282743 1.886 52 47 41 255
0.58567053 -0.85062611 1.881 50 45 39 255
0.59461868 -0.85611439 1.8930001 50 45 39 255
0.59634668 -0.85120237 1.8820001 53 48 41 255
0.6050477 -0.8562423 1.8930001 55 50 43 255
0.61187714 -0.85857058 1.8980001 53 49 39 255
0.62231243 -0.86587697 1.914 53 49 39 255
0.62332928 -0.860066 1.9010001 52 50 40 255
0.62328452 -0.85289842 1.8850001 51 49 39 255
0.62582082 -0.84935135 1.8770001 52 50 40 255
0.63638347 -0.85666651 1.8930001 53 51 41 255
0.6466977 -0.86353207 1.9080001 52 50 40 255
0.64616281 -0.8559168 1.891 48 48 40 255
0.65104777 -0.85554469 1.8900001 53 50 43 255
0.66009641 -0.86060691 1.9010001 49 48 42 255
0.66640854 -0.86205006 1.904 50 47 41 255
0.67450362 -0.86575937 1.9120001 52 49 42 255
0.67020154 -0.85362172 1.8850001 53 50 43 255
0.67220223 -0.84963572 1.876 53 50 44 255
0.67487794 -0.84655684 1.8690001 55 50 43 255
0.6826117 -0.84982121 1.876 53 50 44 255
0.68598747 -0.8476519 1.8710001 51 48 42 255
0.69118541 -0.84774971 1.8710001 52 49 42 255
0.6971308 -0.84875607 1.8730001 51 49 39 255
0.70346528 -0.850218 1.876 51 51 41 255
0.7071752 -0.84850967 1.8720001 53 51 40 255
0.71353 -0.84997642 1.8750001 53 51 40 255
0.71913791 -0.85053903 1.876 53 51 40 255
0.72398263 -0.85019737 1.8750001 47 47 37 255
0.72882515 -0.84985787 1.8740001 33 33 25 255
0.73170692 -0.84725291 1.868 162 163 157 255
0.73100835 -0.84056705 1.853 153 156 152 255
0.73261327 -0.83660394 1.8440001 160 163 160 255
0.73457164 -0.83309591 1.8360001 159 162 159 255
0.73930907 -0.83276594 1.835 162 164 164 255
0.74039352 -0.82835358 1.825 161 163 163 255
0.74305981 -0.8257581 1.8190001 162 164 164 255
0.74528486 -0.82271039 1.812 168 170 172 255
