ply
format ascii 1.0
comment PCL generated
element vertex 960
property float x
property float y
property float z
property uchar red
property uchar green
property uchar blue
property uchar alpha
element camera 0
property float view_px
property float view_py
property float view_pz
property float x_axisx
property float x_axisy
property float x_axisz
property float y_axisx
property float y_axisy
property float y_axisz
property float z_axisx
property float z_axisy
property float z_axisz
property float focal
property float scalex
property float scaley
property float centerx
property float centery
property int viewportx
property int viewporty
property float k1
property float k2
end_header
0.76415312 -0.0073849424 1.6790001 189 193 193 255
0.76140934 -0.0073146326 1.6630001 190 197 196 255
0.75811976 -0.0072399434 1.646 192 196 196 255
0.7570563 -0.0071872659 1.6340001 193 197 197 255
0.75499731 -0.0071258089 1.6200001 188 195 194 255
0.75333285 -0.0070687686 1.6070001 189 196 195 255
0.75112808 -0.0070073465 1.5930001 193 200 199 255
0.75122041 -0.0069679371 1.5840001 193 200 199 255
0.74840397 -0.0069021522 1.5690001 191 198 197 255
0.74646729 -0.0068451823 1.5560001 193 200 199 255
0.74397933 -0.0067838295 1.5420001 196 200 200 255
0.74335825 -0.0067400928 1.5320001 194 198 198 255
0.74366069 -0.0067051714 1.524 194 198 198 255
0.74195915 -0.00665267 1.5120001 195 199 199 255
0.74216837 -0.0066177859 1.5040001 195 200 197 255
1.254853 -0.0080371154 1.7990001 209 213 213 255
-0.73363388 -0.014209363 1.9930001 165 172 151 255
-0.72531718 -0.014153142 1.9850001 163 168 147 255
-0.71595615 -0.014075542 1.9740001 164 171 150 255
-0.70917475 -0.014047868 1.9700001 165 172 151 255
-0.70098627 -0.013991684 1.9620001 166 173 151 255
-0.693905 -0.013956905 1.9570001 166 173 151 255
-0.68509144 -0.013886477 1.9470001 169 176 154 255
-0.67668158 -0.013823191 1.9380001 173 178 156 255
-0.66832024 -0.013759911 1.9290001 174 179 157 255
-0.66138279 -0.013725174 1.9240001 174 179 157 255
-0.65276718 -0.013654774 1.914 177 184 163 255
-0.64386737 -0.013577249 1.9030001 180 187 166 255
-0.63569814 -0.013513993 1.8940001 182 188 170 255
-0.62924224 -0.013486421 1.8900001 181 187 169 255
-0.62379849 -0.013480266 1.8890001 181 187 169 255
-0.61803252 -0.013466987 1.8870001 176 182 164 255
-0.61162752 -0.013439443 1.8830001 176 183 162 255
-0.60524386 -0.013411905 1.8790001 173 180 158 255
-0.59920108 -0.013391513 1.876 174 183 162 255
-0.59349084 -0.013378268 1.8740001 168 175 153 255
-0.58810514 -0.013372171 1.8730001 163 171 146 255
-0.58241314 -0.01335894 1.8710001 160 168 143 255
-0.57765728 -0.013367141 1.8720001 158 166 140 255
-0.57197809 -0.013353927 1.8700001 165 173 147 255
-0.56630915 -0.013340718 1.868 156 164 138 255
-0.56185246 -0.013356086 1.8700001 160 168 142 255
-0.55738431 -0.013371463 1.8720001 157 165 139 255
-0.55320001 -0.013393994 1.8750001 161 167 142 255
-0.54782951 -0.013387959 1.8740001 160 168 143 255
-0.5421741 -0.013374783 1.8720001 155 163 138 255
-0.53624207 -0.013354465 1.8690001 153 161 136 255
-0.5308941 -0.013348443 1.868 161 169 144 255
-0.52583241 -0.013349571 1.868 164 172 147 255
-0.52049124 -0.013343557 1.8670001 154 162 137 255
-0.51598299 -0.013358988 1.8690001 150 156 131 255
-0.51118976 -0.013367277 1.8700001 142 150 125 255
-0.50584918 -0.013361272 1.8690001 147 155 130 255
-0.5005132 -0.013355271 1.868 161 168 146 255
-0.49491665 -0.01334212 1.8660001 164 171 149 255
-0.4898552 -0.013343273 1.8660001 148 155 133 255
-0.48479286 -0.013344424 1.8660001 163 170 148 255
-0.47998694 -0.013352731 1.8670001 167 174 152 255
-0.47466585 -0.013346734 1.8660001 167 177 154 255
-0.46934935 -0.013340737 1.8650001 175 184 163 255
-0.46304172 -0.013306125 1.8600001 172 181 162 255
-0.457499 -0.01329297 1.858 178 189 170 255
-0.4514792 -0.013265501 1.8540001 179 190 171 255
-0.44644341 -0.013266648 1.8540001 188 197 178 255
-0.43997824 -0.013224857 1.848 188 197 176 255
-0.43425086 -0.013204529 1.845 185 192 170 255
-0.42784086 -0.013162722 1.8390001 178 186 161 255
-0.42261222 -0.013156696 1.8380001 159 169 146 255
-0.41693363 -0.013136349 1.835 176 186 163 255
-0.41194388 -0.013137474 1.835 152 163 142 255
-0.40628785 -0.013117115 1.8320001 155 167 144 255
-0.40130433 -0.013118231 1.8320001 147 159 136 255
-0.39610353 -0.013112181 1.8310001 149 159 134 255
-0.39133441 -0.013120451 1.8320001 149 157 131 255
-0.38634795 -0.013121554 1.8320001 142 150 124 255
-0.3815687 -0.013129815 1.8330001 130 138 112 255
-0.37678301 -0.013138073 1.8340001 171 179 153 255
-0.37199083 -0.013146323 1.835 142 148 122 255
-0.36739227 -0.013161737 1.8370001 126 134 108 255
-0.36258441 -0.013169978 1.8380001 128 135 106 255
-0.35738114 -0.013163885 1.8370001 139 146 115 255
-0.35256594 -0.013172116 1.8380001 142 149 118 255
-0.34793332 -0.013187507 1.84 142 151 122 255
-0.34328881 -0.013202894 1.8420001 140 147 116 255
-0.33844873 -0.013211106 1.8430001 135 142 111 255
-0.33360219 -0.013219311 1.8440001 138 145 114 255
-0.32839286 -0.013213171 1.8430001 132 139 108 255
-0.32318795 -0.013207021 1.8420001 139 146 115 255
-0.31816024 -0.013208031 1.8420001 151 158 127 255
-0.31347153 -0.013223372 1.8440001 141 148 119 255
-0.3091054 -0.013253049 1.848 121 128 97 255
-0.30488098 -0.013289893 1.853 120 125 94 255
-0.3007901 -0.013333906 1.8590001 126 131 100 255
-0.29634723 -0.013363565 1.863 123 128 97 255
-0.29203793 -0.013400394 1.868 118 123 92 255
-0.28770033 -0.013437215 1.8730001 117 121 95 255
-0.28333437 -0.013474032 1.8780001 50 55 33 255
-0.27819943 -0.013474964 1.8780001 27 31 13 255
-0.27306354 -0.013475884 1.8780001 18 22 5 255
-0.26764137 -0.013462438 1.876 25 26 12 255
-0.26250905 -0.013463332 1.876 23 24 10 255
-0.25723863 -0.013457038 1.8750001 25 24 10 255
-0.25251058 -0.013479438 1.8780001 22 23 9 255
-0.2477652 -0.013501827 1.881 24 25 11 255
-0.24261555 -0.01350267 1.881 21 24 12 255
-0.23733875 -0.013496321 1.8800001 38 41 29 255
-0.23194304 -0.013482776 1.8780001 71 75 67 255
-0.22667821 -0.013476396 1.8770001 78 82 74 255
-0.22106391 -0.013448461 1.8730001 91 97 90 255
-0.21570125 -0.013434866 1.8710001 98 104 97 255
-0.21034874 -0.013421255 1.8690001 75 81 74 255
-0.20500642 -0.01340763 1.8670001 84 90 83 255
-0.19978128 -0.013401167 1.8660001 79 85 78 255
-0.1945609 -0.013394688 1.8650001 96 102 95 255
-0.18954836 -0.013402558 1.8660001 88 94 87 255
-0.18443078 -0.013403229 1.8660001 78 84 77 255
-0.17950465 -0.013418253 1.868 71 77 70 255
-0.17438012 -0.013418893 1.868 71 75 68 255
-0.16943614 -0.013433886 1.8700001 75 79 72 255
-0.16412902 -0.013420124 1.868 83 87 80 255
-0.15908757 -0.013427898 1.8690001 78 82 74 255
-0.15412235 -0.01344284 1.8710001 75 81 73 255
-0.14970295 -0.013508066 1.8800001 70 75 64 255
-0.14507972 -0.013558904 1.8870001 67 72 61 255
-0.13989852 -0.01355943 1.8870001 68 73 61 255
-0.13443114 -0.013531194 1.8830001 68 73 61 255
-0.12919115 -0.013524498 1.8820001 73 78 66 255
-0.12408788 -0.013532155 1.8830001 76 81 70 255
-0.11904176 -0.013546982 1.8850001 74 79 68 255
-0.11398413 -0.01356179 1.8870001 71 75 67 255
-0.10885739 -0.013569394 1.8880001 70 76 68 255
-0.10361487 -0.013562606 1.8870001 68 74 66 255
-0.098638199 -0.013591734 1.891 84 91 80 255
-0.093589723 -0.013613658 1.8940001 69 75 67 255
-0.088524371 -0.013635566 1.8970001 67 73 65 255
-0.083178632 -0.013614325 1.8940001 69 74 63 255
-0.077931367 -0.013607442 1.8930001 75 80 69 255
-0.072766103 -0.013614916 1.8940001 70 76 68 255
-0.067595027 -0.013622371 1.8950001 73 79 71 255
-0.06251692 -0.013651373 1.899 74 81 70 255
-0.057446718 -0.013687545 1.904 73 80 69 255
-0.052321352 -0.01371651 1.9080001 66 71 60 255
-0.047001049 -0.01369513 1.9050001 69 74 63 255
-0.041697044 -0.013673733 1.9020001 73 78 67 255
-0.036466878 -0.013673881 1.9020001 71 76 65 255
-0.031285819 -0.013695579 1.9050001 73 75 67 255
-0.026060775 -0.013702879 1.9060001 75 77 67 255
-0.020830115 -0.013710155 1.9070001 74 79 68 255
-0.015585695 -0.013710225 1.9070001 73 78 67 255
-0.010346627 -0.013717465 1.9080001 73 78 66 255
-0.0051046875 -0.013731873 1.9100001 68 73 61 255
0.0001485078 -0.01376783 1.9150001 69 74 62 255
0.0054263771 -0.013796578 1.9190001 70 75 61 255
0.010709489 -0.013803736 1.9200001 70 75 61 255
0.015989728 -0.013803685 1.9200001 69 74 60 255
0.021280976 -0.013810803 1.9210001 70 75 61 255
0.026591454 -0.01382509 1.9230001 68 73 59 255
0.031896241 -0.013832168 1.9240001 71 76 64 255
0.037225712 -0.013846414 1.9260001 69 74 62 255
0.042588107 -0.01386783 1.9290001 74 79 68 255
0.048066117 -0.013917981 1.9360001 71 76 65 255
0.053472109 -0.013939356 1.9390001 70 75 63 255
0.058894362 -0.013960707 1.9420002 72 77 65 255
0.064200558 -0.013953286 1.9410001 72 77 65 255
0.069608442 -0.013967408 1.9430001 74 79 65 255
0.074911296 -0.013959946 1.9420002 73 78 64 255
0.080249667 -0.013959653 1.9420002 72 77 63 255
0.085587688 -0.01395934 1.9420002 73 78 66 255
0.090925336 -0.013959005 1.9420002 72 77 66 255
0.096460864 -0.013987403 1.9460001 68 73 62 255
0.10191334 -0.014001405 1.9480001 71 75 67 255
0.10748651 -0.014029763 1.9520001 71 76 65 255
0.11273431 -0.014014975 1.95 69 74 63 255
0.11803121 -0.014007356 1.9490001 68 73 61 255
0.12332211 -0.013999718 1.9480001 69 74 63 255
0.12873913 -0.014006437 1.9490001 73 78 66 255
0.1342987 -0.014027506 1.9520001 70 75 64 255
0.13980263 -0.01404137 1.9540001 72 74 64 255
0.14531696 -0.014055214 1.9560001 74 76 66 255
0.15061054 -0.014047481 1.955 71 76 65 255
0.15589803 -0.014039732 1.9540001 73 77 69 255
0.16126192 -0.01403915 1.9540001 76 81 70 255
0.16679569 -0.014052919 1.9560001 73 78 67 255
0.17225175 -0.014059485 1.9570001 74 79 68 255
0.17780335 -0.014073214 1.9590001 73 75 65 255
0.18345873 -0.014094112 1.9620001 78 80 70 255
0.18922606 -0.014122169 1.9660001 77 79 69 255
0.1952126 -0.014164575 1.9720001 77 79 69 255
0.20112953 -0.014199777 1.9770001 70 74 66 255
0.20707309 -0.014234958 1.9820001 72 74 64 255
0.21261437 -0.01424139 1.983 73 75 65 255
0.21805038 -0.014240625 1.983 73 75 65 255
0.22314744 -0.014218302 1.9800001 70 75 64 255
0.22811171 -0.014188781 1.9760001 69 74 62 255
0.2331714 -0.014166431 1.973 68 73 61 255
0.23833472 -0.014151246 1.9710001 67 72 61 255
0.24373347 -0.014150405 1.9710001 74 79 68 255
0.24938414 -0.014163909 1.973 76 78 68 255
0.25543225 -0.014198931 1.978 73 78 67 255
0.26111111 -0.014212399 1.9800001 71 75 67 255
0.26666546 -0.014218674 1.9810001 71 75 67 255
0.27194959 -0.014210581 1.9800001 74 78 70 255
0.27806777 -0.014245532 1.9850001 77 81 73 255
0.28506923 -0.014323522 1.9960001 77 81 73 255
0.62287408 -0.014279937 2 75 81 74 255
0.62734479 -0.014257397 1.9970001 78 84 77 255
0.63116521 -0.014220594 1.9920001 76 82 75 255
0.63559723 -0.014198083 1.9890001 78 82 75 255
0.64097947 -0.014197 1.9890001 88 89 83 255
0.64571154 -0.014181657 1.9870001 17 19 11 255
0.65076017 -0.014173462 1.9860001 26 28 18 255
0.65382099 -0.014122466 1.9790001 25 28 16 255
0.65817595 -0.014100031 1.9760001 22 25 11 255
0.66318619 -0.014091885 1.9750001 22 25 11 255
0.66751385 -0.014069484 1.9720001 22 25 11 255
0.67114288 -0.014032831 1.9670001 21 24 10 255
0.6747449 -0.013996201 1.9620001 21 24 10 255
0.68005276 -0.013995253 1.9620001 22 25 11 255
0.68536079 -0.013994323 1.9620001 20 23 9 255
0.69102097 -0.014000542 1.9630001 20 23 9 255
0.69668657 -0.014006776 1.9640001 22 23 9 255
0.70164305 -0.013998765 1.9630001 20 23 9 255
0.70659423 -0.013990772 1.9620001 20 23 9 255
0.71154028 -0.013982798 1.9610001 22 23 9 255
0.71977133 -0.014039015 1.9690001 22 23 9 255
0.73099202 -0.014152281 1.9850001 20 23 9 255
0.73933202 -0.01420852 1.9930001 17 20 6 255
0.74435264 -0.014200613 1.9920001 35 40 26 255
0.74560475 -0.014121444 1.9810001 58 65 53 255
0.74641883 -0.014035179 1.9690001 85 94 82 255
0.74869549 -0.013977452 1.9610001 104 112 104 255
0.7505452 -0.013912628 1.9520001 138 146 139 255
0.75350845 -0.013869214 1.9460001 148 155 151 255
0.75643992 -0.013825824 1.9400001 152 159 155 255
0.75855446 -0.013768211 1.932 157 164 160 255
0.75904524 -0.013682124 1.9200001 159 166 162 255
0.75787967 -0.013567562 1.904 162 169 166 255
0.7586323 -0.013488664 1.8930001 164 171 168 255
0.75972956 -0.013416921 1.8830001 164 171 167 255
0.75955516 -0.013323832 1.8700001 169 176 173 255
0.75849366 -0.013216527 1.8550001 172 179 176 255
0.75735188 -0.013109253 1.84 173 180 177 255
0.75861603 -0.013044761 1.8310001 176 183 180 255
0.76066643 -0.012994546 1.8240001 176 183 180 255
0.76184082 -0.012930112 1.8150001 176 183 182 255
0.76212275 -0.012851462 1.8040001 179 186 185 255
0.76192117 -0.012765718 1.7920001 181 188 187 255
0.76465118 -0.012729871 1.7870001 182 189 186 255
0.76692492 -0.012686931 1.7810001 183 190 187 255
0.76830107 -0.012629773 1.7730001 181 188 185 255
0.76789105 -0.012544153 1.761 184 191 188 255
0.76829505 -0.012472813 1.751 184 191 190 255
0.76599753 -0.012358764 1.7350001 185 192 191 255
0.76361448 -0.012244744 1.7190001 185 192 191 255
0.76472187 -0.012187743 1.7110001 186 192 194 255
0.76668692 -0.012145018 1.705 187 193 195 255
0.76816887 -0.012095202 1.6980001 186 193 192 255
0.76597369 -0.01198843 1.6830001 188 195 194 255
0.76369876 -0.011881689 1.6680001 188 195 194 255
0.76042289 -0.01176073 1.651 190 194 194 255
0.75890964 -0.011668295 1.6380001 191 195 195 255
0.75732774 -0.011575891 1.6250001 186 193 192 255
0.75755203 -0.011512008 1.6160001 188 195 194 255
0.75631499 -0.011426786 1.6040001 190 197 196 255
0.75501472 -0.011341593 1.5920001 191 198 197 255
0.75031215 -0.011206558 1.5730001 193 200 199 255
0.74838644 -0.011114296 1.5600001 193 200 199 255
0.74590963 -0.011014937 1.5460001 192 196 196 255
0.74626994 -0.010958356 1.5380001 194 199 196 255
0.74414909 -0.010866176 1.5250001 192 197 194 255
0.7444132 -0.010809654 1.5170001 194 199 196 255
0.74266231 -0.010724657 1.5050001 194 201 198 255
1.2743884 -0.013218767 1.8270001 208 212 212 255
-0.74013931 -0.019673264 1.9960001 163 169 151 255
-0.72884756 -0.019516658 1.9800001 162 169 148 255
-0.72056597 -0.019438922 1.9720001 163 168 147 255
-0.71124011 -0.01933163 1.9610001 162 169 148 255
-0.70413387 -0.019283503 1.9560001 161 167 149 255
-0.6956259 -0.019195957 1.9470001 164 171 150 255
-0.68858528 -0.019147865 1.9420002 167 174 153 255
-0.67981231 -0.019050488 1.932 168 175 153 255
-0.67144293 -0.018962981 1.9230001 168 175 153 255
-0.66346872 -0.018885348 1.9150001 177 184 162 255
-0.6576004 -0.0188669 1.9130001 178 185 163 255
-0.64969671 -0.018789291 1.9050001 183 190 169 255
-0.64082116 -0.0186821 1.8940001 180 187 166 255
-0.6336832 -0.018624237 1.8880001 180 186 168 255
-0.62724352 -0.018586112 1.8840001 181 187 169 255
-0.62181604 -0.018577598 1.8830001 181 187 169 255
-0.61606622 -0.018559232 1.881 174 183 164 255
-0.61000222 -0.018531015 1.8780001 177 186 165 255
-0.6039542 -0.018502807 1.8750001 162 171 150 255
-0.59792227 -0.018474614 1.8720001 158 167 146 255
-0.59253955 -0.018466165 1.8710001 160 171 140 255
-0.58716196 -0.018457733 1.8700001 156 163 141 255
-0.58147806 -0.018439438 1.868 157 164 142 255
-0.57673025 -0.018450772 1.8690001 156 164 139 255
-0.57105923 -0.0184325 1.8670001 162 170 144 255
-0.56600475 -0.018433986 1.8670001 162 170 144 255
-0.5609498 -0.018435482 1.8670001 159 166 137 255
-0.55678761 -0.018466612 1.8700001 158 167 138 255
-0.55231351 -0.018487884 1.8720001 164 170 144 255
-0.54665881 -0.018469658 1.8700001 164 170 144 255
-0.54101431 -0.018451441 1.868 154 163 134 255
-0.53566688 -0.018443102 1.8670001 156 165 136 255
-0.5303244 -0.018434774 1.8660001 155 162 133 255
-0.52498657 -0.018426452 1.8650001 153 160 131 255
-0.5202111 -0.018437894 1.8660001 167 174 145 255
-0.51570559 -0.018459227 1.868 159 163 145 255
-0.51064169 -0.018460801 1.868 152 160 135 255
-0.50530648 -0.018452499 1.8670001 143 151 125 255
-0.50024384 -0.018454084 1.8670001 163 172 153 255
-0.49438486 -0.018426018 1.8640001 172 182 159 255
-0.48932877 -0.018427607 1.8640001 167 177 154 255
-0.48375225 -0.018409424 1.8620001 173 183 160 255
-0.47921428 -0.018430792 1.8640001 174 184 161 255
-0.47364697 -0.018412609 1.8620001 175 185 160 255
-0.46758637 -0.018374646 1.858 184 194 171 255
-0.46079984 -0.018307004 1.8510001 177 186 165 255
-0.4552815 -0.018288808 1.8490001 174 185 166 255
-0.44904268 -0.018240932 1.8440001 170 181 162 255
-0.44379324 -0.018232616 1.8430001 177 188 169 255
-0.43735799 -0.018174831 1.8370001 176 187 168 255
-0.43189579 -0.01815661 1.835 166 175 154 255
-0.42621094 -0.018128488 1.8320001 163 170 148 255
-0.42100134 -0.018120151 1.8310001 172 179 157 255
-0.41556904 -0.018101912 1.8290001 174 181 159 255
-0.41037115 -0.018093564 1.8280001 170 180 155 255
-0.40517765 -0.018085208 1.8270001 164 174 149 255
-0.40020779 -0.018086748 1.8270001 163 173 148 255
-0.39502057 -0.018078379 1.8260001 163 172 143 255
-0.38983783 -0.018070003 1.825 162 171 142 255
-0.38444862 -0.018051716 1.8230001 161 169 143 255
-0.37969393 -0.01806313 1.8240001 158 166 140 255
-0.37472728 -0.018064633 1.8240001 162 170 144 255
-0.36955693 -0.018056225 1.8230001 154 162 136 255
-0.36499101 -0.018077523 1.825 147 156 127 255
-0.36041322 -0.018098816 1.8270001 141 150 119 255
-0.35582352 -0.018120101 1.8290001 143 150 119 255
-0.35083824 -0.018121565 1.8290001 144 151 120 255
-0.34660843 -0.018162655 1.8330001 141 148 117 255
-0.34216934 -0.01819383 1.8360001 130 137 106 255
-0.33752927 -0.018215088 1.8380001 131 138 107 255
-0.33251551 -0.018216517 1.8380001 130 137 106 255
-0.32750073 -0.018217934 1.8380001 121 128 97 255
-0.32248488 -0.018219339 1.8380001 133 140 109 255
-0.31764084 -0.018230645 1.8390001 149 156 125 255
-0.31296033 -0.018251855 1.8410001 132 139 108 255
-0.30826789 -0.018273052 1.8430001 130 137 106 255
-0.30356357 -0.018294239 1.845 125 132 101 255
-0.29900908 -0.018325329 1.848 113 118 87 255
-0.29475543 -0.018376246 1.853 116 121 90 255
-0.29062977 -0.018437071 1.8590001 123 127 99 255
-0.28647035 -0.018497888 1.8650001 120 124 98 255
-0.28197539 -0.018538862 1.8690001 76 81 59 255
-0.27730954 -0.018569905 1.8720001 70 74 56 255
-0.27204466 -0.018561251 1.8710001 24 28 11 255
-0.26706967 -0.018572424 1.8720001 40 43 29 255
-0.26194829 -0.018573657 1.8720001 38 41 27 255
-0.2566888 -0.018564947 1.8710001 28 30 13 255
-0.25197172 -0.018595913 1.8740001 16 20 3 255
-0.24697389 -0.018607019 1.8750001 18 21 7 255
-0.24184066 -0.018608179 1.8750001 21 24 10 255
-0.23683275 -0.018619245 1.876 37 42 30 255
-0.23157156 -0.018610446 1.8750001 78 85 74 255
-0.22643574 -0.018611547 1.8750001 66 72 64 255
-0.22070891 -0.018562999 1.8700001 93 99 92 255
-0.21523923 -0.018534275 1.8670001 87 93 86 255
-0.20978515 -0.018505527 1.8640001 80 86 78 255
-0.20445652 -0.018486684 1.8620001 76 82 74 255
-0.19924513 -0.018477749 1.8610001 77 83 75 255
-0.19403848 -0.018468792 1.8600001 98 104 97 255
-0.18883651 -0.018459808 1.8590001 89 95 88 255
-0.18383697 -0.018470662 1.8600001 74 80 73 255
-0.17902341 -0.018501358 1.863 71 77 70 255
-0.17400599 -0.018512173 1.8640001 69 75 67 255
-0.16898237 -0.018522967 1.8650001 71 75 67 255
-0.16368897 -0.018503936 1.863 78 82 74 255
-0.15866129 -0.018514683 1.8640001 78 82 74 255
-0.1537098 -0.018535338 1.8660001 82 86 78 255
-0.1491449 -0.018605644 1.8730001 73 78 67 255
-0.14461778 -0.018685859 1.881 68 73 62 255
-0.1396755 -0.018716387 1.8840001 68 73 61 255
-0.13443056 -0.018707156 1.8830001 67 72 60 255
-0.12912191 -0.018687962 1.881 67 72 60 255
-0.12395553 -0.018688612 1.881 72 77 66 255
-0.11885176 -0.018699171 1.8820001 71 76 65 255
-0.11374202 -0.01870971 1.8830001 69 73 65 255
-0.10868394 -0.018730156 1.8850001 68 74 67 255
-0.10350458 -0.018730706 1.8850001 68 74 66 255
-0.09848129 -0.018761043 1.8880001 83 89 81 255
-0.093441077 -0.018791353 1.891 68 74 66 255
-0.088430643 -0.018831575 1.8950001 65 71 63 255
-0.083178267 -0.018822085 1.8940001 68 73 62 255
-0.077889845 -0.01880263 1.8920001 72 76 68 255
-0.07272736 -0.018812962 1.8930001 71 77 69 255
-0.067487709 -0.018803392 1.8920001 74 78 70 255
-0.062417876 -0.018843487 1.8960001 74 79 68 255
-0.057355944 -0.018893495 1.9010001 71 76 65 255
-0.052266274 -0.018943477 1.9060001 65 70 59 255
-0.046951491 -0.018913919 1.9030001 68 73 62 255
-0.041674934 -0.018894276 1.9010001 72 77 66 255
-0.03646671 -0.01890442 1.9020001 73 77 69 255
-0.031269252 -0.018924477 1.904 70 74 66 255
-0.026019635 -0.018914688 1.9030001 69 74 63 255
-0.020797253 -0.018924752 1.904 67 72 61 255
-0.015561106 -0.018924849 1.904 69 74 63 255
-0.010341158 -0.018954735 1.9070001 70 75 64 255
-0.0051019914 -0.018974656 1.909 71 76 64 255
0.00014850711 -0.019034306 1.9150001 69 74 62 255
0.005420696 -0.019054169 1.9170001 67 72 58 255
0.010698285 -0.019064067 1.9180001 66 72 55 255
0.015973 -0.019063998 1.9180001 72 76 59 255
0.021280877 -0.019093717 1.9210001 72 76 59 255
0.026577504 -0.019103531 1.9220001 69 72 58 255
0.031846363 -0.019093437 1.9210001 71 74 60 255
0.037128903 -0.019093255 1.9210001 72 77 63 255
0.042477522 -0.019122863 1.9240001 72 77 66 255
0.047941763 -0.019192198 1.9310001 71 76 64 255
0.053389136 -0.019241627 1.9360001 71 76 64 255
0.05886377 -0.019291025 1.9410001 72 77 65 255
0.06423334 -0.019300643 1.9420002 74 79 67 255
0.0695723 -0.019300289 1.9420002 70 75 61 255
0.074795246 -0.019270098 1.9390001 73 78 64 255
0.080084011 -0.019259753 1.9380001 73 78 64 255
0.08545509 -0.01926926 1.9390001 75 80 66 255
0.090971746 -0.01930855 1.9430001 74 79 67 255
0.096460447 -0.019337874 1.9460001 70 75 64 255
0.10191289 -0.019357231 1.9480001 75 77 67 255
0.10732082 -0.019366624 1.9490001 74 76 66 255
0.11256038 -0.019346181 1.9470001 71 73 63 255
0.11790958 -0.019345585 1.9470001 70 75 63 255
0.12332156 -0.019354898 1.9480001 73 78 66 255
0.12880462 -0.019374123 1.95 70 75 63 255
0.13422929 -0.01938338 1.9510001 68 73 61 255
0.13965891 -0.019392613 1.9520001 71 73 63 255
0.14516774 -0.019411756 1.9540001 75 77 67 255
0.1506099 -0.019420933 1.955 75 77 67 255
0.15597713 -0.019420153 1.955 75 77 69 255
0.1612612 -0.019409414 1.9540001 74 76 66 255
0.16670969 -0.019418519 1.955 74 76 66 255
0.17233901 -0.019447461 1.9580001 71 73 63 255
0.17789334 -0.019466443 1.96 73 75 65 255
0.18364494 -0.019505262 1.9640001 76 79 67 255
0.189514 -0.019553985 1.9690001 78 81 69 255
0.19540974 -0.019602681 1.9740001 72 74 64 255
0.20092522 -0.019611627 1.9750001 71 76 65 255
0.20665428 -0.019640407 1.978 71 76 65 255
0.21239905 -0.019669162 1.9810001 70 75 64 255
0.21804942 -0.01968796 1.983 71 76 65 255
0.2230338 -0.01964717 1.9790001 71 76 65 255
0.22822621 -0.019626215 1.9770001 67 72 61 255
0.23328862 -0.019595312 1.9740001 68 73 62 255
0.23845465 -0.01957432 1.9720001 68 73 62 255
0.24360882 -0.019553309 1.9700001 73 78 67 255
0.24887753 -0.019542202 1.9690001 73 78 67 255
0.25478551 -0.019580698 1.973 72 77 66 255
0.26045072 -0.019599322 1.9750001 73 78 67 255
0.26599133 -0.019608 1.9760001 74 79 68 255
0.27139908 -0.019606737 1.9760001 75 80 68 255
0.27778643 -0.019674905 1.983 74 79 67 255
0.28506806 -0.019802572 1.9960001 75 80 68 255
0.61745918 -0.019743914 2 78 84 77 255
0.62224996 -0.019722613 1.9980001 75 81 74 255
0.62702936 -0.019701323 1.9960001 73 79 72 255
0.63148075 -0.019670183 1.9930001 74 80 73 255
0.63591546 -0.01963906 1.9900001 76 82 75 255
0.64130044 -0.019637562 1.9900001 77 81 74 255
0.64636016 -0.019626215 1.9890001 49 51 43 255
0.65141428 -0.019614886 1.988 21 23 13 255
0.65348935 -0.019514782 1.978 27 28 16 255
0.65817469 -0.019493634 1.9760001 27 28 14 255
0.663185 -0.019482372 1.9750001 24 25 11 255
0.66785115 -0.019461265 1.973 25 26 12 255
0.67216539 -0.019430321 1.9700001 19 22 8 255
0.67680717 -0.019409262 1.9680001 20 23 9 255
0.68282455 -0.019427674 1.9700001 19 22 8 255
0.68640769 -0.019377079 1.9650002 20 23 9 255
0.69172388 -0.019375814 1.9650002 19 22 8 255
0.69845927 -0.019414013 1.9690001 20 23 11 255
0.70307171 -0.019393075 1.9670001 20 23 11 255
0.7080338 -0.019382022 1.9660001 19 22 10 255
0.71262789 -0.019361138 1.9640001 19 22 10 255
0.72525358 -0.019557146 1.9840001 19 22 8 255
0.73614663 -0.019703876 1.9990001 17 20 6 255
0.74192774 -0.019712625 2 24 27 13 255
0.74509913 -0.019652415 1.9940001 46 51 37 255
0.74598032 -0.019533107 1.9820001 60 67 55 255
0.74717611 -0.019423695 1.9710001 90 99 88 255
0.74984008 -0.019353744 1.9640001 109 117 110 255
0.75285143 -0.019293683 1.9580001 143 151 144 255
0.75621814 -0.01924351 1.9530001 147 155 148 255
0.75682914 -0.019124407 1.9410001 152 159 155 255
0.75894648 -0.019044757 1.9330001 155 162 158 255
0.75943989 -0.018925736 1.9210001 158 165 161 255
0.75986928 -0.018806759 1.909 163 170 167 255
0.76063538 -0.018697679 1.8980001 162 169 166 255
0.7605359 -0.01856894 1.8850001 165 172 169 255
0.75996077 -0.018430391 1.8710001 168 175 172 255
0.75808424 -0.018262338 1.8540001 172 179 178 255
0.75858623 -0.018153433 1.8430001 174 181 178 255
0.76068711 -0.018083969 1.8360001 175 182 179 255
0.76316822 -0.018024392 1.83 174 181 178 255
0.76351947 -0.017915614 1.8190001 176 183 180 255
0.76254481 -0.017777327 1.8050001 177 184 181 255
0.76234609 -0.017658789 1.7930001 180 187 184 255
0.76507884 -0.017609227 1.7880001 183 190 187 255
0.76692474 -0.017540015 1.7810001 182 189 186 255
0.76700085 -0.017431449 1.7700001 184 191 188 255
0.76571065 -0.017293384 1.756 182 189 186 255
0.76741743 -0.017224299 1.7490001 183 190 189 255
0.76732183 -0.017115863 1.738 184 191 190 255
0.76627976 -0.016987775 1.725 185 192 191 255
0.76650965 -0.016889272 1.715 186 193 192 255
0.76713663 -0.016800661 1.7060001 188 195 194 255
0.76771653 -0.016712094 1.697 185 192 191 255
0.76551861 -0.016564479 1.682 186 193 192 255
0.76324099 -0.016416905 1.6670001 188 195 194 255
0.76180482 -0.016289072 1.654 191 195 195 255
0.76168978 -0.016190825 1.6440001 190 194 194 255
0.76245433 -0.016112315 1.636 187 194 193 255
0.76177138 -0.016004305 1.6250001 188 195 194 255
0.7596159 -0.015866786 1.6110001 187 194 193 255
0.75691205 -0.015719458 1.5960001 180 187 186 255
0.75365156 -0.015562321 1.58 171 178 177 255
0.75126535 -0.01542492 1.5660001 173 180 177 255
0.74928737 -0.015297406 1.5530001 191 198 195 255
0.7472409 -0.015169932 1.5400001 191 198 194 255
0.74512559 -0.015042494 1.5270001 192 199 196 255
0.74441385 -0.014944647 1.5170001 193 200 197 255
0.74463677 -0.014866544 1.5090001 193 200 197 255
1.2660074 -0.01808336 1.807 210 214 214 255
-0.75244856 -0.025164166 2 160 166 149 255
-0.74329948 -0.02503968 1.9900001 162 168 150 255
-0.73420501 -0.024915213 1.9800001 162 167 145 255
-0.7229566 -0.024715263 1.9640001 163 168 147 255
-0.71544909 -0.024641177 1.9580001 165 170 149 255
-0.70688647 -0.02452936 1.9490001 163 170 149 255
-0.69945276 -0.02445532 1.9430001 163 169 151 255
-0.69062269 -0.024330955 1.9330001 165 172 151 255
-0.68326527 -0.024256954 1.927 168 175 154 255
-0.6752367 -0.0241578 1.9190001 171 178 157 255
-0.66690236 -0.024046067 1.9100001 177 184 163 255
-0.66034919 -0.023997305 1.9060001 178 185 164 255
-0.65347391 -0.02393597 1.9010001 183 190 169 255
-0.6459437 -0.023849469 1.8940001 181 188 167 255
-0.6381129 -0.023750387 1.886 181 187 169 255
-0.63133228 -0.023689099 1.881 179 188 169 255
-0.62491149 -0.023640417 1.8770001 179 185 167 255
-0.61884236 -0.023604348 1.8740001 176 183 162 255
-0.61344457 -0.023593493 1.8730001 174 181 160 255
-0.60805178 -0.02358265 1.8720001 151 160 139 255
-0.60298634 -0.023584427 1.8720001 152 161 140 255
-0.59760123 -0.023573626 1.8710001 159 168 149 255
-0.5922212 -0.023562841 1.8700001 161 170 149 255
-0.58684629 -0.023552071 1.8690001 165 174 155 255
-0.58147639 -0.023541316 1.868 168 177 156 255
-0.57642007 -0.023543181 1.868 150 160 137 255
-0.5710575 -0.023532458 1.8670001 156 164 139 255
-0.56509358 -0.023496535 1.8640001 157 167 144 255
-0.56004673 -0.023498438 1.8640001 157 165 140 255
-0.55559492 -0.023525573 1.8660001 149 157 132 255
-0.55113161 -0.023552721 1.868 149 156 134 255
-0.54548776 -0.023529449 1.8660001 157 164 142 255
-0.54014367 -0.023518795 1.8650001 151 161 138 255
-0.53509134 -0.023520764 1.8650001 145 154 133 255
-0.53003848 -0.02352274 1.8650001 149 156 135 255
-0.52526629 -0.023537336 1.8660001 148 155 134 255
-0.51993054 -0.023526717 1.8650001 149 156 134 255
-0.51487553 -0.023528717 1.8650001 163 171 146 255
-0.50927305 -0.02350549 1.863 160 170 135 255
-0.50449276 -0.023520119 1.8640001 168 178 152 255
-0.4994382 -0.023522139 1.8640001 161 170 149 255
-0.49358734 -0.023486301 1.8610001 172 183 164 255
-0.48801443 -0.023463083 1.8590001 179 190 171 255
-0.48219168 -0.023427241 1.8560001 177 188 169 255
-0.47715575 -0.023429267 1.8560001 175 186 167 255
-0.47110143 -0.023380795 1.8520001 176 187 166 255
-0.46506795 -0.023332315 1.848 184 193 172 255
-0.45805961 -0.023233321 1.84 186 198 175 255
-0.45281741 -0.023222705 1.8390001 180 192 169 255
-0.44660571 -0.02316157 1.8340001 173 185 162 255
-0.44138345 -0.023150943 1.8330001 171 179 164 255
-0.43521345 -0.023089785 1.8280001 159 167 152 255
-0.43024653 -0.02309178 1.8280001 173 182 161 255
-0.42458066 -0.023055866 1.825 162 172 149 255
-0.41939011 -0.023045218 1.8240001 145 155 132 255
-0.41397682 -0.023021922 1.8220001 162 169 147 255
-0.40879795 -0.023011254 1.8210001 168 178 155 255
-0.40384528 -0.023013217 1.8210001 157 167 144 255
-0.39867267 -0.023002533 1.8200001 158 168 145 255
-0.39393717 -0.023017121 1.8210001 150 160 135 255
-0.38876802 -0.023006422 1.8200001 155 163 137 255
-0.38402516 -0.023020998 1.8210001 146 155 126 255
-0.37885952 -0.02301028 1.8200001 149 158 129 255
-0.37369835 -0.022999549 1.8190001 149 158 129 255
-0.36854163 -0.022988809 1.8180001 141 151 125 255
-0.36378938 -0.023003347 1.8190001 138 148 122 255
-0.3590306 -0.023017874 1.8200001 137 147 121 255
-0.35446003 -0.023045046 1.8220001 138 148 122 255
-0.34968573 -0.023059554 1.8230001 150 158 132 255
-0.34528312 -0.023099355 1.8260001 153 162 133 255
-0.34086314 -0.023139149 1.8290001 135 144 115 255
-0.33642587 -0.023178935 1.8320001 135 142 113 255
-0.33160931 -0.023193404 1.8330001 131 138 107 255
-0.32696459 -0.023220517 1.835 128 135 104 255
-0.32195696 -0.023222307 1.835 122 129 98 255
-0.31729382 -0.023249393 1.8370001 129 136 105 255
-0.31244877 -0.02326381 1.8380001 130 135 104 255
-0.30776456 -0.023290867 1.84 115 120 88 255
-0.30306843 -0.023317913 1.8420001 122 128 93 255
-0.29852211 -0.023357602 1.845 129 134 102 255
-0.29411763 -0.023409944 1.8490001 104 109 77 255
-0.2898466 -0.023474932 1.8540001 106 110 82 255
-0.28539363 -0.023527246 1.858 49 55 30 255
-0.28031439 -0.023528894 1.858 55 60 39 255
-0.27523419 -0.023530522 1.858 78 82 65 255
-0.27015302 -0.023532126 1.858 13 19 2 255
-0.2659269 -0.023609709 1.8640001 34 40 23 255
-0.26054761 -0.023585942 1.8620001 80 85 71 255
-0.25558987 -0.023600148 1.863 47 52 38 255
-0.25089473 -0.023639679 1.8660001 65 70 56 255
-0.2459188 -0.023653848 1.8670001 65 70 58 255
-0.24106546 -0.023680663 1.8690001 61 66 54 255
-0.23594777 -0.023682114 1.8690001 51 56 45 255
-0.23082927 -0.023683544 1.8690001 73 79 71 255
-0.22583066 -0.023697622 1.8700001 66 72 64 255
-0.2203536 -0.023660976 1.8670001 85 91 84 255
-0.21466158 -0.023598956 1.8620001 92 98 91 255
-0.2091087 -0.023549579 1.858 82 88 81 255
-0.20390636 -0.023538193 1.8570001 79 85 78 255
-0.19902989 -0.02356481 1.8590001 83 89 82 255
-0.19372441 -0.023540692 1.8570001 96 102 95 255
-0.18842912 -0.023516545 1.8550001 87 93 86 255
-0.18324292 -0.023505047 1.8540001 80 86 79 255
-0.17844583 -0.02354423 1.8570001 75 79 71 255
-0.17353824 -0.023570713 1.8590001 73 77 69 255
-0.16843778 -0.023571808 1.8590001 75 79 71 255
-0.16324873 -0.023560191 1.858 79 84 73 255
-0.15831992 -0.023586588 1.8600001 72 77 66 255
-0.15354419 -0.023638321 1.8640001 77 82 71 255
-0.14898477 -0.023728073 1.8710001 73 78 67 255
-0.14454009 -0.023843169 1.8800001 67 72 60 255
-0.13967468 -0.023894822 1.8840001 67 72 58 255
-0.13442977 -0.023883034 1.8830001 68 73 59 255
-0.12905253 -0.023845848 1.8800001 66 71 57 255
-0.12388891 -0.023846677 1.8800001 70 75 63 255
-0.11872476 -0.023847472 1.8800001 70 75 64 255
-0.11362052 -0.023860922 1.881 67 72 61 255
-0.10851032 -0.023874341 1.8820001 67 73 65 255
-0.10339415 -0.023887727 1.8830001 67 73 65 255
-0.09842854 -0.02393914 1.8870001 78 85 74 255
-0.093440518 -0.023990523 1.891 68 75 64 255
-0.088336781 -0.024016501 1.8930001 63 70 59 255
-0.083133854 -0.024017075 1.8930001 66 71 60 255
-0.077807054 -0.023979547 1.8900001 70 75 64 255
-0.072573252 -0.023967361 1.8890001 72 77 66 255
-0.067380294 -0.023967829 1.8890001 73 78 67 255
-0.062351659 -0.024031706 1.8940001 68 73 62 255
-0.057295259 -0.02409555 1.899 71 73 63 255
-0.052156266 -0.02413398 1.9020001 61 66 55 255
-0.046877194 -0.024108937 1.9000001 66 71 60 255
-0.041652758 -0.024109231 1.9000001 67 72 61 255
-0.036466494 -0.024134876 1.9020001 67 71 63 255
-0.031236218 -0.024135102 1.9020001 67 71 63 255
-0.026005806 -0.024135295 1.9020001 66 71 60 255
-0.020808052 -0.024173522 1.9050001 69 74 62 255
-0.015569183 -0.024173643 1.9050001 69 74 62 255
-0.010335674 -0.024186423 1.9060001 67 72 60 255
-0.0050939438 -0.024186475 1.9060001 68 73 61 255
0.00014835113 -0.024275316 1.9130001 66 71 59 255
0.0054178364 -0.024313368 1.9160001 66 71 57 255
0.01069822 -0.024338692 1.9180001 68 71 57 255
0.015981231 -0.024351291 1.9190001 70 74 57 255
0.021280751 -0.024376545 1.9210001 69 72 58 255
0.02656352 -0.024376387 1.9210001 68 71 57 255
0.031813014 -0.024350811 1.9190001 69 72 58 255
0.037109353 -0.024363266 1.9200001 70 73 59 255
0.042433113 -0.024388377 1.9220001 71 76 64 255
0.047842167 -0.024451518 1.927 69 74 62 255
0.053250927 -0.024501933 1.9310001 71 76 64 255
0.058711786 -0.024565004 1.9360001 72 77 65 255
0.064100653 -0.024589969 1.9380001 71 76 64 255
0.069464408 -0.02460221 1.9390001 70 75 61 255
0.074794799 -0.024601728 1.9390001 71 76 62 255
0.080124862 -0.02460121 1.9390001 73 78 64 255
0.085498646 -0.024613345 1.9400001 71 76 62 255
0.09092439 -0.024638133 1.9420002 71 76 64 255
0.096360728 -0.024662884 1.9440001 72 75 63 255
0.10180765 -0.024687598 1.9460001 73 75 65 255
0.10726514 -0.024712279 1.9480001 72 74 64 255
0.1125019 -0.02468618 1.9460001 72 74 64 255
0.11796945 -0.024710791 1.9480001 72 75 63 255
0.12338416 -0.024722682 1.9490001 69 74 62 255
0.12880385 -0.024734534 1.95 66 71 59 255
0.13409092 -0.024720989 1.9490001 69 74 62 255
0.13958655 -0.024745462 1.9510001 72 75 63 255
0.14516687 -0.024782583 1.9540001 72 75 63 255
0.15076309 -0.024819668 1.9570001 72 74 64 255
0.15621559 -0.024831351 1.9580001 71 73 63 255
0.16150786 -0.024817642 1.9570001 72 74 64 255
0.16696453 -0.024829261 1.9580001 72 74 64 255
0.17251404 -0.024853529 1.96 72 74 64 255
0.17807385 -0.024877764 1.9620001 70 75 63 255
0.18373738 -0.024914645 1.9650002 74 79 67 255
0.18941669 -0.024951493 1.9680001 69 74 62 255
0.19511165 -0.024988303 1.9710001 67 72 60 255
0.20061886 -0.024999727 1.9720001 69 74 63 255
0.20644417 -0.025049152 1.9760001 68 73 62 255
0.21218343 -0.025085863 1.9790001 72 77 66 255
0.21793829 -0.025122542 1.9820001 70 75 64 255
0.22303255 -0.02508314 1.9790001 70 75 64 255
0.22834039 -0.02506906 1.978 68 73 61 255
0.23340553 -0.025029611 1.9750001 65 70 58 255
0.23857427 -0.025002806 1.973 66 71 59 255
0.24323653 -0.024925295 1.9670001 69 74 62 255
0.24824418 -0.024885777 1.9640001 72 77 66 255
0.25413844 -0.024934929 1.9680001 69 74 63 255
0.25978994 -0.024958711 1.9700001 72 77 66 255
0.26531681 -0.024969794 1.9710001 75 80 69 255
0.27084827 -0.024980854 1.9720001 72 77 65 255
0.27792507 -0.025131222 1.9840001 73 78 66 255
0.2853522 -0.025306877 1.9980001 73 78 66 255
0.61684006 -0.025181513 1.9980001 72 78 71 255
0.62162524 -0.025154317 1.9960001 72 78 71 255
0.62671351 -0.025139742 1.9950001 68 74 67 255
0.63147908 -0.02511259 1.9930001 71 77 70 255
0.63655287 -0.025098054 1.9920001 73 79 72 255
0.64162105 -0.025083546 1.9910001 72 76 69 255
0.64700848 -0.025081657 1.9910001 78 80 72 255
0.65239561 -0.025079787 1.9910001 15 17 7 255
0.65613079 -0.025014965 1.9860001 23 24 12 255
0.65983856 -0.024950175 1.9810001 24 25 11 255
0.66419077 -0.024910605 1.978 22 23 9 255
0.66784954 -0.024845878 1.973 22 23 9 255
0.67250502 -0.024818964 1.9710001 23 24 10 255
0.67990083 -0.024892811 1.9770001 19 22 8 255
0.68524933 -0.024891131 1.9770001 21 24 10 255
0.68989938 -0.024864299 1.9750001 20 23 9 255
0.69383466 -0.024812324 1.9710001 20 23 9 255
0.70094091 -0.024873676 1.9760001 20 23 11 255
0.70485753 -0.024821768 1.9720001 18 21 9 255
0.70911288 -0.024782481 1.9690001 18 21 9 255
0.71407795 -0.024768403 1.9680001 18 21 9 255
0.72963893 -0.025119321 1.9960001 18 21 7 255
0.74397689 -0.025052184 1.9910001 60 65 53 255
0.74635547 -0.024950197 1.983 75 84 73 255
0.74831218 -0.024835678 1.9740001 96 104 96 255
0.75174797 -0.024771532 1.9690001 121 129 122 255
0.75438833 -0.024682272 1.9620001 142 150 143 255
0.75854045 -0.024643378 1.9590001 147 155 148 255
0.75877774 -0.024478737 1.9460001 153 160 156 255
0.76051599 -0.024364468 1.937 154 161 157 255
0.75943899 -0.024162205 1.9210001 157 164 160 255
0.76066464 -0.024035467 1.9110001 158 165 162 255
0.76023382 -0.023858473 1.8970001 162 169 166 255
0.76053512 -0.023706689 1.8850001 166 173 170 255
0.75955403 -0.023517238 1.8700001 169 176 175 255
0.75808352 -0.023315262 1.8540001 171 178 177 255
0.75858563 -0.023176223 1.8430001 172 179 176 255
0.76027226 -0.023074968 1.835 173 180 177 255
0.76191658 -0.022973761 1.8270001 175 182 179 255
0.76225966 -0.022834884 1.8160001 177 184 181 255
0.76212209 -0.022683494 1.8040001 178 185 182 255
0.76234567 -0.022544725 1.7930001 180 187 184 255
0.76465064 -0.022468884 1.7870001 179 186 183 255
0.76821631 -0.022430815 1.784 181 188 185 255
0.76960057 -0.02232993 1.7760001 183 190 187 255
0.76919895 -0.02217881 1.7640001 182 189 186 255
0.76873356 -0.022027744 1.7520001 183 190 189 255
0.76997077 -0.021927027 1.7440001 185 192 191 255
0.76938927 -0.021776069 1.7320001 186 193 192 255
0.76785046 -0.021600027 1.7180001 187 194 193 255
0.76713675 -0.02144918 1.7060001 186 193 192 255
0.76771659 -0.021336108 1.697 187 194 191 255
0.76688421 -0.02118537 1.6850001 186 193 190 255
0.76415688 -0.020984394 1.669 186 193 192 255
0.76272619 -0.020821193 1.6560001 189 194 191 255
0.76308 -0.020708336 1.6470001 187 194 191 255
0.76431894 -0.020620681 1.6400001 187 194 193 255
0.76364696 -0.020482788 1.6290001 188 195 194 255
0.76197398 -0.020319795 1.6160001 187 194 193 255
0.75786102 -0.020093983 1.598 187 194 193 255
0.75603706 -0.019931095 1.585 182 189 188 255
0.75414431 -0.019768255 1.572 184 191 188 255
0.7521829 -0.019605463 1.559 184 191 188 255
0.74966764 -0.019430146 1.5450001 189 196 192 255
0.7465902 -0.019242298 1.5300001 191 198 195 255
0.74784958 -0.019167691 1.524 192 199 196 255
0.74710494 -0.019042829 1.5140001 192 199 196 255
0.74581188 -0.018905437 1.503 192 199 196 255
1.2318544 -0.022553107 1.766 204 211 210 255
1.2138649 -0.021706974 1.6950001 210 212 214 255
-0.75293547 -0.030417165 1.9870001 161 166 152 255
-0.74717993 -0.030403422 1.9860001 158 164 146 255
-0.73769528 -0.030236635 1.9750001 159 163 145 255
-0.72715813 -0.030023936 1.9610001 161 166 144 255
-0.71706533 -0.02982657 1.9480001 161 168 146 255
-0.7099666 -0.029751724 1.9430001 159 166 145 255
-0.70253259 -0.029661596 1.937 159 166 145 255
-0.69549125 -0.029586812 1.932 163 169 151 255
-0.68633366 -0.029420167 1.9210001 169 175 157 255
-0.67829955 -0.029299485 1.9130001 171 178 157 255
-0.67136443 -0.029224774 1.9080001 176 183 162 255
-0.66445655 -0.029150089 1.9030001 178 185 164 255
-0.65792221 -0.029090747 1.899 179 186 165 255
-0.65037835 -0.028985472 1.8920001 181 188 167 255
-0.64423662 -0.028941497 1.8890001 182 189 168 255
-0.63675761 -0.028836256 1.8820001 182 191 170 255
-0.63032347 -0.028777003 1.8780001 176 185 166 255
-0.62357795 -0.028702445 1.8730001 170 179 158 255
-0.61784983 -0.028673874 1.8710001 172 179 158 255
-0.61246008 -0.028660661 1.8700001 165 172 151 255
-0.60707539 -0.028647466 1.8690001 150 159 140 255
-0.602018 -0.028649621 1.8690001 168 177 158 255
-0.59632164 -0.028621146 1.8670001 164 173 154 255
-0.59126908 -0.028623348 1.8670001 162 171 152 255
-0.58653027 -0.028640902 1.868 166 177 158 255
-0.58116305 -0.028627815 1.8670001 152 161 142 255
-0.57580084 -0.028614743 1.8660001 141 151 128 255
-0.56983191 -0.028571017 1.863 150 157 135 255
-0.56418192 -0.028542642 1.8610001 149 157 132 255
-0.55914325 -0.028544953 1.8610001 157 163 137 255
-0.55440176 -0.028562622 1.8620001 154 161 132 255
-0.5496543 -0.028580308 1.863 148 154 128 255
-0.54431629 -0.028567329 1.8620001 156 162 137 255
-0.53927267 -0.028569702 1.8620001 156 164 139 255
-0.53451526 -0.028587431 1.863 157 164 142 255
-0.52975202 -0.02860518 1.8640001 156 163 142 255
-0.52498257 -0.028622938 1.8650001 160 167 145 255
-0.51964951 -0.028610013 1.8640001 159 166 144 255
-0.51404506 -0.028581746 1.8620001 162 170 145 255
-0.5081774 -0.028538126 1.8590001 169 177 152 255
-0.50340796 -0.028555924 1.8600001 188 198 173 255
-0.4975605 -0.02851231 1.8570001 180 190 167 255
-0.49172854 -0.028468695 1.8540001 179 190 171 255
-0.48564956 -0.028409721 1.8500001 178 189 170 255
-0.47985128 -0.028366098 1.8470001 175 186 167 255
-0.47432551 -0.028337829 1.845 163 174 155 255
-0.46804669 -0.028263474 1.84 175 186 167 255
-0.46179411 -0.02818911 1.835 171 182 161 255
-0.45556793 -0.028114734 1.83 174 184 161 255
-0.45084533 -0.02813253 1.8310001 161 170 149 255
-0.44538596 -0.028104236 1.8290001 160 170 147 255
-0.43969569 -0.028060561 1.8260001 162 172 149 255
-0.43378279 -0.028001511 1.8220001 164 174 151 255
-0.42859674 -0.027988553 1.8210001 146 156 133 255
-0.42434585 -0.028037079 1.8240001 163 170 148 255
-0.41892803 -0.02800874 1.8220001 155 165 140 255
-0.41374743 -0.027995769 1.8210001 159 167 141 255
-0.4078978 -0.02793666 1.817 166 174 148 255
-0.40295604 -0.027939042 1.817 157 165 140 255
-0.39779428 -0.027926037 1.8160001 154 164 139 255
-0.39306971 -0.027943779 1.817 144 154 129 255
-0.38833871 -0.027961517 1.8180001 136 146 121 255
-0.38381213 -0.027994627 1.8200001 138 147 118 255
-0.3786492 -0.027981581 1.8190001 135 145 119 255
-0.37328535 -0.027953142 1.817 129 139 114 255
-0.36752594 -0.027893912 1.8130001 128 138 113 255
-0.3625873 -0.027896207 1.8130001 132 142 117 255
-0.35764769 -0.027898489 1.8130001 128 140 115 255
-0.35290164 -0.027916146 1.8140001 137 147 122 255
-0.3483409 -0.027949179 1.8160001 146 156 130 255
-0.34376833 -0.027982205 1.8180001 147 157 131 255
-0.33937022 -0.028030612 1.8210001 126 135 106 255
-0.33513835 -0.0280944 1.825 128 137 108 255
-0.33070278 -0.028142791 1.8280001 132 139 108 255
-0.32607165 -0.028175768 1.83 133 140 109 255
-0.32125315 -0.028193336 1.8310001 132 139 108 255
-0.31642824 -0.028210888 1.8320001 132 139 108 255
-0.3115969 -0.028228424 1.8330001 126 131 99 255
-0.30726084 -0.028292142 1.8370001 122 127 95 255
-0.30290201 -0.02835585 1.8410001 115 121 86 255
-0.29835847 -0.028404137 1.8440001 114 119 87 255
-0.29379764 -0.028452413 1.8470001 117 122 91 255
-0.28890672 -0.028469859 1.848 100 104 78 255
-0.284163 -0.028502692 1.8500001 18 21 0 255
-0.27850214 -0.028443052 1.8460001 20 24 6 255
-0.27301037 -0.028398791 1.8430001 22 24 7 255
-0.26767948 -0.028369907 1.8410001 28 32 15 255
-0.26349992 -0.028464286 1.8470001 32 36 19 255
-0.25844696 -0.028466173 1.8470001 75 79 62 255
-0.25353032 -0.028483447 1.848 39 44 30 255
-0.2490107 -0.028546939 1.8520001 61 66 52 255
-0.24459997 -0.028625822 1.8570001 60 65 53 255
-0.24003197 -0.028689271 1.8610001 57 62 50 255
-0.23493625 -0.028691033 1.8610001 48 53 42 255
-0.23008667 -0.028723598 1.863 61 67 59 255
-0.22498374 -0.028725294 1.863 65 71 63 255
-0.2194079 -0.028665289 1.8590001 92 98 91 255
-0.21373785 -0.02858982 1.8540001 94 100 93 255
-0.20831946 -0.028545154 1.8510001 78 84 77 255
-0.20335592 -0.02856214 1.8520001 76 82 75 255
-0.19838612 -0.028579092 1.853 89 95 88 255
-0.19309713 -0.028549746 1.8510001 96 102 95 255
-0.18771674 -0.028504934 1.848 86 92 85 255
-0.18254979 -0.028490938 1.8470001 73 79 72 255
-0.17767584 -0.028523181 1.8490001 73 79 71 255
-0.1727902 -0.028555393 1.8510001 74 79 68 255
-0.16762112 -0.028541295 1.8500001 78 83 72 255
-0.16280825 -0.028588867 1.853 78 83 72 255
-0.1578932 -0.028620983 1.8550001 73 78 67 255
-0.15313122 -0.028683923 1.8590001 78 83 72 255
-0.14834668 -0.028746827 1.863 73 78 67 255
-0.14392397 -0.02888686 1.8720001 68 73 61 255
-0.13922885 -0.028980568 1.8780001 70 75 63 255
-0.13414325 -0.028997086 1.8790001 66 71 57 255
-0.12898295 -0.028998133 1.8790001 66 71 57 255
-0.12382211 -0.028999142 1.8790001 67 72 58 255
-0.11866075 -0.029000111 1.8790001 65 70 58 255
-0.11343849 -0.028985607 1.8780001 66 71 60 255
-0.1082789 -0.028986499 1.8780001 65 69 61 255
-0.10317376 -0.029002782 1.8790001 68 74 66 255
-0.098219171 -0.029065335 1.8830001 75 82 71 255
-0.093291596 -0.029143287 1.8880001 63 70 59 255
-0.088242799 -0.029190328 1.891 64 69 58 255
-0.083001494 -0.029175587 1.8900001 64 69 57 255
-0.077724144 -0.029145366 1.8880001 66 71 60 255
-0.0725343 -0.029145975 1.8880001 71 74 62 255
-0.067344129 -0.029146545 1.8880001 73 76 64 255
-0.062351201 -0.029239701 1.8940001 71 73 63 255
-0.057294827 -0.029317375 1.899 69 71 61 255
-0.05212846 -0.029348701 1.9010001 64 66 56 255
-0.046876848 -0.029333668 1.9000001 65 70 59 255
-0.041652448 -0.029334029 1.9000001 65 70 59 255
-0.036447052 -0.029349787 1.9010001 66 71 60 255
-0.031219563 -0.029350063 1.9010001 67 72 61 255
-0.026005611 -0.029365735 1.9020001 66 71 59 255
-0.020796971 -0.029396808 1.904 65 70 58 255
-0.015569069 -0.029412398 1.9050001 68 73 61 255
-0.010335596 -0.029427944 1.9060001 68 73 61 255
-0.0050939056 -0.029428007 1.9060001 68 71 59 255
0.00014811738 -0.029489785 1.9100001 71 74 62 255
0.005403657 -0.029505203 1.9110001 70 73 59 255
0.01067583 -0.029551456 1.914 68 71 57 255
0.015972786 -0.029613106 1.9180001 73 77 60 255
0.02128059 -0.029659269 1.9210001 71 74 60 255
0.026577147 -0.029674511 1.9220001 69 72 58 255
0.031845931 -0.029658834 1.9210001 70 73 59 255
0.037167057 -0.029689429 1.9230001 67 70 56 255
0.042454872 -0.029689103 1.9230001 66 69 57 255
0.047792152 -0.029719612 1.9250001 67 70 58 255
0.053140227 -0.029750077 1.927 68 73 61 255
0.058559719 -0.029811379 1.9310001 68 73 61 255
0.063901715 -0.029826315 1.932 68 73 61 255
0.069320597 -0.029872088 1.9350001 71 76 62 255
0.07479424 -0.029933251 1.9390001 72 75 61 255
0.080206908 -0.029963497 1.9410001 76 79 67 255
0.08558616 -0.029978262 1.9420002 72 75 63 255
0.090970531 -0.029992985 1.9430001 71 73 63 255
0.096409582 -0.030023098 1.9450001 74 76 66 255
0.10180691 -0.030037737 1.9460001 72 75 63 255
0.10715421 -0.030036893 1.9460001 72 75 63 255
0.11250108 -0.030036012 1.9460001 73 76 64 255
0.11802914 -0.030081388 1.9490001 70 73 61 255
0.12344655 -0.030095851 1.95 69 72 60 255
0.12873687 -0.030079411 1.9490001 70 72 62 255
0.13388354 -0.030032067 1.9460001 71 74 62 255
0.13929935 -0.030046413 1.9470001 73 76 62 255
0.14494295 -0.03010701 1.9510001 73 76 62 255
