ply
format ascii 1.0
comment PCL generated
element vertex 995
property float x
property float y
property float z
property uchar red
property uchar green
property uchar blue
property uchar alpha
element camera 0
property float view_px
property float view_py
property float view_pz
property float x_axisx
property float x_axisy
property float x_axisz
property float y_axisx
property float y_axisy
property float y_axisz
property float z_axisx
property float z_axisy
property float z_axisz
property float focal
property float scalex
property float scaley
property float centerx
property float centery
property int viewportx
property int viewporty
property float k1
property float k2
end_header
-0.59947127 -0.097442389 1.6530001 160 163 141 255
-0.59499711 -0.097447976 1.6530001 156 159 135 255
-0.59088033 -0.097512633 1.654 157 159 133 255
-0.58675861 -0.097577438 1.6550001 157 159 133 255
-0.58298326 -0.097701326 1.6570001 152 156 130 255
-0.57919741 -0.097825341 1.659 150 154 128 255
-0.57505435 -0.097890534 1.6600001 156 160 134 255
-0.57090592 -0.097955845 1.6610001 154 158 132 255
-0.5667522 -0.098021261 1.6620001 160 162 136 255
-0.56326962 -0.098204754 1.6650001 162 163 139 255
-0.55909961 -0.098270409 1.6660001 165 166 142 255
-0.55459124 -0.098277174 1.6660001 168 169 145 255
-0.55008286 -0.098284043 1.6660001 165 167 141 255
-0.54557425 -0.098291002 1.6660001 171 173 147 255
-0.54171509 -0.098416068 1.6680001 174 176 150 255
-0.53687865 -0.098364197 1.6670001 176 177 153 255
-0.53268629 -0.09843044 1.6680001 180 183 161 255
-0.52753818 -0.098319717 1.6660001 181 184 162 255
-0.52302861 -0.098327085 1.6660001 174 179 157 255
-0.51882988 -0.098393559 1.6670001 170 175 153 255
-0.51462549 -0.098460115 1.6680001 167 172 151 255
-0.50980365 -0.098408677 1.6670001 172 177 156 255
-0.50468379 -0.098298259 1.6650001 176 181 160 255
-0.49987477 -0.098246917 1.664 172 176 158 255
-0.4950707 -0.098195635 1.6630001 177 183 165 255
-0.48938665 -0.097967245 1.659 168 174 156 255
-0.48372385 -0.097738862 1.6550001 165 171 153 255
-0.47866133 -0.097628608 1.6530001 161 170 151 255
-0.47332224 -0.097459316 1.6500001 156 165 146 255
-0.46856725 -0.09740819 1.649 156 162 144 255
-0.4635357 -0.097298011 1.6470001 154 160 142 255
-0.45851442 -0.097187854 1.6450001 149 155 137 255
-0.45433137 -0.097254947 1.646 147 154 133 255
-0.45014232 -0.097322099 1.6470001 151 158 137 255
-0.44594738 -0.097389296 1.6480001 143 150 129 255
-0.44121045 -0.097338311 1.6470001 152 157 136 255
-0.43621323 -0.097228244 1.6450001 150 157 136 255
-0.43201342 -0.097295485 1.646 144 151 130 255
-0.42728812 -0.097244546 1.6450001 142 148 130 255
-0.42308155 -0.097311832 1.646 140 146 128 255
-0.41836029 -0.097260907 1.6450001 145 152 131 255
-0.41414684 -0.097328216 1.646 149 156 135 255
-0.40942955 -0.097277291 1.6450001 146 152 134 255
-0.40496302 -0.097285487 1.6450001 146 153 132 255
-0.40025231 -0.09723454 1.6440001 144 151 129 255
-0.39626849 -0.097361028 1.646 145 153 128 255
-0.39179695 -0.097369224 1.646 138 146 121 255
-0.38755998 -0.09743657 1.6470001 156 164 139 255
-0.38285151 -0.097385578 1.646 157 164 142 255
-0.37860748 -0.097452909 1.6470001 142 149 128 255
-0.3739028 -0.097401872 1.646 156 162 144 255
-0.36920282 -0.097350821 1.6450001 178 187 168 255
-0.36472914 -0.097358927 1.6450001 164 170 152 255
-0.35981661 -0.097248614 1.6430001 147 153 135 255
-0.35577923 -0.097375035 1.6450001 151 158 136 255
-0.35151652 -0.09744224 1.646 151 158 136 255
-0.34809086 -0.097746246 1.651 133 139 113 255
-0.3450534 -0.098168686 1.6580001 124 128 100 255
-0.34238771 -0.098709583 1.6670001 121 126 95 255
-0.33845615 -0.098895222 1.6700001 116 119 88 255
-0.33370754 -0.09884394 1.669 115 117 89 255
-0.32876629 -0.09873338 1.6670001 102 105 83 255
-0.32383505 -0.098622754 1.6650001 109 113 95 255
-0.3191056 -0.098571293 1.664 87 90 76 255
-0.31362453 -0.098282814 1.659 22 25 13 255
-0.30891511 -0.098231211 1.6580001 29 30 16 255
-0.3036595 -0.098001786 1.654 28 29 15 255
-0.29896742 -0.097950041 1.6530001 29 28 12 255
-0.29410177 -0.097838953 1.651 28 30 13 255
-0.28942159 -0.097787067 1.6500001 28 27 11 255
-0.28474593 -0.097735092 1.649 27 26 10 255
-0.27990499 -0.09762378 1.6470001 29 28 12 255
-0.27540851 -0.097630925 1.6470001 30 29 15 255
-0.27107567 -0.097697288 1.6480001 30 29 15 255
-0.26657471 -0.097704299 1.6480001 21 21 11 255
-0.26223195 -0.097770512 1.649 101 102 96 255
-0.25757033 -0.097718082 1.6480001 54 57 54 255
-0.25291327 -0.097665563 1.6470001 84 87 84 255
-0.24795921 -0.097494341 1.6440001 103 105 107 255
-0.24287266 -0.097263709 1.6400001 103 105 107 255
-0.23795252 -0.097092271 1.6370001 92 96 98 255
-0.23319055 -0.096980028 1.6350001 82 84 84 255
-0.22857864 -0.096927002 1.6340001 61 64 61 255
-0.22397143 -0.096873887 1.6330001 89 94 90 255
-0.21910006 -0.096702017 1.6300001 77 82 78 255
-0.21463938 -0.096708015 1.6300001 70 76 69 255
-0.21017793 -0.096713915 1.6300001 83 88 84 255
-0.20571572 -0.096719727 1.6300001 73 78 74 255
-0.2011293 -0.09666609 1.6290001 87 90 86 255
-0.1967891 -0.096731037 1.6300001 89 92 89 255
-0.19232468 -0.096736543 1.6300001 93 95 95 255
-0.18797483 -0.096801288 1.631 88 88 86 255
-0.18350627 -0.096806586 1.631 88 88 86 255
-0.17947613 -0.097049221 1.6350001 89 90 86 255
-0.1752093 -0.097173035 1.6370001 81 82 76 255
-0.17082658 -0.097237401 1.6380001 76 77 71 255
-0.16613303 -0.097123533 1.636 72 76 69 255
-0.16135107 -0.096950211 1.6330001 79 83 76 255
-0.15658489 -0.096776731 1.6300001 81 85 78 255
-0.1520212 -0.096721873 1.6290001 82 86 79 255
-0.14737183 -0.096607506 1.6270001 90 93 89 255
-0.14290853 -0.096611783 1.6270001 88 91 87 255
-0.13844465 -0.096615933 1.6270001 87 90 87 255
-0.13406256 -0.09667936 1.628 86 89 86 255
-0.12967446 -0.09674266 1.6290001 79 82 79 255
-0.12528035 -0.096805863 1.6300001 93 96 92 255
-0.12102848 -0.096987709 1.6330001 82 85 81 255
-0.11668826 -0.097110055 1.6350001 79 82 78 255
-0.11219935 -0.09711349 1.6350001 80 84 77 255
-0.10757823 -0.096998014 1.6330001 83 87 80 255
-0.10303078 -0.096941784 1.6320001 80 84 77 255
-0.098548777 -0.096944831 1.6320001 79 83 76 255
-0.094066359 -0.096947744 1.6320001 83 87 80 255
-0.089583561 -0.096950524 1.6320001 82 86 79 255
-0.08510039 -0.096953183 1.6320001 83 87 80 255
-0.080616869 -0.096955709 1.6320001 80 84 77 255
-0.076179653 -0.097017512 1.6330001 78 82 75 255
-0.071736626 -0.09707918 1.6340001 77 81 74 255
-0.067328945 -0.097200125 1.636 80 84 77 255
-0.062910005 -0.097320959 1.6380001 79 83 76 255
-0.058408484 -0.097322822 1.6380001 80 84 77 255
-0.053906713 -0.09732455 1.6380001 78 82 75 255
-0.049404711 -0.097326145 1.6380001 80 84 77 255
-0.044957325 -0.097446427 1.6400001 78 82 75 255
-0.040498752 -0.097566575 1.6420001 77 81 74 255
-0.036050931 -0.097746022 1.6450001 76 80 73 255
-0.031605627 -0.097984739 1.649 75 79 72 255
-0.027138196 -0.098223336 1.6530001 75 79 72 255
-0.022621319 -0.09834294 1.6550001 75 79 72 255
-0.01807151 -0.098343581 1.6550001 75 79 72 255
-0.013513455 -0.098284647 1.654 72 76 69 255
-0.0089608394 -0.098225564 1.6530001 75 76 70 255
-0.0044110115 -0.098106928 1.651 76 77 71 255
0.00012799203 -0.098106995 1.651 73 77 70 255
0.0046698218 -0.098166339 1.6520001 75 79 72 255
0.0092227068 -0.098284975 1.654 78 82 75 255
0.013794875 -0.098462887 1.6570001 76 80 73 255
0.018394552 -0.098700076 1.6610001 78 82 75 255
0.023016144 -0.098937124 1.6650001 77 81 74 255
0.027676202 -0.099233456 1.6700001 79 83 76 255
0.032305665 -0.099351361 1.6720001 80 84 77 255
0.03696806 -0.099528559 1.6750001 80 84 77 255
0.04164679 -0.099705607 1.6780001 82 86 79 255
0.046286698 -0.099763669 1.6790001 81 85 78 255
0.050840955 -0.099643335 1.677 78 82 75 255
0.055384006 -0.099522874 1.6750001 80 84 77 255
0.059951629 -0.099461675 1.674 78 81 77 255
0.06459064 -0.099519186 1.6750001 79 82 78 255
0.06923487 -0.099576548 1.6760001 80 81 75 255
0.073840253 -0.099574365 1.6760001 84 85 79 255
0.078492112 -0.099631436 1.677 84 85 79 255
0.083099596 -0.099628977 1.677 78 82 75 255
0.087759033 -0.099685788 1.6780001 83 84 78 255
0.092258453 -0.099564232 1.6760001 81 82 76 255
0.096804291 -0.09950196 1.6750001 79 82 78 255
0.10128371 -0.099380158 1.6730001 80 83 79 255
0.10575171 -0.099258229 1.6710001 82 85 81 255
0.11034035 -0.099254966 1.6710001 84 87 84 255
0.11485975 -0.099192172 1.6700001 85 87 87 255
0.11944475 -0.099188663 1.6700001 88 92 92 255
0.12402923 -0.099185012 1.6700001 91 94 91 255
0.12876727 -0.099300027 1.6720001 85 88 85 255
0.13359548 -0.099474274 1.6750001 81 86 82 255
0.13835715 -0.09958902 1.677 78 83 79 255
0.14304399 -0.099644229 1.6780001 77 82 78 255
0.14755975 -0.099580549 1.677 78 83 79 255
0.15206946 -0.099516764 1.6760001 80 83 79 255
0.15666658 -0.099512234 1.6760001 79 82 78 255
0.16126305 -0.099507578 1.6760001 77 80 76 255
0.16595787 -0.099562183 1.677 78 83 79 255
0.17065753 -0.099616662 1.6780001 81 86 82 255
0.17525758 -0.099611647 1.6780001 85 90 87 255
0.17985693 -0.099606521 1.6780001 89 94 91 255
0.18423578 -0.099482574 1.6760001 91 96 93 255
0.18837762 -0.099239819 1.6720001 88 93 90 255
0.19272764 -0.09911567 1.6700001 87 92 89 255
0.1973023 -0.099110134 1.6700001 88 91 88 255
0.20235974 -0.099341862 1.674 87 90 87 255
0.20793283 -0.099810816 1.682 88 91 87 255
0.21405447 -0.10051697 1.6940001 89 93 86 255
0.21920821 -0.10074827 1.6980001 86 87 81 255
0.22306469 -0.10038613 1.692 80 81 75 255
0.22702219 -0.10008326 1.687 75 79 72 255
0.23095146 -0.099780336 1.682 82 85 81 255
0.23583288 -0.099892579 1.6840001 86 89 85 255
0.24143833 -0.1003013 1.6910001 84 89 85 255
0.24693571 -0.10065055 1.697 79 84 80 255
0.25113091 -0.10046592 1.6940001 61 66 62 255
0.25500682 -0.1001626 1.6890001 56 59 55 255
0.25931567 -0.10003713 1.687 68 71 67 255
0.26361278 -0.099911608 1.6850001 76 79 76 255
0.26837566 -0.099963889 1.6860001 83 86 83 255
0.27411455 -0.10037178 1.6930001 88 91 87 255
0.27939692 -0.10060172 1.697 85 88 84 255
0.28419811 -0.1006537 1.6980001 58 62 55 255
0.28798327 -0.10034996 1.6930001 58 62 55 255
0.29364139 -0.10069814 1.6990001 80 85 81 255
0.30003357 -0.10128327 1.7090001 83 89 82 255
0.30630118 -0.10180897 1.7180001 77 83 76 255
0.31062582 -0.10168273 1.7160001 59 63 56 255
0.31438738 -0.10137868 1.7110001 60 64 57 255
0.31830722 -0.10113387 1.7070001 65 69 62 255
0.32277194 -0.10106675 1.7060001 71 75 68 255
0.32761413 -0.10111807 1.7070001 72 75 71 255
0.33226621 -0.10111008 1.7070001 72 75 71 255
0.33691743 -0.10110206 1.7070001 74 77 74 255
0.34136757 -0.10103475 1.7060001 72 75 72 255
0.34641984 -0.10114507 1.7080001 73 76 73 255
0.35127664 -0.10119612 1.7090001 76 79 76 255
0.35634619 -0.10130631 1.7110001 76 79 76 255
0.3607927 -0.10123883 1.71 78 81 77 255
0.36544669 -0.10123054 1.71 76 81 77 255
0.36988333 -0.10116302 1.7090001 78 81 77 255
0.37475193 -0.10121385 1.71 76 81 78 255
0.3794032 -0.10120545 1.71 76 81 77 255
0.38405362 -0.10119704 1.71 76 81 77 255
0.38847587 -0.10112943 1.7090001 79 84 81 255
0.39312187 -0.10112097 1.7090001 77 82 78 255
0.39776698 -0.1011125 1.7090001 79 84 80 255
0.40264672 -0.10116317 1.71 78 83 80 255
0.40705469 -0.10109551 1.7090001 76 81 78 255
0.41169736 -0.10108701 1.7090001 76 81 77 255
0.41633916 -0.1010785 1.7090001 75 80 76 255
0.42147282 -0.10118825 1.7110001 74 79 75 255
0.42611846 -0.10117973 1.7110001 79 85 78 255
0.43177035 -0.10140772 1.715 78 84 77 255
0.43718871 -0.10157655 1.7180001 81 87 80 255
0.44313702 -0.1018636 1.723 78 84 77 255
0.44833204 -0.10197327 1.725 79 83 76 255
0.45353711 -0.10208294 1.7270001 75 79 72 255
0.45822173 -0.10207439 1.7270001 75 79 72 255
0.4631736 -0.10212496 1.728 72 76 69 255
0.467318 -0.10199825 1.7260001 75 79 72 255
0.47172436 -0.10193069 1.725 77 80 76 255
0.47640079 -0.10192224 1.725 73 76 72 255
0.4810766 -0.10191382 1.725 73 79 72 255
0.4860335 -0.10196454 1.7260001 74 78 71 255
0.49071077 -0.10195619 1.7260001 73 77 70 255
0.4951005 -0.10188883 1.725 75 79 72 255
0.49861512 -0.10164433 1.7210001 76 81 77 255
0.5026924 -0.10151803 1.7190001 77 82 78 255
0.50675833 -0.1013918 1.7170001 77 82 79 255
0.51081294 -0.10126565 1.715 79 84 81 255
0.51485628 -0.10113957 1.7130001 81 86 83 255
0.51888829 -0.10101357 1.7110001 82 87 84 255
0.5222972 -0.10076958 1.7070001 82 87 84 255
0.52661002 -0.10070277 1.7060001 83 88 85 255
0.53060579 -0.10057703 1.7040001 84 89 86 255
0.53521854 -0.10056942 1.7040001 83 88 85 255
0.53856379 -0.1003258 1.7 85 88 85 255
0.54380405 -0.10043638 1.702 88 91 87 255
0.54873288 -0.10048802 1.7030001 82 86 79 255
0.55399173 -0.10059874 1.705 18 22 15 255
0.55893362 -0.10065053 1.7060001 48 52 45 255
0.56487179 -0.10087938 1.71 74 78 71 255
0.57116443 -0.10116728 1.715 37 43 36 255
0.57513392 -0.10104235 1.7130001 35 41 34 255
0.5780772 -0.10074059 1.7080001 57 63 56 255
0.58167565 -0.10055692 1.705 73 79 72 255
0.58525789 -0.1003734 1.702 76 82 75 255
0.5891704 -0.10024897 1.7 78 83 79 255
0.59237379 -0.10000675 1.6960001 70 75 71 255
0.59661156 -0.099941559 1.6950001 71 76 72 255
0.60048938 -0.099817544 1.6930001 77 82 78 255
0.60399914 -0.0996347 1.6900001 86 91 87 255
0.60749286 -0.099452011 1.687 79 84 80 255
0.61097074 -0.099269487 1.6840001 86 91 87 255
0.61443257 -0.099087112 1.6810001 89 92 89 255
0.6178785 -0.098904885 1.6780001 91 94 90 255
0.62167966 -0.098781772 1.6760001 36 39 35 255
0.6262176 -0.098776683 1.6760001 18 19 13 255
0.63037962 -0.098712794 1.6750001 21 23 15 255
0.63150442 -0.098177642 1.6660001 22 25 13 255
0.63525319 -0.098055162 1.664 21 24 12 255
0.63860744 -0.097873956 1.6610001 22 25 13 255
0.64581788 -0.098282136 1.6680001 24 27 15 255
0.64370942 -0.097276352 1.651 22 25 13 255
0.64582831 -0.096918941 1.6450001 21 24 12 255
0.64989191 -0.096856289 1.6440001 22 25 13 255
0.65395105 -0.096793823 1.6430001 18 21 9 255
0.65680337 -0.096554786 1.6390001 24 27 15 255
0.65923148 -0.096257068 1.6340001 18 21 9 255
0.66325814 -0.096195154 1.6330001 24 27 13 255
0.66932464 -0.09642797 1.6370001 26 29 15 255
0.67541397 -0.096660957 1.641 25 28 14 255
0.68028319 -0.096717425 1.6420001 26 29 17 255
0.68390816 -0.096597396 1.6400001 27 30 18 255
0.68332601 -0.095888563 1.628 29 31 21 255
0.68394738 -0.095356666 1.6190001 26 31 20 255
0.68749732 -0.095237285 1.6170001 27 32 21 255
0.68761462 -0.094646938 1.6070001 25 31 23 255
0.69026262 -0.094410196 1.603 32 38 30 255
0.68292391 -0.092819087 1.5760001 34 40 32 255
0.67936414 -0.091758266 1.5580001 26 32 24 255
0.68097323 -0.091404423 1.552 26 30 22 255
0.68520027 -0.091404177 1.552 26 31 20 255
0.68898475 -0.091345251 1.5510001 25 30 19 255
0.68829602 -0.090697616 1.5400001 27 32 21 255
0.69294524 -0.090756938 1.5410001 28 33 22 255
0.69986361 -0.091110967 1.5470001 26 31 20 255
0.70454115 -0.091170788 1.5480001 28 34 26 255
0.70968395 -0.091289721 1.5500001 26 32 24 255
0.71576089 -0.091526717 1.554 37 46 35 255
0.71908182 -0.091410577 1.552 29 37 29 255
0.72052974 -0.091059096 1.5460001 49 57 50 255
0.72429115 -0.09100236 1.5450001 108 117 112 255
0.72946393 -0.091122583 1.5470001 173 182 184 255
0.7360729 -0.091419809 1.552 177 186 189 255
0.73841858 -0.091187164 1.5480001 183 189 195 255
0.74074477 -0.090954773 1.544 184 189 195 255
0.74063933 -0.090428099 1.5350001 187 192 198 255
0.74000174 -0.089842752 1.5250001 188 193 199 255
0.73833597 -0.089139804 1.5130001 189 194 200 255
0.73856986 -0.088672742 1.5050001 191 196 202 255
0.7407366 -0.088441618 1.501 189 194 200 255
-0.78112382 -0.11042251 1.7920001 239 239 239 255
-0.7719149 -0.10980712 1.7820001 236 236 236 255
-0.76620585 -0.10968495 1.7800001 244 247 244 255
-0.75708729 -0.10907005 1.7700001 243 248 245 255
-0.74802488 -0.10845538 1.7600001 242 247 243 255
-0.73817366 -0.10771769 1.748 233 239 232 255
-0.73048705 -0.10728833 1.7410001 221 227 220 255
-0.7224229 -0.10679755 1.733 203 209 201 255
-0.71564603 -0.10649186 1.728 208 214 206 255
-0.70807475 -0.10606313 1.7210001 224 230 222 255
-0.70176876 -0.10581947 1.7170001 228 234 227 255
-0.69467366 -0.10545275 1.7110001 224 230 223 255
-0.68801534 -0.10514783 1.7060001 224 230 223 255
-0.68138522 -0.1048431 1.7010001 225 231 224 255
-0.67438537 -0.10447691 1.6950001 225 231 224 255
-0.66741896 -0.10411089 1.6890001 220 226 219 255
-0.66048586 -0.10374503 1.6830001 215 221 214 255
-0.65475535 -0.10356425 1.6800001 211 217 210 255
-0.64904183 -0.10338363 1.677 207 213 206 255
-0.64334536 -0.10320318 1.674 202 208 200 255
-0.6372841 -0.10296122 1.6700001 210 216 208 255
-0.63124508 -0.10271941 1.6660001 213 220 209 255
-0.62635696 -0.10266271 1.6650001 207 214 203 255
-0.62147468 -0.10260616 1.664 205 212 201 255
-0.61659837 -0.10254977 1.6630001 200 207 196 255
-0.6102556 -0.10224684 1.6580001 191 199 184 255
-0.60576707 -0.10225238 1.6580001 198 204 187 255
-0.60091627 -0.1021964 1.6570001 121 125 107 255
-0.59643114 -0.10220221 1.6570001 162 167 145 255
-0.59230345 -0.10226986 1.6580001 160 162 136 255
-0.58781618 -0.10227595 1.6580001 157 159 131 255
-0.58368075 -0.10234386 1.659 160 163 132 255
-0.57919109 -0.10235021 1.659 155 158 127 255
-0.57539433 -0.10248008 1.6610001 151 154 123 255
-0.57124311 -0.10254838 1.6620001 153 155 127 255
-0.56708658 -0.1026168 1.6630001 157 161 133 255
-0.56326288 -0.10274705 1.6650001 150 152 124 255
-0.55875719 -0.102754 1.6650001 159 161 133 255
-0.55458432 -0.10282277 1.6660001 157 159 131 255
-0.55040586 -0.10289164 1.6670001 156 158 132 255
-0.54622209 -0.10296064 1.6680001 161 163 137 255
-0.54235733 -0.10309145 1.6700001 155 156 132 255
-0.53783751 -0.10309891 1.6700001 160 163 139 255
-0.53459489 -0.10335341 1.674 159 162 138 255
-0.53038049 -0.10342281 1.6750001 164 167 143 255
-0.52584642 -0.10343052 1.6750001 163 166 142 255
-0.52193451 -0.10356185 1.677 166 169 147 255
-0.51739442 -0.10356974 1.677 175 180 158 255
-0.51315993 -0.10363948 1.6780001 163 168 146 255
-0.50801015 -0.10352398 1.6760001 141 146 124 255
-0.50377208 -0.10359383 1.677 147 152 131 255
-0.49923044 -0.10360199 1.677 151 155 137 255
-0.49439338 -0.10354842 1.6760001 158 164 146 255
-0.48868448 -0.10330953 1.6720001 172 178 160 255
-0.48299673 -0.10307066 1.6680001 175 181 163 255
-0.47733012 -0.10283179 1.664 176 182 164 255
-0.47168478 -0.10259294 1.6600001 171 177 159 255
-0.46662334 -0.10247768 1.6580001 167 173 155 255
-0.46101475 -0.10223883 1.654 158 164 146 255
-0.45625532 -0.10218544 1.6530001 151 157 139 255
-0.45150065 -0.10213204 1.6520001 152 158 140 255
-0.44702145 -0.10214051 1.6520001 144 150 132 255
-0.44200581 -0.10202534 1.6500001 151 158 137 255
-0.43700039 -0.10191017 1.6480001 148 155 133 255
-0.43253002 -0.10191868 1.6480001 146 153 131 255
-0.42805895 -0.10192721 1.6480001 141 148 127 255
-0.42358729 -0.10193575 1.6480001 144 151 130 255
-0.41911486 -0.10194431 1.6480001 141 148 127 255
-0.41464168 -0.10195287 1.6480001 145 152 131 255
-0.41016781 -0.10196144 1.6480001 147 152 131 255
-0.40544698 -0.10190813 1.6470001 148 153 131 255
-0.40097433 -0.1019167 1.6470001 144 149 127 255
-0.39650089 -0.10192526 1.6470001 144 150 125 255
-0.39202663 -0.10193381 1.6470001 141 147 122 255
-0.38755161 -0.10194236 1.6470001 142 149 127 255
-0.38354093 -0.10207469 1.649 149 156 134 255
-0.3790589 -0.10208323 1.649 152 158 140 255
-0.37434885 -0.10202982 1.6480001 145 154 135 255
-0.36941898 -0.10191447 1.646 168 177 158 255
-0.36494255 -0.10192293 1.646 170 176 158 255
-0.36024633 -0.10186943 1.6450001 141 150 131 255
-0.35598728 -0.10193976 1.646 143 150 129 255
-0.35172191 -0.10201006 1.6470001 147 154 133 255
-0.34871522 -0.102452 1.654 132 140 115 255
-0.34566957 -0.10289397 1.6610001 127 133 107 255
-0.3429957 -0.10345986 1.6700001 120 124 96 255
-0.33905599 -0.10365408 1.6730001 117 120 89 255
-0.3342993 -0.10360043 1.6720001 115 118 87 255
-0.32915267 -0.10342278 1.669 108 110 84 255
-0.32421607 -0.10330703 1.6670001 114 117 95 255
-0.31948122 -0.10325318 1.6660001 74 76 58 255
-0.3141838 -0.10301332 1.6620001 23 27 10 255
-0.30946627 -0.10295933 1.6610001 30 31 17 255
-0.30438617 -0.1027813 1.6580001 31 30 14 255
-0.2993215 -0.10260316 1.6550001 29 28 12 255
-0.29445049 -0.10248694 1.6530001 30 29 13 255
-0.28941408 -0.10230862 1.6500001 29 28 12 255
-0.28508386 -0.10237826 1.651 31 30 14 255
-0.28023753 -0.10226177 1.649 32 29 13 255
-0.27573565 -0.10226925 1.649 32 29 15 255
-0.2712329 -0.10227664 1.649 31 30 16 255
-0.26672935 -0.10228397 1.649 20 20 10 255
-0.26238394 -0.10235324 1.6500001 106 106 98 255
-0.25756335 -0.10223635 1.6480001 56 59 56 255
-0.25305998 -0.1022434 1.6480001 84 86 86 255
-0.24825408 -0.1021263 1.646 108 110 110 255
-0.24331023 -0.10194705 1.6430001 102 104 106 255
-0.23852731 -0.10182972 1.641 93 97 99 255
-0.23375458 -0.10171231 1.6390001 86 89 86 255
-0.2291318 -0.10165683 1.6380001 55 58 54 255
-0.22451374 -0.10160126 1.6370001 54 57 53 255
-0.21963154 -0.10142145 1.6340001 91 95 88 255
-0.21502832 -0.10136565 1.6330001 70 76 69 255
-0.21055877 -0.10137182 1.6330001 73 79 72 255
-0.20596224 -0.10131583 1.6320001 65 70 66 255
-0.2014939 -0.10132177 1.6320001 85 88 84 255
-0.19714561 -0.10138974 1.6330001 87 90 87 255
-0.19279107 -0.10145758 1.6340001 91 93 93 255
-0.18831511 -0.10146324 1.6340001 88 90 90 255
-0.18406345 -0.10159297 1.636 88 91 88 255
-0.17980017 -0.10172262 1.6380001 89 92 88 255
-0.17552523 -0.10185216 1.6400001 79 80 76 255
-0.1709258 -0.10179526 1.6390001 74 75 69 255
-0.1663312 -0.10173826 1.6380001 74 78 71 255
-0.16144505 -0.10149479 1.6340001 81 85 78 255
-0.15677233 -0.1013754 1.6320001 87 91 84 255
-0.15220328 -0.101318 1.631 87 91 84 255
-0.14772971 -0.10132259 1.631 95 98 94 255
-0.14325553 -0.10132707 1.631 91 94 90 255
-0.1387808 -0.10133141 1.631 87 88 84 255
-0.13430552 -0.10133564 1.631 87 88 84 255
-0.12990934 -0.10140187 1.6320001 84 85 81 255
-0.1255071 -0.10146799 1.6330001 93 96 92 255
-0.12124711 -0.10165824 1.636 81 84 80 255
-0.11675604 -0.10166196 1.636 82 86 79 255
-0.11233315 -0.1017277 1.6370001 80 84 77 255
-0.10770666 -0.10160687 1.6350001 82 86 79 255
-0.10309073 -0.1014859 1.6330001 83 87 80 255
-0.09860611 -0.10148908 1.6330001 86 90 83 255
-0.094178721 -0.10155427 1.6340001 86 90 83 255
-0.089690559 -0.10155719 1.6340001 88 92 85 255
-0.08525417 -0.10162212 1.6350001 89 90 86 255
-0.080762543 -0.10162476 1.6350001 84 85 79 255
-0.076317213 -0.10168942 1.636 83 84 78 255
-0.071822181 -0.10169178 1.636 79 83 76 255
-0.067367993 -0.10175616 1.6370001 78 82 75 255
-0.062908031 -0.10182041 1.6380001 79 85 77 255
-0.058406647 -0.10182235 1.6380001 79 83 76 255
-0.053905018 -0.10182416 1.6380001 80 84 77 255
-0.049403157 -0.10182582 1.6380001 79 83 76 255
-0.044955909 -0.10195167 1.6400001 81 85 78 255
-0.04052214 -0.10213954 1.6430001 80 82 74 255
-0.036049791 -0.1022651 1.6450001 79 83 75 255
-0.031604629 -0.10251486 1.649 77 81 74 255
-0.027153756 -0.10282665 1.654 75 79 72 255
-0.022620603 -0.10288961 1.6550001 76 80 73 255
-0.018060021 -0.10282811 1.654 78 79 73 255
-0.013496688 -0.10270427 1.6520001 75 79 72 255
-0.0089497138 -0.10264247 1.651 78 79 73 255
-0.0044108727 -0.10264269 1.651 81 82 76 255
0.00012806548 -0.10270492 1.6520001 80 84 77 255
0.0046781548 -0.10289136 1.6550001 79 83 76 255
0.0092391428 -0.10301547 1.6570001 77 81 74 255
0.013844389 -0.10338812 1.6630001 82 86 78 255
0.018460415 -0.10363627 1.6670001 79 83 76 255
0.023098355 -0.10388428 1.6710001 77 81 74 255
0.027691903 -0.10388347 1.6710001 79 83 76 255
0.032323971 -0.10400683 1.6730001 77 81 74 255
0.036944829 -0.10406788 1.674 80 84 77 255
0.041620661 -0.10425312 1.677 78 82 75 255
0.046230108 -0.10425171 1.677 79 83 76 255
0.050809044 -0.10418798 1.6760001 82 86 79 255
0.055382267 -0.10412411 1.6750001 80 84 77 255
0.060021382 -0.10418443 1.6760001 81 82 76 255
0.064665742 -0.10424458 1.677 81 82 76 255
0.069315314 -0.1043046 1.6780001 81 82 76 255
0.073926046 -0.10430232 1.6780001 83 84 78 255
0.078630075 -0.1044242 1.6800001 84 85 79 255
0.083196111 -0.10435946 1.6790001 80 84 77 255
0.087808602 -0.10435675 1.6790001 80 84 77 255
0.09231063 -0.10422958 1.677 82 86 79 255
0.096801296 -0.10410228 1.6750001 81 84 80 255
0.10122002 -0.1039127 1.6720001 85 88 84 255
0.10574844 -0.10384729 1.6710001 83 86 83 255
0.11033695 -0.10384388 1.6710001 83 86 83 255
0.11492501 -0.10384034 1.6710001 91 93 93 255
0.11951261 -0.10383668 1.6710001 90 93 90 255
0.12424824 -0.10395714 1.6730001 87 90 87 255
0.12891735 -0.10401534 1.674 84 87 83 255
0.13359141 -0.10407338 1.6750001 81 85 78 255
0.13810544 -0.10400703 1.674 80 84 77 255
0.14286917 -0.10412695 1.6760001 78 82 75 255
0.14729133 -0.10399821 1.674 76 81 77 255
0.15188344 -0.10399362 1.674 77 82 78 255
0.15656839 -0.10405102 1.6750001 79 84 81 255
0.16125824 -0.10410828 1.6760001 81 86 83 255
0.16585398 -0.10410331 1.6760001 85 90 87 255
0.17044908 -0.1040982 1.6760001 88 93 90 255
0.17493905 -0.10403086 1.6750001 90 95 92 255
0.1794229 -0.10396342 1.674 91 96 93 255
0.18390059 -0.10389587 1.6730001 90 95 91 255
0.18848477 -0.1038903 1.6730001 88 91 88 255
0.19295284 -0.10382252 1.6720001 91 94 91 255
0.19753285 -0.10381673 1.6720001 89 92 89 255
0.20247477 -0.10399709 1.6750001 90 93 90 255
0.20842135 -0.104674 1.6860001 88 92 85 255
0.21430103 -0.10528862 1.6960001 88 92 85 255
0.21933106 -0.10546855 1.6990001 85 89 82 255
0.22305839 -0.10502761 1.692 80 84 77 255
0.22715035 -0.10477282 1.6880001 74 78 71 255
0.23121962 -0.10451797 1.6840001 76 80 73 255
0.23582631 -0.10451129 1.6840001 83 86 82 255
0.24114609 -0.10481481 1.6890001 88 91 87 255
0.2466379 -0.10518022 1.6950001 86 90 83 255
0.25142047 -0.10523527 1.6960001 67 71 64 255
0.25545275 -0.10497998 1.692 61 65 58 255
0.25961608 -0.10478669 1.6890001 65 68 64 255
0.26407498 -0.10471739 1.6880001 72 75 71 255
0.26884598 -0.10477209 1.6890001 90 91 87 255
0.27443105 -0.10513683 1.6950001 89 90 86 255
0.27988335 -0.10543941 1.7 84 85 81 255
0.2846927 -0.10549381 1.7010001 53 54 48 255
0.28848597 -0.10517602 1.6960001 60 61 57 255
0.29397935 -0.10547829 1.7010001 83 86 82 255
0.30002582 -0.10596648 1.7090001 88 91 87 255
0.30629331 -0.10651652 1.7180001 83 87 80 255
0.31043687 -0.10632245 1.715 62 66 59 255
0.3140119 -0.10594238 1.7090001 61 65 58 255
0.31811273 -0.10574827 1.7060001 63 67 60 255
0.32276383 -0.10574005 1.7060001 68 72 65 255
0.32760599 -0.10579376 1.7070001 73 76 72 255
0.33245265 -0.1058474 1.7080001 76 79 76 255
0.33690917 -0.10577705 1.7070001 76 79 76 255
0.34135932 -0.10570665 1.7060001 72 77 74 255
0.34600592 -0.10569818 1.7060001 79 82 79 255
0.35085717 -0.10575161 1.7070001 79 82 79 255
0.35592124 -0.10586695 1.7090001 77 82 79 255
0.36057329 -0.10585832 1.7090001 79 84 80 255
0.36522448 -0.10584966 1.7090001 77 82 78 255
0.36987484 -0.10584097 1.7090001 77 82 79 255
0.37452421 -0.10583225 1.7090001 79 82 79 255
0.37939462 -0.10588542 1.71 81 84 81 255
0.38382044 -0.10581473 1.7090001 77 82 79 255
0.38846725 -0.10580592 1.7090001 78 83 80 255
0.39265317 -0.10567329 1.7070001 78 83 79 255
0.39752558 -0.10572635 1.7080001 79 84 80 255
0.40240255 -0.1057794 1.7090001 78 83 79 255
0.40728417 -0.10583241 1.71 76 81 78 255
0.41217044 -0.10588542 1.7110001 77 82 78 255
0.4170613 -0.10593841 1.7120001 78 83 79 255
0.42171043 -0.10592951 1.7120001 77 82 78 255
0.42660779 -0.10598247 1.7130001 79 85 78 255
0.43201345 -0.10615917 1.7160001 79 85 78 255
0.4379434 -0.10645954 1.7210001 82 86 79 255
0.44312829 -0.10657432 1.723 78 82 75 255
0.44858322 -0.10675093 1.7260001 79 83 76 255
0.4535284 -0.10680385 1.7270001 79 83 76 255
0.45874363 -0.1069186 1.7290001 74 78 71 255
0.4631649 -0.10684785 1.728 72 76 69 255
0.46758011 -0.10677715 1.7270001 73 77 70 255
0.47226262 -0.1067683 1.7270001 73 76 72 255
0.47722065 -0.10682129 1.728 75 78 74 255
0.48190472 -0.10681251 1.728 69 75 68 255
0.48686966 -0.10686556 1.7290001 74 78 71 255
0.49127087 -0.10679504 1.728 72 76 69 255
0.49566612 -0.10672458 1.7270001 73 77 70 255
0.49918613 -0.10646879 1.723 75 80 76 255
0.5032689 -0.10633667 1.7210001 80 83 79 255
0.50734031 -0.10620461 1.7190001 77 82 79 255
0.5114004 -0.10607265 1.7170001 79 84 81 255
0.5151487 -0.10587898 1.7140001 80 84 84 255
0.51918352 -0.10574718 1.7120001 83 87 87 255
0.52228922 -0.10543016 1.7070001 84 91 90 255
0.5269109 -0.10542206 1.7070001 84 88 88 255
0.5309093 -0.10529052 1.705 87 91 91 255
0.53521079 -0.10522083 1.7040001 83 87 87 255
0.5385561 -0.10496598 1.7 85 90 87 255
0.54379654 -0.1050817 1.702 88 91 87 255
0.54904765 -0.1051975 1.7040001 61 65 58 255
0.55398428 -0.10525162 1.705 35 39 32 255
0.5585987 -0.10524411 1.705 47 51 44 255
0.56486452 -0.1055453 1.71 77 81 74 255
0.57149035 -0.10590827 1.7160001 42 48 41 255
0.57613415 -0.10590101 1.7160001 33 39 32 255
0.57908559 -0.10558532 1.7110001 53 59 52 255
0.58235115 -0.10533147 1.7070001 70 76 69 255
0.58593893 -0.10513947 1.7040001 73 79 72 255
0.58985698 -0.10500931 1.702 78 84 77 255
0.5934152 -0.1048176 1.6990001 75 80 76 255
0.59730923 -0.10468772 1.697 75 80 76 255
0.60048318 -0.10443462 1.6930001 71 77 70 255
0.60399312 -0.10424336 1.6900001 85 91 84 255
0.60748696 -0.10405225 1.687 81 86 82 255
0.61132777 -0.10392298 1.6850001 85 90 86 255
0.61479247 -0.10373218 1.682 83 86 83 255
0.61787307 -0.1034799 1.6780001 90 93 89 255
0.62167436 -0.10335112 1.6760001 16 17 11 255
0.62583882 -0.10328416 1.6750001 19 21 13 255
0.62962198 -0.10315571 1.6730001 21 23 15 255
0.63187855 -0.10278078 1.6670001 23 26 14 255
0.63563037 -0.10265269 1.6650001 23 26 14 255
0.63975638 -0.10258642 1.664 21 24 12 255
0.64736217 -0.10307513 1.6720001 22 25 13 255
0.64487505 -0.10196123 1.654 22 25 13 255
0.64543182 -0.10134073 1.6440001 22 25 13 255
0.64988828 -0.10133686 1.6440001 23 26 14 255
0.65354949 -0.10120989 1.6420001 20 23 11 255
0.65760148 -0.10114474 1.641 23 26 14 255
0.65963173 -0.10077163 1.6350001 20 23 11 255
0.6636613 -0.10070689 1.6340001 22 25 13 255
0.66932184 -0.10088888 1.6370001 26 29 15 255
0.67582297 -0.10119431 1.6420001 25 28 14 255
0.67903799 -0.10100691 1.6390001 28 31 19 255
0.68056983 -0.10057323 1.6320001 26 29 17 255
0.68248463 -0.1002014 1.626 26 31 19 255
0.68436813 -0.099829808 1.6200001 24 29 18 255
0.68749577 -0.099643297 1.6170001 27 32 21 255
0.68804121 -0.09908729 1.608 26 32 24 255
0.68380249 -0.097853705 1.5880001 34 40 33 255
0.67555648 -0.096065775 1.559 36 42 35 255
0.67456704 -0.095325649 1.5470001 30 36 28 255
0.67746276 -0.09514033 1.544 29 33 25 255
0.68255121 -0.09526334 1.5460001 27 32 21 255
0.68365419 -0.094832011 1.539 24 29 18 255
0.68740249 -0.094770625 1.5380001 28 33 22 255
0.68979806 -0.094524629 1.534 27 32 21 255
0.69624519 -0.094833456 1.539 27 34 23 255
0.70090115 -0.094896048 1.5400001 30 37 26 255
0.70785379 -0.09526702 1.5460001 27 33 25 255
0.71299887 -0.09539175 1.5480001 40 49 38 255
0.71676701 -0.095331892 1.5470001 27 35 27 255
0.71913368 -0.095087424 1.5430001 39 47 40 255
0.72335589 -0.095089719 1.5430001 105 114 109 255
0.72899508 -0.095277175 1.5460001 165 173 172 255
0.73417872 -0.095403291 1.5480001 180 187 190 255
0.73794478 -0.095344804 1.5470001 182 188 194 255
0.73930907 -0.094978429 1.5410001 185 190 196 255
0.74064308 -0.094612315 1.5350001 184 189 195 255
0.73952049 -0.093938276 1.524 188 193 199 255
0.73980409 -0.093449384 1.516 188 193 199 255
0.7395559 -0.092899121 1.5070001 190 195 201 255
0.74172843 -0.092657343 1.503 190 195 201 255
-0.78373855 -0.11569136 1.7980001 240 240 240 255
-0.77278036 -0.11479134 1.784 224 224 224 255
-0.76663506 -0.11459938 1.7810001 235 238 235 255
-0.75965232 -0.11427898 1.7760001 244 249 245 255
-0.75099826 -0.11370146 1.7670001 235 241 234 255
-0.74070549 -0.11286676 1.7540001 229 235 228 255
-0.73174363 -0.11222533 1.7440001 218 224 216 255
-0.72325438 -0.11164849 1.7350001 210 216 208 255
-0.71647185 -0.11132925 1.7300001 215 221 213 255
-0.70930624 -0.11094586 1.7240001 236 242 234 255
-0.7029919 -0.1106914 1.72 223 229 222 255
-0.69629443 -0.11037279 1.715 229 235 228 255
-0.68922192 -0.10999002 1.7090001 229 235 228 255
-0.68258339 -0.10967177 1.7040001 228 234 227 255
-0.6751774 -0.10922499 1.697 229 235 228 255
-0.66820532 -0.10884276 1.6910001 222 228 221 255
-0.66165912 -0.10852505 1.6860001 219 225 218 255
-0.65592027 -0.10833624 1.6830001 207 213 206 255
-0.65058547 -0.108212 1.6810001 206 212 205 255
-0.64372504 -0.10783041 1.6750001 219 225 217 255
-0.63766092 -0.10757773 1.6710001 204 208 200 255
-0.63199788 -0.10738957 1.6680001 212 219 208 255
-0.62823278 -0.10752349 1.6700001 211 218 207 255
-0.62258989 -0.10733566 1.6670001 205 212 201 255
-0.61770529 -0.10727675 1.6660001 207 214 203 255
-0.61135417 -0.10696039 1.6610001 202 210 195 255
-0.60685748 -0.10696618 1.6610001 193 201 184 255
-0.60199833 -0.10690767 1.6600001 208 212 194 255
-0.59786493 -0.10697815 1.6610001 121 126 104 255
-0.59336907 -0.10698435 1.6610001 155 157 129 255
-0.58887351 -0.1069907 1.6610001 162 165 134 255
-0.584378 -0.10699716 1.6610001 161 164 133 255
-0.5795337 -0.10693936 1.6600001 156 159 128 255
-0.57538772 -0.10701051 1.6610001 157 160 129 255
-0.57089269 -0.10701737 1.6610001 155 158 127 255
-0.56707966 -0.10715321 1.6630001 154 157 126 255
-0.56325579 -0.10728918 1.6650001 154 156 128 255
-0.55875003 -0.10729641 1.6650001 152 154 126 255
-0.55457705 -0.10736819 1.6660001 152 154 126 255
-0.55039853 -0.10744007 1.6670001 157 159 131 255
-0.54654205 -0.10757653 1.669 158 160 134 255
-0.54234982 -0.10764866 1.6700001 153 155 127 255
-0.53815186 -0.10772087 1.6710001 157 159 133 255
-0.53394842 -0.10779318 1.6720001 156 158 132 255
-0.53005594 -0.10793008 1.674 156 158 130 255
-0.52583849 -0.1080026 1.6750001 159 161 133 255
-0.52161533 -0.10807522 1.6760001 158 162 136 255
-0.51707786 -0.10808341 1.6760001 162 166 140 255
-0.51284587 -0.10815617 1.677 163 166 142 255
-0.5086081 -0.10822905 1.6780001 155 158 134 255
-0.50526577 -0.10849549 1.682 140 145 123 255
-0.50130588 -0.10863302 1.6840001 145 150 128 255
-0.49674484 -0.10864162 1.6840001 145 150 128 255
-0.49159876 -0.1085212 1.682 148 153 132 255
-0.48704213 -0.10852989 1.682 145 151 133 255
-0.48191127 -0.10840958 1.6800001 147 151 133 255
-0.47650668 -0.10822473 1.677 142 148 130 255
-0.47083631 -0.10797539 1.6730001 165 171 153 255
-0.46546575 -0.10779056 1.6700001 173 180 159 255
-0.4603869 -0.10767032 1.6680001 178 185 164 255
-0.45531827 -0.10755007 1.6660001 168 175 154 255
-0.44998929 -0.10736527 1.6630001 160 167 145 255
-0.44467592 -0.10718047 1.6600001 155 160 138 255
-0.43884784 -0.10686652 1.6550001 156 162 137 255
-0.43357113 -0.10668168 1.6520001 153 161 136 255
-0.42856979 -0.10656143 1.6500001 152 159 137 255
-0.42434967 -0.10663491 1.651 152 157 135 255
-0.41961473 -0.10657924 1.6500001 148 153 131 255
-0.41513613 -0.10658817 1.6500001 146 151 130 255
-0.41040793 -0.10653249 1.649 149 154 133 255
-0.40593055 -0.10654142 1.649 153 158 136 255
-0.40120906 -0.10648575 1.6480001 149 154 132 255
-0.39697358 -0.10655928 1.649 147 153 128 255
-0.39249396 -0.1065682 1.649 144 150 124 255
-0.3882488 -0.10664175 1.6500001 149 155 130 255
-0.38376483 -0.10665065 1.6500001 152 157 135 255
-0.37928006 -0.10665953 1.6500001 154 161 139 255
-0.3745673 -0.10660376 1.649 150 159 140 255
-0.36985922 -0.10654794 1.6480001 150 159 140 255
-0.3653774 -0.10655676 1.6480001 174 180 162 255
-0.36067575 -0.10650089 1.6470001 139 146 125 255
-0.35619497 -0.10650963 1.6470001 141 148 126 255
-0.35214049 -0.10664771 1.649 152 158 133 255
-0.34933919 -0.10717385 1.6570001 140 146 120 255
-0.34649345 -0.10770001 1.6650001 130 136 110 255
-0.34380871 -0.10829093 1.674 118 122 94 255
-0.33965549 -0.10842903 1.6760001 118 121 90 255
-0.33469069 -0.10830829 1.674 120 120 90 255
-0.3297359 -0.10818748 1.6720001 119 121 93 255
-0.32479116 -0.10806661 1.6700001 115 118 94 255
-0.31985646 -0.10794567 1.6680001 58 60 42 255
-0.31474274 -0.10775993 1.6650001 35 37 20 255
-0.30964446 -0.10757409 1.6620001 29 30 16 255
-0.30419451 -0.10725871 1.6570001 30 29 13 255
-0.29895183 -0.10700795 1.6530001 31 30 14 255
-0.29426444 -0.10695129 1.6520001 29 28 12 255
-0.28958166 -0.10689457 1.651 32 31 15 255
-0.28524879 -0.10696726 1.6520001 34 31 15 255
-0.2803998 -0.10684562 1.6500001 33 30 14 255
-0.27589527 -0.1068534 1.6500001 33 30 16 255
-0.27155438 -0.10692588 1.651 35 31 20 255
-0.26704541 -0.10693352 1.651 19 19 9 255
-0.26253557 -0.10694107 1.651 101 103 95 255
-0.25755608 -0.1067542 1.6480001 58 61 58 255
-0.25320634 -0.10682636 1.649 95 97 97 255
-0.24839781 -0.10670407 1.6470001 108 110 110 255
-0.24359941 -0.10658167 1.6450001 100 102 104 255
-0.23866583 -0.10639437 1.6420001 101 103 105 255
-0.23403302 -0.10633653 1.641 91 94 91 255
-0.22940488 -0.10627861 1.6400001 65 68 64 255
-0.2246443 -0.10615576 1.6380001 71 74 70 255
-0.2200283 -0.10609761 1.6370001 79 82 78 255
-0.21554865 -0.10610416 1.6370001 94 100 93 255
-0.21081039 -0.10598097 1.6350001 69 75 68 255
-0.20620848 -0.10592249 1.6340001 72 75 71 255
-0.20173481 -0.10592871 1.6340001 79 82 78 255
-0.19762255 -0.10612932 1.6370001 81 84 81 255
-0.19325718 -0.10620017 1.6380001 93 95 95 255
-0.18865512 -0.10614124 1.6370001 87 89 89 255
-0.18417035 -0.10614702 1.6370001 89 91 91 255
-0.18001419 -0.10634723 1.6400001 90 93 90 255
-0.17573388 -0.10648248 1.6420001 74 75 71 255
-0.17123337 -0.10648793 1.6420001 72 73 69 255
-0.16642761 -0.10629869 1.6390001 79 80 74 255
-0.16144004 -0.10597959 1.6340001 84 88 81 255
-0.15676744 -0.10585491 1.6320001 88 91 87 255
-0.15229185 -0.10585985 1.6320001 92 95 91 255
-0.14790623 -0.10592951 1.6330001 93 94 90 255
-0.1434267 -0.10593417 1.6330001 91 92 88 255
-0.13894662 -0.1059387 1.6330001 85 86 82 255
-0.13454832 -0.10600798 1.6340001 82 83 79 255
-0.1302236 -0.10614202 1.636 83 84 80 255
-0.12581052 -0.10621105 1.6370001 94 98 91 255
-0.12153967 -0.10640971 1.6400001 86 90 83 255
-0.11703777 -0.1064136 1.6400001 80 84 77 255
-0.11246678 -0.10635246 1.6390001 82 86 79 255
-0.10776908 -0.1061614 1.636 84 88 81 255
-0.1030874 -0.10597018 1.6330001 85 89 82 255
-0.098663308 -0.10603839 1.6340001 82 86 79 255
-0.094233312 -0.10610648 1.6350001 84 88 81 255
-0.089852326 -0.10623931 1.6370001 86 90 83 255
-0.085407838 -0.1063071 1.6380001 89 90 84 255
-0.080908105 -0.10630986 1.6380001 86 87 81 255
-0.076454677 -0.10637737 1.6390001 86 87 81 255
-0.071951538 -0.10637984 1.6390001 84 85 79 255
-0.067406952 -0.10631726 1.6380001 81 85 78 255
-0.062905975 -0.10631943 1.6380001 81 85 78 255
-0.058440391 -0.10638636 1.6390001 81 85 78 255
-0.053936154 -0.10638824 1.6390001 77 81 74 255
-0.049431689 -0.10638996 1.6390001 77 81 74 255
-0.04495443 -0.10645647 1.6400001 84 85 79 255
-0.04052081 -0.10665264 1.6430001 78 80 72 255
-0.036070518 -0.10684866 1.646 77 81 73 255
-0.031622756 -0.10710945 1.6500001 79 81 73 255
-0.027136445 -0.10730518 1.6530001 78 79 73 255
-0.022592524 -0.10730603 1.6530001 77 81 74 255
-0.018037587 -0.10724179 1.6520001 76 77 73 255
-0.013488073 -0.1071774 1.651 76 79 75 255
-0.0089494186 -0.10717777 1.651 77 81 74 255
-0.0044160704 -0.10730784 1.6530001 76 80 73 255
0.00012837136 -0.10750267 1.6560001 78 82 75 255
0.0046893065 -0.10769733 1.659 79 83 76 255
0.0092722923 -0.10795677 1.6630001 81 85 77 255
0.013877231 -0.10821604 1.6670001 79 83 76 255
0.018493028 -0.10841026 1.6700001 80 84 77 255
0.023083771 -0.10840955 1.6700001 76 80 73 255
0.027657842 -0.10834377 1.669 80 84 77 255
0.032284264 -0.1084726 1.6710001 77 81 74 255
0.036921546 -0.10860128 1.6730001 81 85 78 255
0.041569658 -0.10872979 1.6750001 81 85 78 255
0.046173457 -0.1087283 1.6750001 81 85 78 255
0.050777063 -0.1087267 1.6750001 83 87 80 255
0.055380449 -0.10872491 1.6750001 83 87 80 255
0.060019415 -0.10878789 1.6760001 83 84 78 255
0.064740747 -0.10898055 1.6790001 83 84 78 255
0.069436975 -0.10910811 1.6810001 83 84 78 255
0.074099861 -0.10917063 1.682 80 84 77 255
0.078674316 -0.10910319 1.6810001 81 85 78 255
0.083193414 -0.1089707 1.6790001 80 84 77 255
0.087701149 -0.10883806 1.677 79 83 76 255
0.092252597 -0.10877019 1.6760001 82 86 79 255
0.096740372 -0.10863727 1.674 82 85 81 255
0.10127731 -0.10856912 1.6730001 81 84 80 255
0.10574502 -0.10843592 1.6710001 84 86 86 255
0.11026739 -0.10836748 1.6700001 86 88 88 255
0.11478377 -0.10829891 1.669 91 93 93 255
0.1195088 -0.10842487 1.6710001 89 92 89 255
0.12431855 -0.10861554 1.674 85 88 84 255
0.12906729 -0.10874119 1.6760001 79 82 78 255
0.13358718 -0.10867205 1.6750001 79 83 76 255
0.13810107 -0.10860278 1.674 78 82 75 255
0.14252371 -0.10846853 1.6720001 79 82 78 255
0.14702277 -0.10839899 1.6710001 79 84 80 255
0.15169723 -0.10845908 1.6720001 79 84 80 255
0.15637657 -0.10851903 1.6730001 85 90 87 255
0.16096458 -0.10851398 1.6730001 88 91 88 255
0.16555196 -0.1085088 1.6730001 92 95 92 255
0.170037 -0.10843863 1.6720001 94 97 94 255
0.17462035 -0.10843319 1.6720001 89 94 91 255
0.17920303 -0.10842764 1.6720001 89 94 90 255
0.1841148 -0.10861649 1.6750001 87 92 88 255
0.18881701 -0.10867554 1.6760001 88 91 87 255
0.19329318 -0.10860477 1.6750001 86 89 85 255
0.19788128 -0.10859872 1.6750001 83 86 82 255
0.20307308 -0.10891673 1.6800001 89 92 88 255
0.20903318 -0.10962354 1.6910001 90 94 87 255
0.21480007 -0.11020051 1.7 93 94 88 255
0.21932456 -0.1101291 1.6990001 83 87 80 255
0.22291997 -0.10960386 1.6910001 77 81 74 255
0.22727826 -0.10946747 1.6890001 75 79 72 255
0.23162472 -0.10933097 1.687 75 79 72 255
0.23609951 -0.1092592 1.6860001 82 85 81 255
0.24099632 -0.10938173 1.6880001 89 92 88 255
0.2466308 -0.10982813 1.6950001 90 94 87 255
0.25156146 -0.10995039 1.697 75 79 72 255
0.25559646 -0.10968384 1.6930001 62 65 61 255
0.25960869 -0.10941724 1.6890001 67 71 64 255
0.2639111 -0.10928012 1.687 74 77 73 255
0.26915675 -0.10953158 1.6910001 91 92 88 255
0.27458531 -0.10984767 1.6960001 89 90 84 255
0.28053415 -0.11035794 1.7040001 72 73 67 255
0.28518695 -0.11034998 1.7040001 51 52 46 255
0.28915846 -0.11008291 1.7 54 55 49 255
0.29414421 -0.1102043 1.702 80 83 79 255
0.30036882 -0.11077882 1.7110001 88 91 87 255
0.30610684 -0.11115895 1.7170001 81 85 78 255
0.31024763 -0.11095635 1.7140001 65 69 62 255
0.31363615 -0.11049477 1.7070001 63 67 60 255
0.31810436 -0.11042155 1.7060001 68 72 65 255
0.32256624 -0.11034827 1.705 74 77 73 255
0.32721364 -0.11033966 1.705 75 78 74 255
0.33166558 -0.11026629 1.7040001 76 79 75 255
0.33650586 -0.11032228 1.705 77 80 77 255
0.34095049 -0.1102488 1.7040001 77 80 77 255
0.34599724 -0.11036938 1.7060001 77 80 77 255
0.35064286 -0.1103605 1.7060001 80 83 80 255
0.35549593 -0.11041628 1.7070001 79 84 80 255
0.35993153 -0.11034263 1.7060001 80 85 81 255
0.36478823 -0.11039831 1.7070001 78 83 79 255
0.3696495 -0.11045393 1.7080001 77 82 79 255
0.37429616 -0.11044485 1.7080001 80 85 82 255
0.3787201 -0.11037109 1.7070001 78 81 78 255
0.38336232 -0.11036196 1.7070001 80 83 80 255
0.38800365 -0.1103528 1.7070001 81 86 83 255
0.39241415 -0.11027899 1.7060001 79 84 80 255
0.39705107 -0.11026978 1.7060001 80 85 82 255
0.40192264 -0.11032522 1.7070001 80 85 81 255
0.40703696 -0.11044525 1.7090001 80 85 81 255
0.41216135 -0.11056524 1.7110001 81 84 81 255
0.41729578 -0.1106852 1.7130001 80 85 82 255
0.42219397 -0.11074053 1.7140001 80 85 81 255
0.42709681 -0.11079586 1.715 82 87 83 255
0.43250784 -0.11098037 1.7180001 77 83 76 255
0.43818879 -0.11122946 1.7220001 76 82 75 255
0.4436335 -0.11141391 1.725 81 85 78 255
0.44857404 -0.11146917 1.7260001 79 83 76 255
0.45351925 -0.11152446 1.7270001 77 81 74 255
0.45899987 -0.11170889 1.7300001 75 79 72 255
0.46369192 -0.11169962 1.7300001 77 81 74 255
0.46811253 -0.11162578 1.7290001 74 78 71 255
0.47307399 -0.11168112 1.7300001 74 78 71 255
0.47776401 -0.11167193 1.7300001 72 78 71 255
0.48245353 -0.11166277 1.7300001 72 78 71 255
0.48742399 -0.11171819 1.7310001 72 78 71 255
0.49183059 -0.11164457 1.7300001 74 78 71 255
0.49623126 -0.11157101 1.7290001 74 78 71 255
0.49975681 -0.11130393 1.725 73 76 72 255
0.50384504 -0.11116599 1.723 80 83 79 255
0.50762683 -0.11096361 1.72 78 83 80 255
0.51139188 -0.11076133 1.7170001 79 84 81 255
0.51514018 -0.11055912 1.7140001 84 88 88 255
0.51887184 -0.11035702 1.7110001 84 88 88 255
0.52289283 -0.11021952 1.7090001 83 90 89 255
0.52752 -0.11021108 1.7090001 86 90 92 255
0.53152394 -0.11007375 1.7070001 82 86 88 255
0.53488863 -0.10980754 1.7030001 81 85 85 255
0.53791463 -0.10947701 1.6980001 88 92 92 255
0.54314965 -0.10959788 1.7 90 93 89 255
0.5483954 -0.10971882 1.702 61 64 60 255
0.55332673 -0.10977539 1.7030001 46 52 45 255
0.55826342 -0.10983204 1.7040001 57 61 54 255
0.56485701 -0.11021104 1.71 72 78 71 255
0.57181597 -0.11065453 1.7170001 31 37 30 255
0.57679826 -0.11071143 1.7180001 35 41 34 255
0.57975525 -0.11038179 1.7130001 49 55 48 255
0.58268517 -0.11005231 1.7080001 68 74 67 255
0.58627582 -0.10985185 1.705 71 77 70 255
0.59088993 -0.10984483 1.705 78 84 77 255
0.59445632 -0.10964465 1.702 75 83 76 255
0.59800661 -0.10944464 1.6990001 74 82 75 255
0.60154086 -0.10924479 1.6960001 73 79 72 255
0.60470158 -0.10898068 1.692 83 89 82 255
0.60820109 -0.10878115 1.6890001 79 84 80 255
0.61168468 -0.1085818 1.6860001 88 91 87 255
0.61551774 -0.108447 1.6840001 88 89 85 255
0.61823571 -0.1081192 1.6790001 96 97 93 255
0.62166893 -0.10792035 1.6760001 13 14 8 255
0.62508625 -0.10772169 1.6730001 22 24 16 255
0.62886417 -0.10758758 1.6710001 19 21 11 255
0.63149464 -0.10726053 1.6660001 22 25 11 255
0.63562554 -0.10719118 1.6650001 21 26 12 255
0.64013624 -0.10718638 1.6650001 20 25 11 255
0.64697063 -0.107568 1.6710001 21 26 12 255
0.64487082 -0.10646925 1.654 22 25 11 255
0.64582038 -0.10588571 1.6450001 21 24 10 255
0.64988434 -0.10581733 1.6440001 22 25 11 255
0.65354586 -0.10568479 1.6420001 21 24 12 255
0.65719736 -0.10555245 1.6400001 22 25 13 255
0.66003191 -0.10529158 1.636 20 23 11 255
0.66447049 -0.10528836 1.636 22 25 11 255
0.66972792 -0.10541409 1.6380001 25 28 14 255
0.67499715 -0.10554 1.6400001 25 28 14 255
0.67779261 -0.10528 1.636 25 28 16 255
0.6818186 -0.10521328 1.6350001 28 31 19 255
0.68542075 -0.10508244 1.6330001 26 31 19 255
0.68690103 -0.10463009 1.626 26 31 20 255
0.68962002 -0.10437102 1.6220001 25 30 19 255
0.68675625 -0.10327569 1.605 27 33 25 255
0.68164837 -0.1018589 1.5830001 37 43 35 255
0.67598903 -0.10037802 1.5600001 40 46 39 255
0.67369443 -0.099412173 1.5450001 36 40 32 255
0.67526853 -0.099025667 1.539 32 36 28 255
0.67946059 -0.099025451 1.539 28 33 22 255
0.6814332 -0.098703764 1.534 29 31 21 255
0.68784982 -0.099025778 1.539 34 37 25 255
0.69024843 -0.098768942 1.5350001 27 32 20 255
0.69534135 -0.098898418 1.5370001 27 32 20 255
0.69726121 -0.098577745 1.5320001 29 34 22 255
0.70648164 -0.099286877 1.5430001 28 33 21 255
0.71207935 -0.099481516 1.5460001 55 62 51 255
0.71584237 -0.099419042 1.5450001 25 31 23 255
0.71820378 -0.0991638 1.5410001 31 39 32 255
0.72242087 -0.099166229 1.5410001 97 104 100 255
0.72805476 -0.099361993 1.544 160 168 167 255
0.73323327 -0.099493727 1.5460001 177 184 187 255
0.73699409 -0.099432684 1.5450001 181 187 193 255
0.73835319 -0.099050134 1.539 183 188 194 255
0.73823446 -0.098474786 1.5300001 186 191 197 255
