ply
format ascii 1.0
comment PCL generated
element vertex 1027
property float x
property float y
property float z
property uchar red
property uchar green
property uchar blue
property uchar alpha
element camera 0
property float view_px
property float view_py
property float view_pz
property float x_axisx
property float x_axisy
property float x_axisz
property float y_axisx
property float y_axisy
property float y_axisz
property float z_axisx
property float z_axisy
property float z_axisz
property float focal
property float scalex
property float scaley
property float centerx
property float centery
property int viewportx
property int viewporty
property float k1
property float k2
end_header
0.34623775 0.18770637 1.5810001 72 79 68 255
0.34987229 0.18733589 1.5780001 72 79 68 255
0.35438755 0.18744028 1.5790001 72 78 70 255
0.35890746 0.18754458 1.58 72 78 70 255
0.36389193 0.18788625 1.5830001 70 76 68 255
0.36796159 0.18775311 1.582 69 75 67 255
0.37249577 0.18785733 1.5830001 71 77 69 255
0.37703463 0.1879615 1.5840001 74 78 70 255
0.38230059 0.18842164 1.5880001 73 77 69 255
0.38734406 0.18876302 1.5910001 70 74 66 255
0.39166462 0.18874846 1.5910001 70 74 66 255
0.3954868 0.18849666 1.5890001 69 73 65 255
0.39954904 0.18836352 1.5880001 69 76 65 255
0.40385956 0.18834904 1.5880001 69 76 65 255
0.40765542 0.18809739 1.5860001 68 75 64 255
0.4114399 0.18784581 1.5840001 71 78 66 255
0.41600019 0.18795003 1.585 68 75 63 255
0.42083061 0.18817285 1.5870001 67 74 62 255
0.42567122 0.18839568 1.5890001 70 75 61 255
0.42998105 0.18838142 1.5890001 68 76 61 255
0.43429035 0.18836723 1.5890001 67 74 62 255
0.43804702 0.18811601 1.5870001 69 76 64 255
0.44290736 0.18833901 1.5890001 68 75 63 255
0.44777808 0.18856207 1.5910001 67 74 62 255
0.4532274 0.18902215 1.595 67 74 62 255
0.45726374 0.18888977 1.5940001 65 72 60 255
0.46187329 0.18899448 1.595 64 71 59 255
0.4656111 0.18874383 1.5930001 66 73 62 255
0.46963274 0.18861179 1.5920001 64 69 58 255
0.47335076 0.18836139 1.59 70 75 64 255
0.47735819 0.18822964 1.5890001 69 74 62 255
0.48196605 0.18833488 1.59 68 73 61 255
0.48657906 0.18844026 1.5910001 66 71 60 255
0.48996311 0.18807203 1.5880001 48 55 44 255
0.49395308 0.18794081 1.5870001 69 76 65 255
0.4973096 0.18757293 1.5840001 73 81 74 255
0.50096631 0.18732364 1.582 80 88 81 255
0.50333452 0.18660095 1.5760001 86 94 87 255
0.50631434 0.18611529 1.572 80 88 81 255
0.5092724 0.18562989 1.5680001 92 100 93 255
0.51253617 0.18526307 1.5650001 87 95 88 255
0.51644409 0.18513322 1.5640001 88 94 87 255
0.52134532 0.18535867 1.5660001 82 88 81 255
0.5272643 0.18593934 1.5710001 73 79 72 255
0.53287196 0.1864018 1.575 72 78 70 255
0.53850144 0.18686441 1.5790001 72 79 68 255
0.54312152 0.18697214 1.58 77 84 72 255
0.54705423 0.18684345 1.5790001 79 86 74 255
0.5513308 0.18683329 1.5790001 57 64 52 255
0.55736703 0.18741497 1.5840001 77 82 70 255
0.56343055 0.18799682 1.5890001 78 83 69 255
0.56844968 0.18822394 1.5910001 29 34 20 255
0.57203984 0.18797809 1.5890001 29 35 18 255
0.57525688 0.18761422 1.5860001 33 39 22 255
0.57882345 0.18736891 1.5840001 48 56 41 255
0.58053893 0.18653251 1.577 55 62 50 255
0.58332956 0.18605129 1.5730001 72 79 67 255
0.5872196 0.18592519 1.572 77 84 72 255
0.59223366 0.18615422 1.5740001 78 85 73 255
0.59801704 0.18662003 1.5780001 76 83 72 255
0.6026777 0.18673135 1.5790001 79 86 74 255
0.60696006 0.18672471 1.5790001 79 88 76 255
0.61124319 0.18671839 1.5790001 76 85 73 255
0.61552703 0.18671238 1.5790001 77 86 74 255
0.6190266 0.1864702 1.577 77 84 72 255
0.62212104 0.18611015 1.5740001 78 83 71 255
0.62599599 0.18598695 1.5730001 82 85 73 255
0.63066781 0.18610054 1.5740001 12 15 3 255
0.63413584 0.18585981 1.572 21 22 10 255
0.63678187 0.18538299 1.5680001 22 23 11 255
0.63899845 0.18478833 1.5630001 22 23 9 255
0.64324671 0.18478519 1.5630001 20 23 9 255
0.6458391 0.18430954 1.559 20 23 9 255
0.65007889 0.18430717 1.559 23 24 10 255
0.65306091 0.18395056 1.5560001 20 23 9 255
0.65814012 0.18418543 1.5580001 21 24 10 255
0.66408181 0.18465714 1.562 21 24 10 255
0.66747957 0.18441996 1.5600001 21 24 10 255
0.67086792 0.18418323 1.5580001 23 26 12 255
0.6738137 0.1838287 1.5550001 22 26 9 255
0.67848891 0.18394749 1.5560001 21 25 8 255
0.68141609 0.18359384 1.5530001 23 27 10 255
0.68521178 0.18347709 1.552 21 25 8 255
0.6907807 0.18383367 1.5550001 22 26 9 255
0.69234514 0.18312673 1.549 24 28 10 255
0.69297934 0.1821838 1.5410001 26 30 13 255
0.69492906 0.181596 1.536 26 30 13 255
0.70322585 0.18266387 1.5450001 25 29 12 255
0.71248972 0.18396875 1.5560001 23 29 12 255
0.7176702 0.18421008 1.5580001 13 23 8 255
0.71915698 0.18350604 1.552 65 75 60 255
0.72061318 0.1828025 1.5460001 157 167 156 255
0.7215699 0.18198116 1.539 161 173 164 255
0.72390556 0.18151505 1.5350001 171 180 173 255
0.72574741 0.18093121 1.5300001 171 180 175 255
0.72756433 0.18034787 1.5250001 173 180 177 255
0.72791696 0.17941023 1.5170001 176 183 180 255
0.72774565 0.17835478 1.508 179 186 183 255
0.7280128 0.17741807 1.5000001 180 187 184 255
-0.76632047 0.18887462 1.6350001 229 231 221 255
-0.75298506 0.18667333 1.6160001 227 229 219 255
-0.74253571 0.18516585 1.603 215 220 208 255
-0.73538333 0.18446754 1.5970001 201 209 194 255
-0.72735053 0.18353876 1.5890001 198 206 191 255
-0.72118372 0.18307254 1.585 192 200 183 255
-0.7150411 0.18260688 1.5810001 190 198 181 255
-0.71072042 0.18260367 1.5810001 182 190 173 255
-0.70595509 0.18248548 1.58 181 190 171 255
-0.6998648 0.18202125 1.5760001 180 189 170 255
-0.6937983 0.18155751 1.572 174 183 164 255
-0.68863261 0.18132521 1.5700001 173 179 161 255
-0.6839155 0.18120886 1.5690001 166 173 152 255
-0.6792056 0.18109296 1.5680001 164 171 149 255
-0.67407233 0.18086201 1.5660001 160 166 141 255
-0.66895139 0.18063144 1.5640001 164 171 149 255
-0.66469306 0.18063232 1.5640001 162 169 147 255
-0.66001374 0.18051808 1.5630001 164 173 152 255
-0.65618044 0.18063524 1.5640001 164 173 152 255
-0.65234298 0.1807528 1.5650001 168 177 156 255
-0.64808726 0.18075524 1.5650001 160 170 147 255
-0.64342147 0.18064259 1.5640001 160 170 145 255
-0.63876224 0.18053028 1.5630001 163 171 145 255
-0.63410962 0.18041833 1.562 163 171 146 255
-0.62946349 0.18030675 1.5610001 164 172 147 255
-0.62562484 0.18042654 1.562 166 174 149 255
-0.62138402 0.18043114 1.562 168 176 151 255
-0.61714405 0.1804361 1.562 165 173 148 255
-0.61212027 0.18021037 1.5600001 161 169 144 255
-0.6082772 0.18033148 1.5610001 161 169 144 255
-0.60326856 0.18010634 1.559 164 171 149 255
-0.59904009 0.18011259 1.559 168 175 153 255
-0.59404922 0.17988804 1.557 164 174 151 255
-0.58944869 0.17977934 1.5560001 154 163 142 255
-0.58410197 0.1794398 1.5530001 160 170 147 255
-0.57989234 0.17944717 1.5530001 159 169 146 255
-0.57568324 0.17945482 1.5530001 157 166 145 255
-0.57110667 0.1793472 1.552 160 167 145 255
-0.56653595 0.17923982 1.5510001 162 168 143 255
-0.56197107 0.17913269 1.5500001 160 168 143 255
-0.55777186 0.17914136 1.5500001 168 176 151 255
-0.55357301 0.1791503 1.5500001 156 164 139 255
-0.54901993 0.17904386 1.549 175 183 158 255
-0.54482442 0.17905325 1.549 175 183 158 255
-0.54062909 0.17906286 1.549 162 170 144 255
-0.53574133 0.1788415 1.5470001 148 156 130 255
-0.53120816 0.17873591 1.5460001 142 151 122 255
-0.52668053 0.17863052 1.5450001 152 161 132 255
-0.52249664 0.17864096 1.5450001 160 169 138 255
-0.5176419 0.17842032 1.5430001 158 167 136 255
-0.51279807 0.17819984 1.5410001 157 164 133 255
-0.50895506 0.17832644 1.5420001 155 162 131 255
-0.50445217 0.17822196 1.5410001 164 173 142 255
-0.50027913 0.17823328 1.5410001 161 170 141 255
-0.49546215 0.1780134 1.539 162 171 142 255
-0.49161366 0.1781407 1.5400001 179 185 159 255
-0.48681006 0.17792113 1.5380001 145 151 125 255
-0.48233092 0.17781736 1.5370001 154 160 134 255
-0.47723475 0.17748229 1.534 182 188 162 255
-0.47246307 0.17726307 1.5320001 175 181 156 255
-0.46800768 0.17715962 1.531 151 159 133 255
-0.46386042 0.17717201 1.531 156 164 138 255
-0.45911238 0.17695305 1.529 159 165 139 255
-0.45496994 0.17696565 1.529 162 169 140 255
-0.45053238 0.17686263 1.5280001 150 157 128 255
-0.44609991 0.17675968 1.5270001 149 156 127 255
-0.44196185 0.17677256 1.5270001 145 153 127 255
-0.43753669 0.17666978 1.526 195 203 177 255
-0.43311664 0.17656708 1.5250001 181 191 165 255
-0.42842022 0.17634861 1.5230001 138 148 122 255
-0.42373422 0.17613021 1.521 152 161 132 255
-0.4193345 0.17602766 1.5200001 150 159 130 255
-0.4149397 0.17592514 1.5190001 168 177 146 255
-0.41027939 0.17570682 1.5170001 180 189 160 255
-0.40616488 0.1757202 1.5170001 153 162 133 255
-0.40204993 0.17573366 1.5170001 144 153 124 255
-0.39767203 0.17563127 1.516 148 156 130 255
-0.39355868 0.17564479 1.516 171 179 153 255
-0.38918787 0.17554244 1.5150001 157 167 141 255
-0.38482189 0.17544012 1.5140001 154 164 138 255
-0.37970635 0.17499015 1.5100001 179 190 161 255
-0.37535819 0.17488779 1.5090001 131 142 113 255
-0.37101483 0.17478544 1.508 144 155 126 255
-0.36691958 0.174799 1.508 157 168 139 255
-0.36282375 0.17481257 1.508 176 187 158 255
-0.35848939 0.1747102 1.5070001 175 188 161 255
-0.35463008 0.17483965 1.508 140 153 126 255
-0.35053229 0.17485322 1.508 153 166 139 255
-0.3462041 0.17475078 1.5070001 154 167 140 255
-0.34210762 0.17476428 1.5070001 154 167 140 255
-0.33823481 0.17489372 1.508 161 172 143 255
-0.33413422 0.17490715 1.508 153 164 135 255
-0.32981417 0.1748046 1.5070001 149 158 129 255
-0.32528269 0.17458597 1.5050001 148 157 126 255
-0.3214016 0.17471527 1.506 156 165 134 255
-0.31730369 0.17472856 1.506 151 160 129 255
-0.31299707 0.17462574 1.5050001 151 160 129 255
-0.30869517 0.17452286 1.5040001 154 165 134 255
-0.30419549 0.17430384 1.5020001 160 171 140 255
-0.29990575 0.17420079 1.501 155 166 135 255
-0.29581779 0.17421371 1.501 154 163 132 255
-0.29172915 0.17422657 1.501 151 161 128 255
-0.13611133 0.17497338 1.5040001 46 37 16 255
-0.13216418 0.17521331 1.506 64 50 30 255
-0.12795058 0.17510404 1.5050001 76 56 38 255
-0.12382424 0.17511092 1.5050001 81 60 40 255
-0.11945882 0.17476849 1.5020001 85 64 44 255
-0.11533979 0.17477494 1.5020001 84 63 43 255
-0.11122032 0.17478116 1.5020001 86 63 41 255
-0.10710043 0.17478716 1.5020001 81 58 36 255
-0.10304869 0.17490934 1.503 83 62 40 255
-0.098925248 0.17491494 1.503 83 62 40 255
-0.09486451 0.1750367 1.5040001 84 63 41 255
-0.090616919 0.1748091 1.5020001 85 64 42 255
-0.086495131 0.17481405 1.5020001 83 62 40 255
-0.08242783 0.17493513 1.503 85 64 44 255
-0.078354731 0.17505603 1.5040001 80 59 39 255
-0.074325196 0.17529312 1.506 82 60 42 255
-0.070284374 0.17552996 1.508 82 60 42 255
-0.066320032 0.17599942 1.5120001 78 57 37 255
-0.062333461 0.17646866 1.516 74 53 33 255
-0.058439791 0.17728691 1.5230001 69 48 28 255
-0.054400578 0.17775573 1.5270001 70 51 31 255
-0.050503567 0.17880635 1.536 67 50 30 255
-0.046526805 0.1797404 1.544 64 47 28 255
-0.042533312 0.18079066 1.5530001 66 51 32 255
-0.038366999 0.18125859 1.557 64 50 31 255
-0.034266151 0.182192 1.5650001 68 54 37 255
-0.030178674 0.18347442 1.5760001 69 55 38 255
-0.026030648 0.18475664 1.5870001 75 63 46 255
-0.021863062 0.18638785 1.6010001 67 59 42 255
-0.017585758 0.18766959 1.6120001 66 60 44 255
-0.013215302 0.18848541 1.6190001 67 63 47 255
-0.008779265 0.18871889 1.6210001 71 69 58 255
-0.0043241973 0.18860283 1.6200001 67 68 56 255
0.00012531804 0.18837011 1.618 65 70 59 255
0.0045694942 0.18836996 1.618 65 69 61 255
0.0090136509 0.18836959 1.618 64 71 60 255
0.013457774 0.18836896 1.618 68 75 64 255
0.017890777 0.18825164 1.6170001 69 75 67 255
0.022332026 0.1882505 1.6170001 70 76 68 255
0.026740067 0.18801627 1.6150001 74 81 70 255
0.031137019 0.18778178 1.613 78 84 76 255
0.03556696 0.18777987 1.613 75 81 73 255
0.040046353 0.18801057 1.6150001 68 74 66 255
0.044536564 0.188241 1.6170001 67 73 65 255
0.048977006 0.18823834 1.6170001 67 73 66 255
0.053483322 0.18846826 1.6190001 65 71 63 255
0.057893064 0.18834868 1.618 64 70 62 255
0.062335614 0.1883453 1.618 67 74 63 255
0.06669537 0.18810885 1.6160001 70 77 66 255
0.071131922 0.18810496 1.6160001 68 75 64 255
0.075568192 0.18810084 1.6160001 67 74 63 255
0.079954647 0.18798007 1.6150001 70 77 66 255
0.084387556 0.18797547 1.6150001 69 76 65 255
0.088820145 0.18797062 1.6150001 68 74 66 255
0.093310103 0.18808191 1.6160001 69 75 67 255
0.097563274 0.18772744 1.613 75 83 75 255
0.1018628 0.18748912 1.6110001 81 89 81 255
0.10615098 0.1872506 1.6090001 81 90 79 255
0.11056521 0.18724461 1.6090001 79 88 77 255
0.11490754 0.18712199 1.608 76 85 74 255
0.11924395 0.18699917 1.6070001 77 84 72 255
0.12349748 0.18675977 1.605 86 93 81 255
0.12797864 0.18686923 1.6060001 87 94 82 255
0.13246478 0.18697847 1.6070001 79 87 72 255
0.13695595 0.18708751 1.608 69 77 62 255
0.14145206 0.18719628 1.6090001 69 74 60 255
0.14622511 0.18765385 1.613 69 74 60 255
0.15083274 0.18787852 1.6150001 67 72 58 255
0.15535465 0.18798658 1.6160001 66 71 59 255
0.15948597 0.18762916 1.613 65 70 58 255
0.16370189 0.1873879 1.6110001 66 73 62 255
0.16780192 0.18703012 1.608 66 73 62 255
0.17209911 0.18690482 1.6070001 73 81 73 255
0.17606068 0.18643041 1.603 82 90 82 255
0.18022488 0.18618844 1.6010001 85 93 86 255
0.18426219 0.18583 1.598 83 91 84 255
0.18863656 0.18582028 1.598 75 81 74 255
0.19325183 0.1860429 1.6 73 79 71 255
0.19824798 0.18661417 1.605 72 79 68 255
0.20276579 0.18672012 1.6060001 67 74 63 255
0.20703039 0.18659334 1.605 61 68 57 255
0.21089365 0.18611768 1.6010001 66 74 66 255
0.21446544 0.18540941 1.595 72 80 73 255
0.21855246 0.18516602 1.5930001 90 98 91 255
0.22318754 0.18538737 1.595 96 104 97 255
0.2281182 0.18584102 1.5990001 67 73 65 255
0.2329246 0.18617822 1.6020001 61 67 59 255
0.23685783 0.18581796 1.5990001 59 66 55 255
0.2406231 0.18534139 1.595 61 70 59 255
0.24467297 0.18509716 1.5930001 69 78 67 255
0.24871114 0.18485281 1.5910001 76 84 76 255
0.25241956 0.18437597 1.5870001 58 66 58 255
0.2564289 0.1841314 1.585 54 62 55 255
0.26026207 0.18377058 1.582 72 80 73 255
0.26491433 0.18399046 1.5840001 87 93 85 255
0.26940677 0.18409404 1.585 68 74 66 255
0.27390388 0.18419749 1.5860001 62 68 60 255
0.27770394 0.18383627 1.5830001 61 67 59 255
0.28130874 0.18335888 1.5790001 67 73 65 255
0.28543362 0.18322977 1.5780001 67 73 66 255
0.28955221 0.1831006 1.577 88 96 88 255
0.29422364 0.18331964 1.5790001 80 86 78 255
0.2987161 0.18342245 1.58 70 77 66 255
0.30321321 0.18352516 1.5810001 69 76 64 255
0.30752057 0.1835117 1.5810001 69 76 64 255
0.31182709 0.18349816 1.5810001 71 78 67 255
0.3159329 0.18336849 1.58 67 73 65 255
0.31962714 0.18300666 1.577 68 76 68 255
0.3233043 0.18264483 1.5740001 76 84 76 255
0.32779682 0.18274708 1.575 71 79 71 255
0.3320832 0.18273324 1.575 67 73 65 255
0.33700955 0.18306741 1.5780001 71 78 67 255
0.34151894 0.18316948 1.5790001 72 77 66 255
0.34581396 0.18315546 1.5790001 67 72 61 255
0.34966475 0.18290943 1.577 68 75 63 255
0.35395285 0.18289535 1.577 72 79 68 255
0.35869458 0.1831132 1.5790001 72 79 68 255
0.36321661 0.18321501 1.58 67 74 63 255
0.36751074 0.18320085 1.58 68 75 64 255
0.37180415 0.18318667 1.58 71 78 67 255
0.37633494 0.1832884 1.5810001 67 74 63 255
0.38111123 0.18350603 1.5830001 71 76 65 255
0.38638461 0.18395545 1.5870001 70 75 64 255
0.39094049 0.18405707 1.5880001 70 74 66 255
0.39525229 0.18404281 1.5880001 70 75 64 255
0.39931184 0.18391268 1.5870001 68 75 64 255
0.40412828 0.18413022 1.5890001 68 75 64 255
0.40818384 0.1840001 1.5880001 69 76 65 255
0.41223341 0.18387008 1.5870001 67 74 62 255
0.41653937 0.18385595 1.5870001 67 74 62 255
0.42110997 0.1839577 1.5880001 67 74 62 255
0.42541748 0.18394364 1.5880001 69 74 62 255
0.42999515 0.18404546 1.5890001 70 78 63 255
0.43375778 0.18379988 1.5870001 68 76 61 255
0.43778494 0.18367018 1.5860001 67 75 60 255
0.44236377 0.18377216 1.5870001 65 73 58 255
0.44751045 0.1841058 1.59 65 73 58 255
0.45267287 0.18443945 1.5930001 67 74 62 255
0.45727748 0.1845416 1.5940001 64 72 57 255
0.46188694 0.18464379 1.595 64 71 59 255
0.4662092 0.18463033 1.595 64 71 59 255
0.46994111 0.18438548 1.5930001 61 68 57 255
0.47366175 0.18414076 1.5910001 64 69 58 255
0.47737136 0.1838962 1.5890001 66 71 59 255
0.48228219 0.18411466 1.5910001 64 69 57 255
0.48659202 0.18410181 1.5910001 64 69 58 255
0.49059296 0.18397334 1.59 53 60 49 255
0.49427694 0.18372935 1.5880001 52 59 48 255
0.49826398 0.18360123 1.5870001 64 72 65 255
0.50161195 0.18324187 1.5840001 78 86 79 255
0.50462413 0.18276706 1.58 80 88 81 255
0.50761461 0.18229248 1.5760001 85 93 86 255
0.51090795 0.18193375 1.5730001 89 97 90 255
0.51385766 0.18145961 1.5690001 91 99 92 255
0.51678556 0.18098569 1.5650001 87 95 88 255
0.52002472 0.18062763 1.562 82 88 81 255
0.52492583 0.18084799 1.5640001 78 84 76 255
0.52916104 0.18083724 1.5640001 72 78 70 255
0.53510165 0.1814048 1.5690001 72 79 68 255
0.54038191 0.18174124 1.572 76 83 72 255
0.54498559 0.18184666 1.5730001 76 83 72 255
0.5499441 0.18206787 1.575 72 77 65 255
0.55667305 0.18286727 1.582 77 82 70 255
0.5634402 0.18366681 1.5890001 66 71 59 255
0.56810164 0.18377298 1.59 28 33 19 255
0.57132894 0.18341716 1.5870001 29 34 20 255
0.57417744 0.18294598 1.5830001 33 38 24 255
0.57737029 0.18259069 1.58 49 57 42 255
0.58017904 0.18212014 1.5760001 54 61 49 255
0.58259588 0.18153436 1.5710001 64 71 60 255
0.5861066 0.18129553 1.5690001 77 84 73 255
0.5899834 0.18117255 1.5680001 74 81 70 255
0.59499228 0.18139647 1.5700001 74 81 70 255
0.6000126 0.18162069 1.572 73 82 71 255
0.60504454 0.18184519 1.5740001 77 86 74 255
0.60970092 0.18195443 1.575 75 84 72 255
0.61436343 0.18206401 1.5760001 74 83 71 255
0.61824703 0.18194282 1.575 73 81 66 255
0.62212616 0.18182202 1.5740001 76 81 67 255
0.62600082 0.18170153 1.5730001 82 85 73 255
0.63107294 0.1819279 1.575 14 17 5 255
0.63373655 0.18146159 1.5710001 22 23 11 255
0.63597339 0.18088014 1.5660001 23 24 12 255
0.63777524 0.18018357 1.5600001 23 24 10 255
0.64201504 0.1801804 1.5600001 21 24 10 255
0.6458416 0.18006209 1.559 19 22 8 255
0.6500811 0.18005969 1.559 20 23 9 255
0.65180361 0.1793647 1.5530001 20 23 9 255
0.65560693 0.17924756 1.552 21 24 10 255
0.66068166 0.1794773 1.554 20 23 9 255
0.66576874 0.17970748 1.5560001 22 25 11 255
0.66957629 0.17959155 1.5550001 22 25 11 255
0.6738134 0.17959155 1.5550001 21 25 8 255
0.67674404 0.17924552 1.552 22 26 9 255
0.67965984 0.1788999 1.549 21 25 8 255
0.68300265 0.17867023 1.5470001 24 28 11 255
0.69166702 0.17982693 1.557 23 27 10 255
0.69234258 0.17890519 1.549 24 28 10 255
0.69297642 0.17798389 1.5410001 27 31 14 255
0.69311589 0.1769475 1.5320001 28 32 15 255
0.70276672 0.17833714 1.544 24 28 11 255
0.71294314 0.17984283 1.557 24 30 13 255
0.7176652 0.17996296 1.5580001 16 26 11 255
0.71868813 0.17915954 1.5510001 33 43 28 255
0.7206071 0.17858759 1.5460001 142 152 141 255
0.72156346 0.17778508 1.539 158 170 161 255
0.72484177 0.17756064 1.5370001 168 177 170 255
0.72573984 0.17675909 1.5300001 172 181 176 255
0.72707921 0.17607357 1.524 174 183 178 255
0.72694868 0.17504187 1.5150001 177 184 181 255
0.72773647 0.17424171 1.508 181 188 185 255
-0.76115817 0.18317622 1.6240001 227 229 219 255
-0.74925148 0.18136543 1.608 223 228 217 255
-0.74021423 0.18023202 1.598 210 215 203 255
-0.73399705 0.17977589 1.5940001 202 210 195 255
-0.72780395 0.17932029 1.59 197 205 190 255
-0.72163504 0.17886519 1.5860001 191 199 184 255
-0.71503776 0.17829783 1.5810001 186 194 177 255
-0.70981854 0.17806929 1.5790001 187 195 178 255
-0.70550585 0.17806676 1.5790001 181 190 171 255
-0.69941878 0.17761362 1.575 179 188 169 255
-0.69379681 0.17727368 1.572 172 178 160 255
-0.68819308 0.17693424 1.5690001 171 178 157 255
-0.68347907 0.17682073 1.5680001 166 173 151 255
-0.67833918 0.1765949 1.5660001 162 169 147 255
-0.6736421 0.17648226 1.5650001 165 172 150 255
-0.66937983 0.1764828 1.5650001 163 170 148 255
-0.66554415 0.17659654 1.5660001 161 168 146 255
-0.66085976 0.17648509 1.5650001 167 174 152 255
-0.6570214 0.17659961 1.5660001 160 167 145 255
-0.65276206 0.17660172 1.5660001 158 168 145 255
-0.64891815 0.176717 1.567 159 166 144 255
-0.6438359 0.17649433 1.5650001 167 174 152 255
-0.63958299 0.17649755 1.5650001 165 175 149 255
-0.63492531 0.17638837 1.5640001 163 173 148 255
-0.62987083 0.17616674 1.562 165 173 147 255
-0.62562931 0.17617102 1.562 166 174 148 255
-0.62178659 0.17628841 1.5630001 167 175 149 255
-0.61793941 0.17640616 1.5640001 163 171 145 255
-0.61330289 0.17629865 1.5630001 162 170 145 255
-0.60828292 0.17607863 1.5610001 166 174 149 255
-0.60327458 0.1758589 1.559 167 174 152 255
-0.59866226 0.1757523 1.5580001 168 175 153 255
-0.59443748 0.17575876 1.5580001 169 178 157 255
-0.58983439 0.1756527 1.557 166 176 153 255
-0.58486146 0.17543413 1.5550001 164 171 149 255
-0.58064663 0.17544141 1.5550001 158 166 141 255
-0.57643241 0.17544901 1.5550001 156 163 141 255
-0.57185066 0.17534402 1.554 164 171 149 255
-0.56690943 0.17512643 1.552 151 159 134 255
-0.56234217 0.17502195 1.5510001 164 172 147 255
-0.55778062 0.17491767 1.5500001 168 176 151 255
-0.5532248 0.17481361 1.549 173 181 156 255
-0.54902917 0.17482264 1.549 158 166 141 255
-0.54483384 0.17483191 1.549 149 157 131 255
-0.54063874 0.17484139 1.549 148 156 130 255
-0.53644377 0.17485109 1.549 152 161 132 255
-0.53224903 0.17486098 1.549 156 165 136 255
-0.5273726 0.17464532 1.5470001 152 161 132 255
-0.52284533 0.17454271 1.5460001 168 177 148 255
-0.51798803 0.17432737 1.544 164 173 144 255
-0.51314157 0.17411219 1.5420001 147 156 127 255
-0.50929618 0.17423593 1.5430001 169 178 147 255
-0.50511801 0.17424691 1.5430001 166 175 144 255
-0.50061506 0.17414512 1.5420001 178 187 156 255
-0.49579558 0.17393054 1.5400001 178 185 154 255
-0.49130601 0.17382903 1.539 142 149 120 255
-0.4871383 0.17384063 1.539 145 152 123 255
-0.48234278 0.17362642 1.5370001 165 171 145 255
-0.4775579 0.17341234 1.5350001 178 184 159 255
-0.47278354 0.17319834 1.5330001 166 172 147 255
-0.46832561 0.17309745 1.5320001 168 174 149 255
-0.46387276 0.17299664 1.531 160 168 142 255
-0.45972535 0.17300892 1.531 150 157 128 255
-0.45587519 0.17313434 1.5320001 165 172 143 255
-0.45142955 0.17303385 1.531 157 164 135 255
-0.44698906 0.17293344 1.5300001 149 156 127 255
-0.44255352 0.1728331 1.529 171 179 153 255
-0.43812311 0.17273284 1.5280001 200 208 182 255
-0.43369767 0.17263262 1.5270001 139 149 123 255
-0.42899585 0.17241943 1.5250001 145 155 129 255
-0.42458311 0.17231934 1.524 156 165 136 255
-0.42045119 0.17233239 1.524 157 166 137 255
-0.41577238 0.17211929 1.5220001 175 184 153 255
-0.41137448 0.17201933 1.521 156 165 136 255
-0.40724921 0.17203252 1.521 153 162 133 255
-0.40338847 0.17215887 1.5220001 145 154 125 255
-0.39899701 0.172059 1.521 134 143 114 255
-0.39487013 0.17207231 1.521 174 182 156 255
-0.39022887 0.17185937 1.5190001 153 162 133 255
-0.38610619 0.17187272 1.5190001 155 164 135 255
-0.38122857 0.17154662 1.516 187 196 167 255
-0.37636665 0.1712205 1.5130001 142 153 124 255
-0.37201238 0.17112064 1.5120001 145 156 127 255
-0.36790633 0.171134 1.5120001 171 184 157 255
-0.36379963 0.17114735 1.5120001 169 179 153 255
-0.35993013 0.17127389 1.5130001 161 174 145 255
-0.35558426 0.17117402 1.5120001 134 147 118 255
-0.35147551 0.17118734 1.5120001 154 165 134 255
-0.34713641 0.17108743 1.511 150 161 130 255
-0.34302908 0.17110069 1.511 164 175 144 255
-0.33892107 0.17111397 1.511 159 170 139 255
-0.33459073 0.17101394 1.5100001 159 170 139 255
-0.33004627 0.17080058 1.508 149 158 127 255
-0.32551202 0.17058718 1.506 143 152 121 255
-0.3214148 0.17060025 1.506 152 161 132 255
-0.31752747 0.17072657 1.5070001 145 152 123 255
-0.31342608 0.17073956 1.5070001 139 148 119 255
-0.30911869 0.17063917 1.506 152 161 132 255
-0.30481598 0.17053869 1.5050001 167 176 147 255
-0.30071786 0.17055149 1.5050001 149 160 131 255
-0.29661894 0.1705642 1.5050001 146 157 128 255
-0.29232493 0.17046352 1.5040001 144 153 124 255
-0.28765234 0.17013602 1.501 149 158 127 255
-0.28337324 0.17003514 1.5000001 150 159 128 255
-0.27928498 0.17004748 1.5000001 145 152 121 255
-0.27537945 0.17017312 1.501 142 149 118 255
-0.27128702 0.17018531 1.501 145 152 121 255
-0.26701587 0.17008404 1.5000001 149 156 124 255
-0.13620912 0.17096804 1.5050001 52 43 20 255
-0.1321713 0.17108876 1.506 63 49 29 255
-0.12804249 0.17109567 1.506 70 53 33 255
-0.12383092 0.1709888 1.5050001 74 55 35 255
-0.11938576 0.17054085 1.501 78 57 37 255
-0.11519247 0.17043354 1.5000001 83 62 40 255
-0.10696366 0.17044552 1.5000001 82 59 36 255
-0.10298578 0.17067848 1.5020001 82 61 39 255
-0.098799035 0.1705703 1.501 84 63 41 255
-0.094617426 0.17046195 1.5000001 84 63 41 255
-0.086384729 0.17047183 1.5000001 81 60 38 255
-0.082267873 0.17047645 1.5000001 82 59 39 255
-0.078254879 0.17070815 1.5020001 81 60 40 255
-0.074131906 0.17071235 1.5020001 77 56 36 255
-0.07010185 0.17094363 1.5040001 80 58 40 255
-0.066060536 0.17117471 1.506 78 57 37 255
-0.062090226 0.17163292 1.5100001 70 49 29 255
-0.05809769 0.17209087 1.5140001 70 49 29 255
-0.053976089 0.17220767 1.5150001 74 53 33 255
-0.049848765 0.1723242 1.516 70 49 29 255
-0.045745894 0.17255421 1.5180001 71 52 32 255
-0.04165924 0.17289765 1.521 71 51 33 255
-0.037506655 0.17301354 1.5220001 65 48 29 255
-0.033392221 0.17335655 1.5250001 68 51 32 255
-0.029337773 0.17415401 1.5320001 68 53 34 255
-0.025326768 0.17551968 1.544 63 49 32 255
-0.021331685 0.1775672 1.562 62 48 31 255
-0.017281273 0.18006925 1.5840001 64 52 35 255
-0.013077277 0.18211633 1.6020001 67 59 42 255
-0.0087201828 0.18302639 1.6100001 78 74 60 255
-0.0043030861 0.18325412 1.6120001 74 70 59 255
0.00012493783 0.18336791 1.613 69 71 61 255
0.00455563 0.18336777 1.613 68 70 60 255
0.0089974478 0.18359478 1.6150001 65 72 61 255
0.013425261 0.18348046 1.6140001 69 76 65 255
0.017836461 0.18325223 1.6120001 72 78 70 255
0.022236604 0.18302375 1.6100001 75 81 73 255
0.026642226 0.18290871 1.6090001 78 85 74 255
0.031042246 0.18279342 1.608 76 83 72 255
0.035458699 0.18279156 1.608 68 75 64 255
0.039899815 0.18290314 1.6090001 66 72 64 255
0.044373795 0.18312813 1.6110001 65 71 63 255
0.048828308 0.18323925 1.6120001 66 72 64 255
0.053288098 0.18335007 1.613 66 72 64 255
0.057717398 0.183347 1.613 66 72 64 255
0.062146463 0.18334366 1.613 69 78 67 255
0.066492729 0.18311277 1.6110001 74 81 70 255
0.070915788 0.18310899 1.6110001 74 81 70 255
0.075338565 0.18310495 1.6110001 72 79 68 255
0.079662032 0.18287337 1.6090001 71 78 67 255
0.084026456 0.18275522 1.608 74 81 70 255
0.08838506 0.18263683 1.6070001 77 83 75 255
0.092853315 0.18274552 1.608 80 86 78 255
0.097205721 0.18262668 1.6070001 79 87 79 255
0.10142578 0.18228032 1.6040001 86 94 86 255
0.10576094 0.18216103 1.603 85 94 83 255
0.11009022 0.18204156 1.6020001 82 91 80 255
0.11448504 0.18203548 1.6020001 79 86 75 255
0.11880521 0.18191554 1.6010001 76 83 71 255
0.12319641 0.18190901 1.6010001 75 82 70 255
0.12758712 0.18190229 1.6010001 71 76 62 255
0.13205978 0.18200897 1.6020001 69 75 58 255
0.13662262 0.18222898 1.6040001 67 72 58 255
0.14128383 0.1825624 1.6070001 68 73 59 255
0.14605163 0.18300919 1.6110001 70 74 57 255
0.15084079 0.18345572 1.6150001 69 72 58 255
0.15526678 0.18344764 1.6150001 64 69 57 255
0.15939556 0.18309861 1.6120001 64 69 57 255
0.16360892 0.182863 1.6100001 65 72 61 255
0.16781075 0.1826272 1.608 67 74 63 255
0.17200103 0.18239123 1.6060001 70 78 70 255
0.17606987 0.1820415 1.603 76 84 76 255
0.18000911 0.18157807 1.5990001 82 90 83 255
0.1840411 0.18122807 1.5960001 86 94 86 255
0.18829213 0.18110499 1.595 82 88 80 255
0.19289942 0.18132237 1.5970001 74 80 72 255
0.19776399 0.1817666 1.6010001 72 78 70 255
0.20239732 0.18198356 1.603 65 72 61 255
0.20652486 0.18174624 1.6010001 64 70 62 255
0.21050908 0.18139526 1.598 68 76 68 255
0.21447617 0.18104415 1.595 75 83 76 255
0.21856335 0.18080643 1.5930001 86 94 87 255
0.22319861 0.18102254 1.595 97 103 96 255
0.22798677 0.18135196 1.598 73 79 71 255
0.23279062 0.1816812 1.6010001 62 69 58 255
0.23672128 0.18132938 1.598 56 63 52 255
0.2406348 0.18097746 1.595 63 70 58 255
0.24468477 0.18073893 1.5930001 65 72 60 255
0.24872306 0.18050025 1.5910001 75 84 73 255
0.25243157 0.18003461 1.5870001 55 63 55 255
0.25660285 0.17990918 1.5860001 51 59 51 255
0.26060337 0.17967024 1.5840001 87 95 87 255
0.26509395 0.17977144 1.585 94 100 92 255
0.26958928 0.17987251 1.5860001 68 74 66 255
0.27408925 0.17997347 1.5870001 55 61 53 255
0.27789211 0.17962068 1.5840001 59 65 57 255
0.28132153 0.17904107 1.5790001 65 71 63 255
0.28562742 0.17902836 1.5790001 73 79 72 255
0.28974882 0.17890213 1.5780001 85 93 85 255
0.29423675 0.1790026 1.5790001 78 84 76 255
0.29872927 0.17910291 1.58 72 78 70 255
0.3032265 0.17920315 1.5810001 68 75 63 255
0.3073394 0.17907658 1.58 68 75 63 255
0.31164333 0.17906334 1.58 71 78 67 255
0.31554648 0.17882332 1.5780001 66 73 62 255
0.31943804 0.17858331 1.5760001 70 76 68 255
0.32331792 0.17834324 1.5740001 73 81 73 255
0.32760239 0.17832974 1.5740001 69 77 69 255
0.33230782 0.17854275 1.5760001 68 75 64 255
0.33702332 0.17875566 1.5780001 69 76 65 255
0.3415328 0.17885526 1.5790001 72 77 65 255
0.34582788 0.1788415 1.5790001 70 75 63 255
0.34923521 0.17837469 1.575 73 78 66 255
0.35351792 0.17836091 1.575 70 77 65 255
0.35802707 0.17846031 1.5760001 70 77 66 255
0.36254096 0.17855969 1.577 71 78 67 255
0.36705956 0.17865902 1.5780001 72 79 68 255
0.37134758 0.17864513 1.5780001 71 78 67 255
0.37587291 0.17874439 1.5790001 68 75 64 255
0.38064378 0.17895685 1.5810001 70 77 66 255
0.38493788 0.1789429 1.5810001 71 76 65 255
0.38947746 0.1790421 1.582 71 76 65 255
0.39427078 0.1792545 1.5840001 73 78 67 255
0.3988227 0.17935368 1.585 69 76 64 255
0.40388805 0.1796792 1.5880001 70 77 65 255
0.40845495 0.17977837 1.5890001 67 74 62 255
0.41276693 0.17976445 1.5890001 69 76 64 255
0.41681582 0.17963743 1.5880001 69 76 64 255
0.42112392 0.17962359 1.5880001 66 73 61 255
0.42569932 0.17972288 1.5890001 67 74 62 255
0.43000898 0.17970911 1.5890001 68 76 61 255
0.43377152 0.17946923 1.5870001 68 76 61 255
0.43752265 0.17922944 1.585 66 74 59 255
0.44237742 0.17944202 1.5870001 68 76 61 255
0.44752404 0.1797677 1.59 66 74 59 255
0.45297062 0.18020648 1.5940001 70 75 61 255
0.45729095 0.18019307 1.5940001 69 74 62 255
0.46218988 0.18040581 1.5960001 64 69 57 255
0.4668071 0.18050559 1.5970001 64 71 60 255
0.47083935 0.18037944 1.5960001 60 67 56 255
0.47427028 0.18002735 1.5930001 64 70 62 255
0.47798511 0.17978844 1.5910001 66 70 62 255
0.48229504 0.17977567 1.5910001 67 71 63 255
0.48691052 0.179876 1.5920001 64 68 60 255
0.49091408 0.17975047 1.5910001 57 61 53 255
0.49491188 0.17962511 1.59 55 62 51 255
0.49827623 0.17927398 1.5870001 56 64 56 255
0.50225747 0.17914893 1.5860001 71 79 71 255
0.50527483 0.17868519 1.582 80 88 81 255
0.50859261 0.17833462 1.5790001 86 94 87 255
0.51156914 0.1778713 1.575 90 98 91 255
0.51452404 0.17740825 1.5710001 88 96 89 255
0.5177874 0.17705829 1.5680001 72 80 73 255
0.52136737 0.1768215 1.5660001 67 75 67 255
0.52493662 0.17658491 1.5640001 77 84 73 255
0.52883327 0.17646141 1.5630001 77 84 73 255
0.53374779 0.17667681 1.5650001 74 81 69 255
0.53867328 0.17689238 1.567 75 82 71 255
0.5436098 0.17710815 1.5690001 72 79 68 255
0.54960477 0.1776627 1.5740001 74 79 68 255
0.55668265 0.17855601 1.582 76 81 70 255
0.56309497 0.17922373 1.5880001 56 61 49 255
0.56739628 0.17921448 1.5880001 34 39 27 255
0.57097781 0.17897975 1.5860001 31 36 22 255
0.573098 0.17829393 1.58 36 41 29 255
0.57664782 0.1780598 1.5780001 56 61 49 255
0.57945091 0.17760026 1.5740001 54 61 49 255
0.58260363 0.17725383 1.5710001 55 62 51 255
0.58499348 0.17668207 1.5660001 75 82 71 255
0.58923811 0.17667472 1.5660001 75 82 71 255
0.59348339 0.17666768 1.5660001 73 82 71 255
0.59849262 0.1768865 1.5680001 75 84 73 255
0.60274452 0.17688 1.5680001 75 85 70 255
0.60815853 0.17721219 1.5710001 71 81 66 255
0.61280984 0.17731909 1.572 73 83 68 255
0.61707485 0.17731348 1.572 72 80 65 255
0.62134075 0.1773082 1.572 75 80 66 255
0.62560761 0.17730325 1.572 83 86 72 255
0.63067675 0.17752421 1.5740001 14 17 3 255
0.63374066 0.17718156 1.5710001 19 22 8 255
0.63597715 0.17661372 1.5660001 24 25 11 255
0.63696098 0.17570792 1.5580001 21 24 10 255
0.64078337 0.17559195 1.557 21 24 10 255
0.64584428 0.17581466 1.559 20 23 9 255
0.64966637 0.17569941 1.5580001 21 24 10 255
0.65138572 0.17502069 1.552 20 23 9 255
0.6543411 0.17468068 1.549 20 23 9 255
0.65940732 0.17490494 1.5510001 21 24 10 255
0.66320211 0.17479123 1.5500001 22 25 11 255
0.6669929 0.17467794 1.549 21 24 10 255
0.67164665 0.17479061 1.5500001 21 24 10 255
0.67674345 0.17501648 1.552 22 25 11 255
0.68097514 0.17501721 1.552 22 24 7 255
0.68565023 0.17513116 1.5530001 23 27 10 255
0.69210935 0.17569663 1.5580001 25 29 12 255
0.6923402 0.17468372 1.549 24 28 11 255
0.69297361 0.17378406 1.5410001 23 27 10 255
0.69311267 0.17277201 1.5320001 27 31 14 255
0.70458359 0.17457986 1.5480001 23 27 10 255
0.71385461 0.17582433 1.559 25 31 14 255
0.7171998 0.1756032 1.557 18 26 11 255
0.71960956 0.17515695 1.5530001 9 19 4 255
0.71873701 0.17392166 1.5420001 139 149 138 255
0.7206195 0.17336355 1.5370001 153 165 156 255
0.72294873 0.17291872 1.5330001 166 175 168 255
0.72478402 0.17236155 1.5280001 170 179 174 255
0.72516322 0.17146644 1.5200001 173 182 177 255
0.72550094 0.17057176 1.5120001 177 184 180 255
0.72628015 0.16979039 1.5050001 179 186 183 255
-0.75740236 0.17786813 1.6160001 228 232 224 255
-0.74738204 0.17654154 1.6040001 217 224 213 255
-0.73974586 0.17576581 1.5970001 211 218 206 255
-0.73307151 0.17521077 1.5920001 204 212 197 255
-0.72734213 0.17487635 1.5890001 197 205 190 255
-0.72072136 0.17432232 1.5840001 188 196 181 255
-0.7150346 0.17398886 1.5810001 190 198 181 255
-0.70936626 0.1736559 1.5780001 186 194 177 255
-0.70505679 0.17365354 1.5780001 181 190 171 255
-0.69986117 0.17343156 1.5760001 177 183 165 255
-0.6937955 0.17298992 1.572 173 180 159 255
-0.68863076 0.1727688 1.5700001 166 173 152 255
-0.68304276 0.17243809 1.567 170 177 155 255
-0.67877227 0.17243789 1.567 168 175 153 255
-0.67407298 0.17232808 1.5660001 162 169 147 255
-0.66980839 0.17232871 1.5660001 157 164 142 255
-0.66554528 0.17232975 1.5660001 160 167 145 255
-0.66128361 0.17233115 1.5660001 160 167 145 255
-0.65744293 0.172443 1.567 160 167 145 255
-0.65359813 0.17255524 1.5680001 162 169 147 255
-0.64933497 0.17255777 1.5680001 162 170 145 255
-0.64466172 0.17245063 1.567 161 169 144 255
-0.63958639 0.17223379 1.5650001 170 178 152 255
-0.63452309 0.17201728 1.5630001 165 173 147 255
-0.62947166 0.17180111 1.5610001 158 167 138 255
-0.62523323 0.17180538 1.5610001 158 167 138 255
-0.62099576 0.17180997 1.5610001 162 170 145 255
-0.61715424 0.17192496 1.562 159 167 142 255
-0.6125235 0.17182013 1.5610001 159 166 144 255
-0.60789901 0.1717156 1.5600001 167 174 152 255
-0.60289365 0.17150126 1.5580001 162 169 148 255
-0.59905273 0.17161748 1.559 164 171 149 255
-0.59406245 0.17140372 1.557 161 169 144 255
-0.58984131 0.17141043 1.557 156 164 139 255
-0.58486855 0.17119721 1.5550001 155 163 138 255
-0.58065403 0.17120443 1.5550001 155 163 138 255
-0.57606936 0.17110182 1.554 157 165 140 255
-0.57149059 0.17099947 1.5530001 170 178 152 255
-0.56691766 0.17089733 1.552 163 169 143 255
-0.56235063 0.17079546 1.5510001 160 167 138 255
-0.55778927 0.17069378 1.5500001 167 174 145 255
-0.55359077 0.17070246 1.5500001 142 149 120 255
-0.54939276 0.17071138 1.5500001 154 161 132 255
-0.54519492 0.17072052 1.5500001 158 165 134 255
-0.54064822 0.17061973 1.549 156 163 134 255
-0.53645355 0.17062928 1.549 157 164 135 255
-0.53191537 0.17052887 1.5480001 157 165 139 255
-0.52704185 0.17031848 1.5460001 172 180 154 255
-0.52184105 0.16999809 1.5430001 146 156 130 255
-0.51766306 0.17000838 1.5430001 161 171 145 255
-0.51281947 0.16979846 1.5410001 165 174 145 255
-0.50897688 0.16991928 1.5420001 165 174 143 255
-0.50447428 0.16981989 1.5410001 164 173 142 255
-0.50062621 0.16994104 1.5420001 176 185 154 255
-0.49580681 0.16973174 1.5400001 144 153 122 255
-0.49163675 0.169743 1.5400001 143 150 119 255
-0.48714983 0.16964415 1.539 173 180 149 255
-0.48266831 0.16954546 1.5380001 169 175 149 255
-0.47788078 0.16933662 1.536 149 155 129 255
-0.47341228 0.16923814 1.5350001 167 173 148 255
-0.4686434 0.1690295 1.5330001 169 177 152 255
-0.46479389 0.16915175 1.534 157 165 139 255
-0.46063849 0.16916387 1.534 138 147 118 255
-0.45678034 0.16928637 1.5350001 177 184 155 255
-0.45232666 0.1691884 1.534 158 165 136 255
-0.44817021 0.16920079 1.534 139 148 119 255
-0.44401342 0.16921329 1.534 196 205 176 255
-0.4395695 0.16911559 1.5330001 193 201 175 255
-0.4351306 0.16901791 1.5320001 143 153 127 255
-0.43069661 0.16892031 1.531 164 174 148 255
-0.42626765 0.16882275 1.5300001 157 166 137 255
-0.42239538 0.16894595 1.531 170 178 152 255
-0.41797087 0.16884851 1.5300001 179 188 159 255
-0.41382176 0.16886148 1.5300001 164 173 144 255
-0.40967214 0.16887449 1.5300001 136 145 116 255
-0.40605205 0.1691083 1.5320001 175 184 155 255
-0.40163353 0.16901103 1.531 138 146 120 255
-0.39696029 0.16880336 1.529 136 144 118 255
-0.39255428 0.16870612 1.5280001 173 181 155 255
-0.38815302 0.16860889 1.5270001 131 140 111 255
-0.38375655 0.16851161 1.526 171 181 155 255
-0.37886751 0.16819353 1.5230001 181 191 165 255
-0.37399402 0.16787536 1.5200001 137 150 123 255
-0.36937958 0.16766761 1.5180001 145 157 132 255
-0.36501589 0.16757029 1.5170001 160 172 147 255
-0.36089495 0.16758342 1.5170001 178 190 165 255
-0.35677335 0.16759656 1.5170001 149 161 136 255
-0.35265106 0.16760968 1.5170001 146 159 132 255
-0.34829834 0.16751228 1.516 155 165 139 255
-0.34417734 0.16752534 1.516 151 162 133 255
-0.34005573 0.16753837 1.516 153 164 133 255
-0.33549017 0.16733037 1.5140001 159 170 139 255
-0.33071592 0.16701172 1.511 162 173 144 255
-0.32617345 0.16680355 1.5090001 140 151 122 255
-0.32228145 0.16692695 1.5100001 148 157 128 255
-0.31859392 0.16716085 1.5120001 146 153 124 255
-0.31427088 0.16706307 1.511 138 147 118 255
-0.30974725 0.16685461 1.5090001 152 161 132 255
-0.30543631 0.16675666 1.508 169 178 149 255
-0.30152977 0.16687982 1.5090001 150 159 128 255
-0.29722279 0.16678171 1.508 152 161 130 255
-0.29292053 0.16668352 1.5070001 155 164 133 255
-0.28823969 0.16636404 1.5040001 149 158 127 255
-0.2839523 0.16626564 1.503 149 158 127 255
-0.27985576 0.16627778 1.503 166 175 144 255
-0.27594203 0.16640048 1.5040001 140 147 116 255
-0.27202207 0.16652311 1.5050001 143 150 119 255
-0.26791787 0.16653499 1.5050001 139 146 115 255
-0.26363763 0.16643611 1.5040001 145 154 123 255
-0.25918961 0.16622646 1.5020001 144 153 122 255
-0.25492153 0.16612732 1.501 181 190 161 255
-0.25082529 0.16613878 1.501 145 156 127 255
-0.24672838 0.16615014 1.501 145 156 127 255
-0.24263065 0.16616134 1.501 153 162 133 255
-0.23837332 0.16606174 1.5000001 154 163 134 255
-0.23427692 0.16607271 1.5000001 137 146 115 255
-0.22198342 0.16610485 1.5000001 143 148 117 255
-0.21788417 0.16611531 1.5000001 133 140 108 255
-0.21378423 0.16612561 1.5000001 139 146 114 255
-0.13987529 0.16628425 1.5000001 27 27 1 255
-0.13621628 0.16684569 1.5050001 50 41 18 255
-0.13226601 0.1670744 1.5070001 57 46 25 255
-0.12813428 0.16708119 1.5070001 65 48 28 255
-0.12391976 0.16697691 1.506 72 53 33 255
-0.1193921 0.16642894 1.501 73 54 32 255
-0.1152754 0.16643511 1.501 80 61 39 255
-0.1070407 0.16644686 1.501 79 59 35 255
-0.10299131 0.16656333 1.5020001 77 58 36 255
-0.098870188 0.16656871 1.5020001 84 65 43 255
-0.094685607 0.16646296 1.501 81 62 40 255
-0.090506144 0.16635703 1.5000001 80 61 39 255
-0.086389408 0.16636175 1.5000001 80 59 37 255
-0.082272336 0.16636628 1.5000001 82 61 39 255
-0.078154936 0.16637059 1.5000001 80 59 37 255
-0.074135937 0.1665965 1.5020001 77 56 34 255
-0.070105672 0.16682224 1.5040001 82 61 41 255
-0.066064149 0.16704775 1.506 79 58 36 255
-0.062011383 0.16727307 1.508 72 51 29 255
-0.058024131 0.16772003 1.5120001 72 51 29 255
-0.053943422 0.16794492 1.5140001 72 51 29 255
-0.049785737 0.16794774 1.5140001 73 52 30 255
-0.045627862 0.16795035 1.5140001 70 51 31 255
-0.041524574 0.16817456 1.516 73 54 34 255
-0.037385501 0.16828766 1.5170001 71 52 32 255
-0.033218879 0.16828959 1.5170001 75 54 34 255
-0.029109582 0.1686241 1.5200001 73 52 32 255
-0.025049297 0.16940214 1.5270001 72 53 33 255
-0.021046059 0.17095652 1.5410001 72 53 33 255
-0.016998554 0.17284353 1.5580001 72 55 35 255
-0.012865748 0.17484128 1.5760001 73 58 39 255
-0.0086231669 0.17661691 1.5920001 77 63 46 255
-0.004273959 0.17761573 1.6010001 71 61 44 255
0.00012440252 0.17817052 1.6060001 72 69 53 255
0.0045417603 0.17839228 1.608 74 73 59 255
0.0089700883 0.17861381 1.6100001 69 74 62 255
0.013384411 0.17850225 1.6090001 71 78 66 255
0.017782122 0.17827952 1.6070001 73 80 69 255
0.022154957 0.1779456 1.6040001 75 82 71 255
0.02654434 0.17783332 1.603 74 81 69 255
0.030966736 0.17794269 1.6040001 67 74 63 255
0.035394501 0.17805183 1.605 65 72 61 255
0.039827615 0.17816071 1.6060001 64 71 60 255
0.044238515 0.17815842 1.6060001 63 70 59 255
0.048618942 0.17804496 1.605 63 69 61 255
0.053059757 0.17815311 1.6060001 75 81 73 255
0.057434287 0.17803919 1.605 76 83 72 255
0.061880153 0.17814688 1.6060001 74 83 72 255
0.066248707 0.17803247 1.605 76 83 72 255
0.07069955 0.17813969 1.6060001 74 83 71 255
0.075062074 0.17802484 1.605 73 82 71 255
0.079418808 0.17790976 1.6040001 72 81 70 255
0.083769731 0.17779443 1.603 70 79 68 255
0.088114843 0.17767891 1.6020001 79 87 79 255
0.092511855 0.17767407 1.6020001 80 89 78 255
0.096727028 0.17733628 1.5990001 82 91 80 255
0.10092536 0.1769983 1.5960001 84 91 80 255
0.10517282 0.17677101 1.5940001 79 86 75 255
0.10968378 0.17698707 1.5960001 75 82 71 255
0.11413383 0.17709203 1.5970001 74 81 70 255
0.11851472 0.17708588 1.5970001 72 79 68 255
0.12289515 0.1770795 1.5970001 72 77 65 255
0.1273548 0.17718379 1.598 70 75 63 255
0.13198434 0.17750961 1.6010001 68 73 59 255
0.13654466 0.17772432 1.603 67 72 58 255
0.14111543 0.17793882 1.605 65 70 56 255
0.14569664 0.1781531 1.6070001 69 72 58 255
0.15047507 0.17858884 1.6110001 69 72 58 255
0.15479414 0.17847009 1.6100001 66 71 59 255
0.15900829 0.17824031 1.608 64 69 57 255
0.16310926 0.17789951 1.605 67 74 63 255
0.16750631 0.17789106 1.605 65 74 63 255
0.17179564 0.17777158 1.6040001 67 75 67 255
0.17585918 0.17743029 1.6010001 72 80 72 255
0.17990568 0.17708883 1.598 81 89 81 255
0.18393511 0.17674722 1.595 81 89 81 255
0.18818358 0.17662708 1.5940001 86 94 86 255
0.19290911 0.17694999 1.5970001 82 90 82 255
0.19752684 0.17716189 1.5990001 66 74 66 255
0.20190236 0.17715202 1.5990001 65 74 63 255
0.20601912 0.17692041 1.5970001 65 73 65 255
0.20999253 0.17657788 1.5940001 77 85 77 255
0.21421777 0.17645675 1.5930001 81 89 81 255
0.21857403 0.17644624 1.5930001 85 91 83 255
0.22320946 0.1766571 1.595 82 88 80 255
0.22799779 0.17697854 1.598 71 76 64 255
0.23265639 0.17718902 1.6 63 68 56 255
0.23658447 0.17684567 1.5970001 52 57 45 255
0.24034448 0.17639147 1.5930001 59 67 52 255
0.24438912 0.17615865 1.5910001 63 70 58 255
0.2484221 0.17592572 1.5890001 67 76 65 255
0.25260246 0.17580338 1.5880001 51 60 49 255
0.25677657 0.17568092 1.5870001 55 63 55 255
0.26077992 0.17544766 1.585 93 99 91 255
0.26527339 0.17554636 1.5860001 76 82 74 255
0.26977155 0.17564496 1.5870001 65 69 61 255
0.27427435 0.1757434 1.5880001 52 57 46 255
0.2779046 0.17528839 1.5840001 52 59 48 255
0.28169042 0.17494403 1.5810001 62 68 60 255
0.28564006 0.17471024 1.5790001 66 72 64 255
0.28976154 0.17458701 1.5780001 86 92 84 255
0.29424956 0.17468499 1.5790001 75 81 73 255
0.2987422 0.17478284 1.58 68 74 66 255
0.30323952 0.17488059 1.5810001 68 75 64 255
0.30735251 0.17475705 1.58 69 76 65 255
0.31145924 0.17463344 1.5790001 67 74 63 255
0.31535974 0.17439917 1.577 65 74 63 255
0.31924859 0.17416486 1.575 68 77 66 255
0.32353663 0.17415167 1.575 72 81 70 255
0.32844833 0.17447011 1.5780001 65 74 63 255
0.3329539 0.17456737 1.5790001 69 76 64 255
0.3372505 0.17455398 1.5790001 71 78 66 255
0.34133005 0.17443 1.5780001 71 76 64 255
0.3454034 0.17430599 1.577 70 75 63 255
0.34924886 0.17407145 1.575 72 77 65 255
0.35330713 0.17394741 1.5740001 72 79 67 255
0.3578136 0.17404434 1.575 72 79 68 255
0.3623248 0.17414127 1.5760001 71 78 66 255
0.36707336 0.17434865 1.5780001 70 77 65 255
0.37136137 0.174335 1.5780001 69 77 62 255
0.37588671 0.17443182 1.5790001 71 76 62 255
0.37993529 0.17430769 1.5780001 72 80 65 255
0.38422123 0.17429402 1.5780001 70 78 63 255
0.38850653 0.17428038 1.5780001 69 76 64 255
0.39328897 0.17448758 1.58 71 78 66 255
0.3980816 0.17469476 1.582 71 78 66 255
0.40313882 0.17501238 1.585 69 76 64 255
0.40769759 0.17510912 1.5860001 69 76 64 255
0.41226119 0.17520587 1.5870001 69 76 64 255
0.41656709 0.17519225 1.5870001 66 73 61 255
0.42140281 0.17539944 1.5890001 66 73 61 255
0.4259809 0.17549625 1.59 65 72 60 255
0.43029329 0.17548274 1.59 63 71 56 255
0.43378511 0.17513821 1.5870001 66 74 59 255
0.43753606 0.17490409 1.585 69 77 62 255
0.44211209 0.17500114 1.5860001 66 74 59 255
0.44725597 0.17531891 1.5890001 68 76 61 255
0.45213136 0.17552634 1.5910001 70 75 61 255
0.45644349 0.17551321 1.5910001 67 72 60 255
0.46162394 0.17583108 1.5940001 65 70 58 255
0.46682024 0.176149 1.5970001 65 70 58 255
0.47114739 0.17613609 1.5970001 62 67 56 255
0.47458088 0.17579241 1.5940001 64 69 58 255
0.47799781 0.17544889 1.5910001 66 70 62 255
0.48261079 0.17554663 1.5920001 68 72 64 255
0.48692307 0.17553417 1.5920001 64 69 58 255
0.49123502 0.17552187 1.5920001 64 69 58 255
0.49461284 0.17517893 1.5890001 56 63 52 255
0.49860221 0.17505665 1.5880001 56 63 52 255
0.50226933 0.1748243 1.5860001 67 76 65 255
0.5065642 0.17481259 1.5860001 80 88 81 255
0.50957048 0.17436013 1.582 84 92 85 255
0.5122301 0.17379768 1.577 88 96 89 255
0.51486272 0.17323549 1.572 83 91 84 255
0.51878899 0.17311428 1.5710001 66 74 66 255
0.52304286 0.17310348 1.5710001 64 73 62 255
0.52662539 0.17287248 1.5690001 77 84 72 255
0.53019702 0.17264166 1.567 82 89 77 255
0.5340991 0.17252125 1.5660001 74 81 69 255
0.53868341 0.17262137 1.567 73 80 69 255
0.54396611 0.17294198 1.5700001 75 80 69 255
0.55066198 0.17370334 1.577 75 77 67 255
0.55739599 0.17446484 1.5840001 75 77 67 255
0.5623951 0.17467578 1.5860001 49 51 41 255
0.56669068 0.17466669 1.5860001 30 35 23 255
0.56954652 0.17421728 1.582 30 35 21 255
0.57238108 0.17376819 1.5780001 55 60 48 255
0.57519436 0.17331938 1.5740001 62 67 55 255
0.5787226 0.17309108 1.572 56 63 51 255
0.58112788 0.17253272 1.567 60 67 56 255
0.58425385 0.17219493 1.5640001 76 83 72 255
0.58774018 0.17196746 1.562 71 78 66 255
0.59273231 0.17218068 1.5640001 72 81 69 255
0.59735405 0.17228405 1.5650001 71 80 68 255
0.60236639 0.17249778 1.567 70 79 67 255
0.60700321 0.17260171 1.5680001 70 80 65 255
0.61164612 0.17270595 1.5690001 72 80 65 255
0.61551017 0.17259033 1.5680001 72 80 65 255
0.61976492 0.17258509 1.5680001 74 82 67 255
