ply
format ascii 1.0
comment PCL generated
element vertex 980
property float x
property float y
property float z
property uchar red
property uchar green
property uchar blue
property uchar alpha
element camera 0
property float view_px
property float view_py
property float view_pz
property float x_axisx
property float x_axisy
property float x_axisz
property float y_axisx
property float y_axisy
property float y_axisz
property float z_axisx
property float z_axisy
property float z_axisz
property float focal
property float scalex
property float scaley
property float centerx
property float centery
property int viewportx
property int viewporty
property float k1
property float k2
end_header
-0.16617952 0.033197444 1.636 59 61 53 255
-0.16189054 0.033239692 1.6380001 58 60 50 255
-0.15778209 0.033322487 1.6420001 60 62 52 255
-0.15355775 0.03338496 1.6450001 58 61 49 255
-0.14931633 0.033447396 1.6480001 57 60 48 255
-0.14496996 0.033489496 1.6500001 60 65 51 255
-0.1408674 0.033592451 1.6550001 57 62 50 255
-0.1367368 0.033695374 1.6600001 56 61 47 255
-0.13233933 0.033737365 1.6620001 56 61 47 255
-0.1276997 0.033718415 1.6610001 57 62 50 255
-0.12291676 0.033658817 1.6580001 58 63 49 255
-0.11843534 0.033680379 1.659 60 65 51 255
-0.11408523 0.033742502 1.6620001 61 66 52 255
-0.10998174 0.033885796 1.669 64 69 55 255
-0.1055236 0.033927534 1.6710001 62 68 51 255
-0.10099363 0.033948924 1.6720001 59 64 50 255
-0.096284769 0.033909358 1.6700001 62 67 53 255
-0.091751203 0.033930656 1.6710001 65 70 56 255
-0.087420404 0.034033135 1.6760001 66 71 57 255
-0.08306174 0.034135569 1.6810001 64 69 57 255
-0.078675248 0.034237962 1.6860001 64 69 57 255
-0.074041367 0.034238774 1.6860001 65 70 56 255
-0.069407165 0.034239542 1.6860001 67 70 56 255
-0.064734235 0.034219947 1.6850001 67 70 56 255
-0.060209218 0.034281541 1.6880001 66 70 53 255
-0.055766188 0.034404017 1.6940001 68 74 57 255
-0.051259767 0.034506138 1.6990001 64 69 55 255
-0.046643365 0.034547284 1.7010001 60 65 51 255
-0.042015754 0.034588378 1.7030001 61 66 52 255
-0.037420813 0.034670047 1.7070001 63 68 54 255
-0.032822888 0.034771983 1.7120001 64 70 53 255
-0.028164469 0.034833238 1.715 63 71 54 255
-0.023462085 0.034853831 1.7160001 61 69 52 255
-0.018754097 0.034874368 1.7170001 63 71 56 255
-0.014056874 0.034935478 1.72 53 60 48 255
0.72812462 0.035607822 1.7690001 151 159 152 255
0.72919625 0.035425663 1.7600001 148 156 149 255
0.73230535 0.035344228 1.756 148 156 149 255
0.73287559 0.035142101 1.7460001 142 150 143 255
0.73254806 0.034899812 1.7340001 142 150 143 255
0.73215652 0.034657605 1.7220001 145 153 145 255
0.73384082 0.034516115 1.715 150 158 151 255
0.73505789 0.034354582 1.7070001 153 161 154 255
0.73623306 0.034193132 1.6990001 158 166 159 255
0.73736626 0.03403176 1.6910001 163 171 164 255
0.73933518 0.033910729 1.6850001 166 174 167 255
0.73906565 0.033689152 1.674 167 175 168 255
0.73740524 0.03340729 1.6600001 172 179 175 255
0.73745829 0.033206008 1.6500001 172 180 173 255
0.73970705 0.033105433 1.6450001 174 182 175 255
0.74057323 0.032944571 1.6370001 175 182 178 255
0.74230802 0.032824043 1.631 177 184 180 255
0.74126506 0.032582849 1.6190001 176 183 179 255
0.742001 0.032422241 1.6110001 180 187 184 255
0.74037868 0.032161083 1.598 183 190 187 255
0.74101788 0.032000642 1.59 181 188 185 255
0.74114686 0.031820159 1.5810001 183 190 186 255
0.74122888 0.031639758 1.572 183 190 186 255
0.74078983 0.031439316 1.562 182 189 185 255
0.74077535 0.031259082 1.5530001 184 191 187 255
0.74167365 0.03111919 1.5460001 185 192 189 255
0.74253595 0.030979382 1.539 186 193 190 255
0.7428773 0.030819528 1.531 186 193 190 255
0.74220145 0.0306195 1.521 187 194 191 255
0.74098277 0.030399419 1.5100001 189 196 195 255
0.7401998 0.030199546 1.5000001 189 196 193 255
-1.0214154 0.029517602 1.687 25 30 16 255
-1.0274147 0.02982595 1.705 23 27 10 255
-0.98534071 0.028735172 1.6430001 22 24 7 255
-0.99555594 0.029166272 1.6680001 23 24 10 255
-0.9979136 0.029370083 1.6800001 24 23 9 255
-1.013806 0.029975979 1.715 27 24 10 255
-1.0053861 0.029865304 1.7090001 29 26 10 255
-0.9987638 0.029807242 1.7060001 37 27 10 255
-0.99216539 0.029749352 1.7030001 55 41 21 255
-0.9890694 0.029796431 1.7060001 74 54 30 255
-0.98307848 0.029756326 1.7040001 90 66 40 255
-0.9799757 0.029803678 1.7070001 103 76 48 255
-0.97914732 0.029920986 1.7140001 120 88 65 255
-0.97828561 0.030038396 1.7210001 113 88 66 255
-0.97456247 0.03006866 1.723 133 131 113 255
-0.96802008 0.030011808 1.72 108 126 128 255
-0.96430045 0.030042345 1.7220001 41 65 73 255
-0.95778948 0.029985785 1.7190001 42 43 19 255
-0.9513008 0.029929379 1.7160001 41 40 16 255
-0.94317985 0.029820804 1.71 40 38 20 255
-0.93784171 0.029799568 1.7090001 66 60 43 255
-0.93633616 0.02990051 1.715 64 56 39 255
-0.93262959 0.029931825 1.7170001 56 46 29 255
-0.93053812 0.030015552 1.7220001 83 69 50 255
-0.92197233 0.029890237 1.715 103 96 75 255
-0.91665918 0.029869633 1.7140001 115 93 67 255
-0.90976048 0.02979688 1.71 114 87 59 255
-0.90659326 0.029846225 1.7130001 109 83 51 255
-0.90183425 0.029843409 1.7130001 102 77 45 255
-0.89550877 0.029788451 1.71 98 77 47 255
-0.88972503 0.029751038 1.7080001 74 61 34 255
-0.88447452 0.029731156 1.7070001 54 42 15 255
-0.88181078 0.029798469 1.7110001 49 36 12 255
-0.87554049 0.029743979 1.7080001 52 38 14 255
-0.86827087 0.029654777 1.7030001 79 63 39 255
-0.86255401 0.029617934 1.7010001 85 65 39 255
-0.85786051 0.029616019 1.7010001 86 68 42 255
-0.85517687 0.029683845 1.705 79 65 41 255
-0.85147685 0.02971695 1.7070001 72 59 35 255
-0.84677726 0.029715335 1.7070001 46 39 18 255
-0.84306759 0.029748635 1.7090001 36 31 10 255
-0.84033132 0.02981684 1.7130001 36 33 13 255
-0.8385517 0.029919945 1.7190001 42 39 18 255
-0.83819753 0.030075355 1.728 45 40 19 255
-0.83924401 0.030283054 1.7400001 46 39 18 255
-0.83734983 0.030386411 1.7460001 44 37 14 255
-0.83256495 0.030385442 1.7460001 47 36 13 255
-0.82683438 0.030349756 1.7440001 49 36 13 255
-0.82206029 0.030348968 1.7440001 54 40 16 255
-0.81822616 0.030383071 1.7460001 69 53 27 255
-0.81391764 0.030399855 1.7470001 70 54 28 255
-0.81099564 0.030468931 1.751 73 57 31 255
-0.8062126 0.030468488 1.751 77 59 33 255
-0.80143178 0.030468125 1.751 72 56 30 255
-0.79619837 0.030450448 1.7500001 65 52 25 255
-0.79052019 0.030415447 1.748 110 101 71 255
-0.78440571 0.030363133 1.7450001 147 142 112 255
-0.77830946 0.030310893 1.7420001 145 145 115 255
-0.77134347 0.030223928 1.7370001 144 147 116 255
-0.76617205 0.030206641 1.7360001 143 148 117 255
-0.76100785 0.030189427 1.7350001 130 135 104 255
-0.75803024 0.030259285 1.7390001 130 135 104 255
-0.75373322 0.030277018 1.7400001 132 137 106 255
-0.7490018 0.03027742 1.7400001 149 153 127 255
-0.74170554 0.030173484 1.7340001 154 160 134 255
-0.73359334 0.030034807 1.7260001 159 165 140 255
-0.72594845 0.029913599 1.7190001 155 162 140 255
-0.72044086 0.029879455 1.7170001 159 169 146 255
-0.71411163 0.02981057 1.7130001 166 176 153 255
-0.70904791 0.029793954 1.7120001 176 185 166 255
-0.70234507 0.02970778 1.7070001 179 188 169 255
-0.6964879 0.029656474 1.7040001 180 189 170 255
-0.69064814 0.029605221 1.7010001 186 195 176 255
-0.68522888 0.029571425 1.6990001 187 196 177 255
-0.67821914 0.029468063 1.6930001 188 197 178 255
-0.67124283 0.029364742 1.687 190 199 180 255
-0.66509026 0.029296286 1.6830001 190 199 180 255
-0.65896016 0.029227875 1.6790001 189 198 179 255
-0.65246266 0.029142097 1.674 190 199 180 255
-0.6479283 0.029143412 1.674 190 199 180 255
-0.64185733 0.029075138 1.6700001 191 197 179 255
-0.637335 0.029076545 1.6700001 182 191 172 255
-0.63205546 0.029043173 1.6680001 179 188 167 255
-0.62716353 0.029027257 1.6670001 177 186 165 255
-0.6219039 0.02899397 1.6650001 151 160 139 255
-0.61591411 0.028925894 1.6610001 158 167 146 255
-0.61215478 0.028962346 1.6630001 166 173 151 255
-0.60765415 0.028964005 1.6630001 165 173 148 255
-0.60351664 0.028983125 1.664 165 173 147 255
-0.59865397 0.028967453 1.6630001 167 176 147 255
-0.59379691 0.028951809 1.6620001 163 172 141 255
-0.58894563 0.028936209 1.6610001 151 160 129 255
-0.58480346 0.028955476 1.6620001 159 168 137 255
-0.58030695 0.028957361 1.6620001 156 165 134 255
-0.57581049 0.028959284 1.6620001 156 163 132 255
-0.57131398 0.028961238 1.6620001 149 156 125 255
-0.56784075 0.029015502 1.6650001 150 157 126 255
-0.56367457 0.029034946 1.6660001 161 168 137 255
-0.5595029 0.029054426 1.6670001 158 167 136 255
-0.55465984 0.029039077 1.6660001 156 165 134 255
-0.55048257 0.029058618 1.6670001 152 161 130 255
-0.54531711 0.029025888 1.6650001 152 161 130 255
-0.54048711 0.029010609 1.664 153 162 131 255
-0.53534025 0.028977923 1.6620001 145 154 123 255
-0.53084278 0.028980128 1.6620001 160 169 140 255
-0.52634507 0.028982356 1.6620001 160 171 142 255
-0.52153301 0.028967166 1.6610001 159 169 144 255
-0.51641476 0.028934553 1.659 154 164 139 255
-0.51161563 0.028919403 1.6580001 162 172 147 255
-0.50682145 0.028904261 1.6570001 165 175 152 255
-0.50233549 0.028906586 1.6570001 168 178 155 255
-0.49754864 0.028891476 1.6560001 166 178 155 255
-0.49246904 0.028858939 1.654 168 180 157 255
-0.48739976 0.02882641 1.6520001 166 178 155 255
-0.48234087 0.028793886 1.6500001 162 174 149 255
-0.47729224 0.028761374 1.6480001 142 154 129 255
-0.47225386 0.028728865 1.646 169 181 156 255
-0.46694168 0.028678911 1.6430001 172 184 159 255
-0.46248963 0.028681325 1.6430001 173 185 160 255
-0.45720062 0.028631378 1.6400001 155 167 144 255
-0.45247939 0.028616352 1.6390001 173 185 160 255
-0.44721621 0.028566403 1.636 160 172 147 255
-0.4422394 0.028533921 1.6340001 162 174 149 255
-0.43727267 0.02850144 1.6320001 155 167 142 255
-0.43258139 0.028486423 1.631 152 164 139 255
-0.42815733 0.028488874 1.631 156 168 143 255
-0.42347279 0.028473862 1.6300001 158 170 145 255
-0.41853589 0.028441379 1.628 159 171 146 255
-0.41360909 0.028408896 1.626 167 179 154 255
-0.40844068 0.028358933 1.623 164 176 151 255
-0.4040347 0.028361384 1.623 154 167 140 255
-0.3993817 0.02834636 1.6220001 156 166 140 255
-0.39497691 0.028348815 1.6220001 152 162 136 255
-0.39008972 0.028316302 1.6200001 153 164 135 255
-0.38592678 0.028336227 1.6210001 141 152 123 255
-0.3815223 0.028338667 1.6210001 153 164 133 255
-0.37711695 0.028341105 1.6210001 153 164 133 255
-0.37271082 0.028343543 1.6210001 147 159 126 255
-0.36830384 0.028345967 1.6210001 145 155 122 255
-0.36412054 0.028365878 1.6220001 143 153 120 255
-0.36015269 0.028403277 1.6240001 132 142 97 255
-0.35595408 0.028423179 1.6250001 130 141 94 255
-0.35174912 0.028443074 1.626 130 137 105 255
-0.34711069 0.028427977 1.6250001 128 135 103 255
-0.34332031 0.028482847 1.628 129 137 102 255
-0.33909646 0.028502725 1.6290001 134 144 109 255
-0.33527711 0.028557587 1.6320001 139 147 111 255
-0.33103517 0.028577451 1.6330001 135 143 107 255
-0.32678688 0.028597303 1.6340001 128 137 98 255
-0.32233495 0.02859964 1.6340001 126 135 95 255
-0.31807667 0.028619466 1.6350001 123 132 93 255
-0.31400385 0.028656786 1.6370001 122 131 92 255
-0.30954114 0.028659085 1.6370001 111 117 81 255
-0.30507743 0.028661363 1.6370001 90 97 66 255
-0.30042922 0.028646115 1.636 16 22 0 255
-0.29614741 0.02866587 1.6370001 17 21 3 255
-0.29132473 0.028633073 1.6350001 16 20 3 255
-0.28598571 0.028547712 1.6300001 16 19 5 255
-0.2811912 0.028514855 1.628 16 18 1 255
-0.27708679 0.028552044 1.6300001 15 17 0 255
-0.27347234 0.028641775 1.6350001 60 59 43 255
-0.2693361 0.028678935 1.6370001 14 13 0 255
-0.26486444 0.028681036 1.6370001 14 15 1 255
-0.2602329 0.028665593 1.636 15 16 2 255
-0.25576225 0.028667647 1.636 14 17 3 255
-0.2519052 0.028739778 1.6400001 21 24 10 255
-0.24742192 0.028741788 1.6400001 24 27 13 255
-0.24264157 0.028708721 1.6380001 35 38 26 255
-0.23787129 0.028675621 1.636 57 59 49 255
-0.23325381 0.02866002 1.6350001 69 76 65 255
-0.22878085 0.02866192 1.6350001 85 91 83 255
-0.22375837 0.028593667 1.631 75 83 75 255
-0.21916035 0.028577976 1.6300001 71 79 71 255
-0.21443528 0.028544717 1.628 90 98 90 255
-0.20984937 0.028528964 1.6270001 91 99 91 255
-0.20501566 0.028478105 1.6240001 85 93 85 255
-0.20032114 0.028444747 1.6220001 76 84 76 255
-0.1957576 0.02842889 1.6210001 74 80 72 255
-0.19131684 0.028430546 1.6210001 65 72 61 255
-0.18676005 0.028414626 1.6200001 68 73 62 255
-0.18265821 0.028468836 1.623 68 73 61 255
-0.17842942 0.028505478 1.6250001 62 67 55 255
-0.17418899 0.028542088 1.6270001 60 65 53 255
-0.16993693 0.028578676 1.6290001 64 69 57 255
-0.16577478 0.028632773 1.6320001 63 68 57 255
-0.16169436 0.028704384 1.636 60 65 54 255
-0.15759142 0.028775977 1.6400001 61 63 53 255
-0.15327914 0.028812438 1.6420001 62 65 53 255
-0.14904591 0.028866423 1.6450001 61 64 52 255
-0.14479561 0.028920371 1.6480001 59 64 52 255
-0.14078362 0.029026939 1.654 59 64 52 255
-0.13665573 0.029115925 1.659 56 61 47 255
-0.13242024 0.029187333 1.6630001 54 59 45 255
-0.12793157 0.029206054 1.664 52 57 43 255
-0.12328865 0.029189637 1.6630001 54 59 45 255
-0.11865067 0.029173173 1.6620001 54 59 45 255
-0.11422364 0.029209333 1.664 59 65 48 255
-0.10998282 0.029298117 1.669 59 65 48 255
-0.1055878 0.029351765 1.6720001 58 64 47 255
-0.10117584 0.029405372 1.6750001 58 64 47 255
-0.096573986 0.029406274 1.6750001 60 65 51 255
-0.09197174 0.029407134 1.6750001 64 69 55 255
-0.087577753 0.029478189 1.6790001 64 69 55 255
-0.083161384 0.029549196 1.6830001 67 72 60 255
-0.0787227 0.029620172 1.687 64 69 57 255
-0.074129939 0.029638436 1.6880001 64 69 57 255
-0.069449015 0.029621536 1.687 66 69 55 255
-0.064811721 0.029622158 1.687 64 69 55 255
-0.060281146 0.029675411 1.6900001 63 68 54 255
-0.055832587 0.02978131 1.6960001 64 69 55 255
-0.05132062 0.029869605 1.7010001 63 68 54 255
-0.046726089 0.029922741 1.7040001 59 64 50 255
-0.042139534 0.029993394 1.7080001 63 68 54 255
-0.037552714 0.030081566 1.7130001 62 67 53 255
-0.032995768 0.030222382 1.7210001 59 67 52 255
-0.02829613 0.030257789 1.723 55 63 46 255
-0.023558028 0.03025803 1.723 49 57 42 255
0.72905087 0.031031338 1.7830001 149 157 150 255
0.73100686 0.030908572 1.7760001 150 158 151 255
0.73375463 0.030820683 1.771 148 156 149 255
0.7339744 0.030628448 1.7600001 144 152 145 255
0.73287636 0.030384077 1.7460001 142 150 143 255
0.73128134 0.030122384 1.7310001 142 150 143 255
0.73215711 0.02996517 1.7220001 144 152 144 255
0.73426926 0.029860236 1.7160001 151 159 151 255
0.73548889 0.029720567 1.7080001 155 163 155 255
0.7353667 0.029528771 1.697 159 167 160 255
0.73736662 0.029424051 1.6910001 162 170 163 255
0.73845774 0.0292846 1.6830001 166 174 167 255
0.7395072 0.029145224 1.6750001 168 176 169 255
0.738738 0.028936317 1.6630001 170 178 171 255
0.73969299 0.028797088 1.6550001 173 181 174 255
0.74150556 0.028692728 1.649 173 181 174 255
0.74193025 0.02853624 1.6400001 176 183 179 255
0.74276298 0.02839723 1.6320001 177 184 180 255
0.74172258 0.028188687 1.6200001 178 185 181 255
0.74246114 0.028049823 1.6120001 179 186 183 255
0.74130487 0.027841425 1.6 181 188 185 255
0.74194944 0.027702704 1.5920001 182 189 186 255
0.741615 0.027529253 1.582 182 189 185 255
0.74217129 0.027390677 1.5740001 183 190 186 255
0.74173748 0.02721737 1.5640001 181 188 184 255
0.74220544 0.027078941 1.5560001 183 190 186 255
0.74167258 0.026905775 1.5460001 183 190 187 255
0.74108738 0.026732681 1.536 186 193 190 255
0.74093527 0.026577067 1.5270001 184 191 188 255
0.74073637 0.026421519 1.5180001 187 194 191 255
0.73999995 0.026248636 1.508 187 194 191 255
-1.0358448 0.025361687 1.7190001 29 34 20 255
-1.0129219 0.024913704 1.6890001 26 30 13 255
-0.9979378 0.024657762 1.6720001 22 23 9 255
-0.99850219 0.024785414 1.6810001 24 23 9 255
-1.0096625 0.025178492 1.7080001 25 22 6 255
-1.0059692 0.025203083 1.71 30 26 9 255
-1.0022714 0.025227794 1.7120001 42 30 11 255
-0.99915153 0.025267355 1.715 57 43 23 255
-0.99138355 0.025189186 1.71 78 55 33 255
-0.98480451 0.025140626 1.7070001 94 69 46 255
-0.98054528 0.025151109 1.7080001 105 78 55 255
-0.98142785 0.025294214 1.7180001 123 92 73 255
-0.97771287 0.02531963 1.72 118 95 75 255
-0.97342718 0.025330441 1.7210001 134 133 117 255
-0.96914154 0.025341364 1.7220001 84 93 82 255
-0.96597636 0.025381826 1.725 32 37 26 255
-0.95834273 0.025304699 1.72 48 45 25 255
-0.95074272 0.025227707 1.715 51 47 23 255
-0.94427943 0.025180263 1.7120001 36 31 11 255
-0.94003338 0.025191765 1.7130001 44 34 15 255
-0.93742478 0.02524749 1.7170001 47 37 20 255
-0.93208319 0.025229789 1.7160001 70 58 41 255
-0.92891377 0.025271006 1.7190001 83 69 50 255
-0.92035657 0.025165325 1.7120001 117 101 78 255
-0.91451716 0.025133258 1.71 111 89 63 255
-0.9102897 0.025145387 1.7110001 107 81 52 255
-0.9076491 0.025201701 1.715 104 79 47 255
-0.90341109 0.025214018 1.7160001 103 80 48 255
-0.89655375 0.025152976 1.7120001 103 84 55 255
-0.89128548 0.025136111 1.7110001 72 59 30 255
-0.88499051 0.025089961 1.7080001 46 36 11 255
-0.88129324 0.025117356 1.71 46 35 12 255
-0.87195027 0.024983281 1.7010001 54 40 16 255
-0.86571974 0.024937429 1.6980001 87 69 45 255
-0.85900259 0.024876991 1.6940001 86 66 40 255
-0.85533714 0.024904754 1.6960001 84 68 42 255
-0.85166425 0.024932602 1.6980001 81 68 44 255
-0.84848243 0.024975214 1.7010001 66 55 32 255
-0.8442955 0.02498854 1.702 41 36 15 255
-0.83961302 0.024987267 1.702 29 27 7 255
-0.83689612 0.025044799 1.7060001 28 26 8 255
-0.83659923 0.025175804 1.715 27 25 7 255
-0.83868152 0.025380278 1.7290001 34 31 11 255
-0.83876061 0.025526099 1.7390001 42 37 17 255
-0.83686942 0.025613274 1.7450001 44 37 16 255
-0.83208722 0.025612459 1.7450001 48 37 16 255
-0.82635945 0.025582362 1.743 48 34 14 255
-0.82064551 0.025552347 1.7410001 55 41 17 255
-0.81681961 0.02558111 1.743 62 48 24 255
-0.81298536 0.02560995 1.7450001 68 52 26 255
-0.81053215 0.025682889 1.7500001 72 54 28 255
-0.80621219 0.02569719 1.751 72 55 26 255
-0.80188924 0.025711564 1.7520001 70 54 28 255
-0.79710799 0.025711328 1.7520001 71 58 31 255
-0.79097229 0.025667138 1.7490001 63 51 22 255
-0.78440559 0.02560834 1.7450001 155 148 118 255
-0.77786267 0.025549609 1.7410001 142 141 111 255
-0.77134353 0.025490941 1.7370001 146 146 116 255
-0.76617211 0.025476363 1.7360001 144 149 118 255
-0.76144665 0.025476521 1.7360001 133 136 105 255
-0.75759459 0.025506092 1.738 123 128 97 255
-0.75286716 0.025506375 1.738 128 131 100 255
-0.74857175 0.025521392 1.7390001 135 139 113 255
-0.74256152 0.025477761 1.7360001 150 154 128 255
-0.73486894 0.025375482 1.7290001 156 162 137 255
-0.72763819 0.025287932 1.723 158 166 141 255
-0.72128069 0.025229787 1.7190001 150 160 137 255
-0.71494609 0.025171692 1.715 163 173 150 255
-0.70946282 0.025143003 1.7130001 172 181 160 255
-0.70316875 0.025085008 1.7090001 181 190 171 255
-0.69730616 0.025041735 1.7060001 184 193 174 255
-0.691055 0.024983831 1.702 181 190 171 255
-0.68482655 0.024925971 1.6980001 182 191 172 255
-0.67862076 0.02486816 1.6940001 188 197 178 255
-0.67243749 0.024810381 1.6900001 190 199 180 255
-0.66588169 0.024737969 1.6850001 189 198 179 255
-0.65935373 0.02466559 1.6800001 189 198 179 255
-0.65285373 0.024593253 1.6750001 190 199 180 255
-0.64831662 0.024594361 1.6750001 189 198 179 255
-0.64339596 0.024580831 1.674 182 191 172 255
-0.63924456 0.024596708 1.6750001 178 187 168 255
-0.63395154 0.024568569 1.6730001 176 185 166 255
-0.6286698 0.024540463 1.6710001 168 177 158 255
-0.62302595 0.024497708 1.6680001 148 157 138 255
-0.61739874 0.024454983 1.6650001 169 178 159 255
-0.61289239 0.024456354 1.6650001 161 170 149 255
-0.60838652 0.024457762 1.6650001 155 165 142 255
-0.60315561 0.02442982 1.6630001 165 175 150 255
-0.59901559 0.024445983 1.664 165 173 148 255
-0.59415591 0.024432795 1.6630001 160 168 142 255
-0.590011 0.024449021 1.664 140 149 120 255
-0.5851571 0.024435891 1.6630001 152 161 132 255
-0.58100706 0.02445218 1.664 151 160 129 255
-0.57650518 0.024453802 1.664 157 166 135 255
-0.5720033 0.024455454 1.664 154 163 132 255
-0.56852478 0.024501227 1.6670001 152 159 128 255
-0.56469136 0.024532327 1.669 148 155 124 255
-0.56051171 0.024548763 1.6700001 157 164 133 255
-0.55532759 0.024521122 1.6680001 156 163 132 255
-0.55048448 0.024508202 1.6670001 160 167 136 255
-0.54564667 0.024495304 1.6660001 160 167 136 255
-0.54146361 0.024511831 1.6670001 160 169 138 255
-0.53630859 0.024484264 1.6650001 156 165 134 255
-0.53180307 0.024486132 1.6650001 148 157 128 255
-0.52698052 0.024473308 1.664 158 167 138 255
-0.52216309 0.0244605 1.6630001 173 184 155 255
-0.51703948 0.024433 1.6610001 179 189 163 255
-0.51192629 0.024405509 1.659 162 172 146 255
-0.5068236 0.024378031 1.6570001 169 179 156 255
-0.50203449 0.024365282 1.6560001 168 178 155 255
-0.49755087 0.024367254 1.6560001 167 179 156 255
-0.49247116 0.02433981 1.654 173 185 162 255
-0.48769695 0.024327092 1.6530001 159 171 146 255
-0.48234305 0.024284948 1.6500001 178 191 164 255
-0.47758406 0.024272248 1.649 153 163 137 255
-0.47282997 0.024259556 1.6480001 140 153 126 255
-0.46751228 0.024217425 1.6450001 173 185 160 255
-0.46249181 0.024190024 1.6430001 184 196 171 255
-0.45720288 0.024147898 1.6400001 183 195 172 255
-0.45220557 0.0241205 1.6380001 167 179 156 255
-0.44667178 0.024063651 1.6340001 166 178 155 255
-0.44170034 0.024036251 1.6320001 160 172 149 255
-0.43700701 0.024023583 1.631 160 172 147 255
-0.43205324 0.023996187 1.6290001 155 167 142 255
-0.4276346 0.023998257 1.6290001 163 175 150 255
-0.42269561 0.023970859 1.6270001 160 172 147 255
-0.418024 0.023958197 1.626 160 172 147 255
-0.41310257 0.023930797 1.6240001 162 175 148 255
-0.4086946 0.023932867 1.6240001 148 160 135 255
-0.40428591 0.023934938 1.6240001 129 139 113 255
-0.40012267 0.02395175 1.6250001 130 140 114 255
-0.39522266 0.02392434 1.623 140 150 124 255
-0.39057353 0.023911664 1.6220001 160 171 140 255
-0.3864052 0.023928473 1.623 142 153 122 255
-0.38246602 0.023960028 1.6250001 137 149 116 255
-0.37804979 0.02396209 1.6250001 144 156 123 255
-0.37363279 0.023964148 1.6250001 154 166 133 255
-0.36898771 0.023951452 1.6240001 150 160 127 255
-0.36479625 0.023968253 1.6250001 148 158 125 255
-0.36082023 0.023999797 1.6270001 135 142 110 255
-0.35639438 0.024001835 1.6270001 130 137 105 255
-0.35218397 0.024018619 1.628 130 138 103 255
-0.34775367 0.024020646 1.628 131 139 104 255
-0.34374428 0.024052175 1.6300001 127 135 100 255
-0.33951497 0.024068942 1.631 123 133 98 255
-0.33548477 0.024100462 1.6330001 137 145 109 255
-0.33124006 0.024117215 1.6340001 133 141 105 255
-0.32698902 0.02413396 1.6350001 126 135 96 255
-0.32273161 0.024150696 1.636 124 133 94 255
-0.31846792 0.024167424 1.6370001 123 132 93 255
-0.31458145 0.024213666 1.6400001 126 134 98 255
-0.30992141 0.024200842 1.6390001 123 131 96 255
-0.30545226 0.02420277 1.6390001 123 130 101 255
-0.30061498 0.024175147 1.6370001 17 23 0 255
-0.29596859 0.02416227 1.636 20 22 4 255
-0.29079223 0.024105068 1.6320001 20 22 5 255
-0.28581223 0.024062611 1.6290001 25 24 8 255
-0.28102049 0.024034902 1.6270001 30 29 13 255
-0.27674875 0.024051493 1.628 33 32 16 255
-0.27263799 0.024082845 1.6300001 32 29 13 255
-0.26851541 0.024114184 1.6320001 27 24 8 255
-0.26421916 0.02413073 1.6330001 23 22 8 255
-0.25975758 0.024132479 1.6330001 24 23 9 255
-0.25560781 0.024163768 1.6350001 18 19 5 255
-0.25175345 0.0242246 1.6390001 18 19 5 255
-0.24757464 0.024255861 1.641 21 22 8 255
-0.24264337 0.024213191 1.6380001 32 35 23 255
-0.23816387 0.024214841 1.6380001 57 60 48 255
-0.23368356 0.024216469 1.6380001 59 66 55 255
-0.22892253 0.024188505 1.636 85 91 83 255
-0.22403447 0.02414573 1.6330001 78 86 78 255
-0.21916202 0.024102924 1.6300001 73 81 73 255
-0.21470037 0.024104452 1.6300001 94 102 94 255
-0.21010895 0.024091166 1.6290001 90 98 90 255
-0.20539601 0.024063066 1.6270001 86 92 84 255
-0.20069323 0.024034934 1.6250001 77 83 75 255
-0.19600065 0.024006773 1.623 72 78 70 255
-0.19167243 0.024022963 1.6240001 70 76 68 255
-0.18710738 0.024009539 1.623 69 74 63 255
-0.1827722 0.024025675 1.6240001 71 76 65 255
-0.17843086 0.024041785 1.6250001 71 76 64 255
-0.1741904 0.024072668 1.6270001 64 69 57 255
-0.16993828 0.024103522 1.6290001 62 67 55 255
-0.16577613 0.024149152 1.6320001 62 67 55 255
-0.16179453 0.02422435 1.6370001 61 66 52 255
-0.1575927 0.024269933 1.6400001 61 66 54 255
-0.15328041 0.024300687 1.6420001 61 64 50 255
-0.14895654 0.024331415 1.6440001 64 67 53 255
-0.14470895 0.024376916 1.6470001 61 66 52 255
-0.14052944 0.024437193 1.651 61 66 52 255
-0.1363274 0.024497444 1.6550001 59 65 48 255
-0.13218246 0.024572471 1.6600001 57 62 48 255
-0.12785576 0.024617864 1.6630001 55 60 46 255
-0.12343793 0.024648426 1.6650001 53 59 42 255
-0.11886584 0.02464935 1.6650001 53 59 42 255
-0.11443052 0.024679849 1.6670001 55 61 44 255
-0.11011554 0.02473993 1.6710001 58 64 47 255
-0.10571498 0.024785174 1.674 58 64 47 255
-0.10129748 0.024830386 1.677 57 62 48 255
-0.096747778 0.024845958 1.6780001 59 64 50 255
-0.092082337 0.024831878 1.677 59 64 50 255
-0.08757849 0.024862191 1.6790001 63 68 54 255
-0.083211519 0.024936892 1.6840001 65 70 56 255
-0.07886336 0.02502637 1.6900001 63 68 54 255
-0.074350148 0.02507139 1.6930001 63 68 56 255
-0.069655448 0.025057141 1.692 63 68 54 255
-0.065081209 0.025087284 1.6940001 66 71 59 255
-0.060531355 0.025132203 1.697 64 69 57 255
-0.05606351 0.025221519 1.7030001 63 68 54 255
-0.051562428 0.025310801 1.7090001 62 67 53 255
-0.04705555 0.025414858 1.7160001 59 64 50 255
-0.042485304 0.025504075 1.7220001 63 69 52 255
-0.03792572 0.025622876 1.7300001 68 72 55 255
-0.03330281 0.025726832 1.7370001 57 61 44 255
-0.028591983 0.02578632 1.7410001 88 93 79 255
0.72741616 0.026113227 1.779 150 158 151 255
0.73141927 0.02608308 1.7770001 146 154 147 255
0.73416978 0.026008951 1.7720001 144 152 145 255
0.73439205 0.025846815 1.761 143 151 144 255
0.73287708 0.025626034 1.7460001 141 149 142 255
0.73170429 0.025419991 1.7320001 143 151 144 255
0.73258281 0.025287395 1.723 147 155 147 255
0.73426968 0.025184216 1.7160001 152 160 152 255
0.73505878 0.025051743 1.7070001 155 163 155 255
0.73536706 0.024904653 1.697 159 167 160 255
0.73736686 0.024816332 1.6910001 163 171 164 255
0.73758048 0.024669366 1.6810001 165 173 166 255
0.73862439 0.024551813 1.6730001 167 175 168 255
0.73873806 0.024404969 1.6630001 170 178 171 255
0.74148077 0.02434624 1.659 173 181 174 255
0.74195522 0.024214193 1.6500001 172 180 173 255
0.74283493 0.024096888 1.6420001 176 184 177 255
0.74276268 0.023950292 1.6320001 178 185 181 255
0.7435537 0.023833107 1.6240001 179 186 182 255
0.74292135 0.023671957 1.613 179 186 182 255
0.74315774 0.023540221 1.6040001 181 188 185 255
0.74288106 0.023393871 1.5940001 183 190 187 255
0.7425521 0.023247581 1.5840001 182 189 186 255
0.74122757 0.023071995 1.572 184 191 188 255
0.74126261 0.022940505 1.5630001 183 190 187 255
0.74172765 0.022823747 1.5550001 183 190 187 255
0.7421515 0.022707054 1.5470001 184 191 187 255
0.74156898 0.022561066 1.5370001 186 193 189 255
0.74141955 0.022429816 1.5280001 185 192 188 255
0.7417112 0.022313306 1.5200001 188 195 192 255
0.7424525 0.022211537 1.5130001 188 195 192 255
0.74118418 0.022051107 1.5020001 188 195 191 255
-1.016557 0.02026814 1.687 29 32 18 255
-1.0135168 0.020299807 1.6900001 23 27 10 255
-0.99912685 0.020103397 1.674 25 26 12 255
-0.9901818 0.020015238 1.6670001 24 23 9 255
-1.0055202 0.020419398 1.7010001 27 24 8 255
-1.0000819 0.020403432 1.7 30 26 9 255
-0.99992532 0.020495579 1.7080001 44 32 13 255
-0.99448675 0.020479815 1.7070001 60 45 25 255
-0.99253911 0.020536134 1.7120001 79 56 34 255
-0.9876852 0.020532569 1.7120001 95 70 47 255
-0.98398596 0.020553086 1.7140001 108 81 59 255
-0.98085284 0.020585686 1.7170001 133 102 83 255
-0.976004 0.020582413 1.7170001 130 106 90 255
-0.97285789 0.020615192 1.72 144 133 120 255
-0.96857542 0.020624092 1.7210001 54 50 39 255
-0.9637332 0.0206211 1.7210001 50 46 35 255
-0.95499653 0.020534342 1.7140001 55 49 33 255
-0.9501853 0.020531552 1.7140001 53 45 28 255
-0.94758582 0.020576758 1.7180001 45 38 18 255
-0.94496942 0.020622047 1.7220001 45 35 16 255
-0.93905985 0.020595565 1.72 46 34 17 255
-0.93316686 0.020569177 1.7180001 66 54 37 255
-0.92729008 0.020542884 1.7160001 77 62 42 255
-0.92089176 0.020504709 1.7130001 111 91 67 255
-0.91398007 0.020454662 1.7090001 94 72 46 255
-0.90975541 0.02046454 1.71 97 74 44 255
-0.90711755 0.0205104 1.7140001 100 77 47 255
-0.90288258 0.020520436 1.715 108 85 55 255
-0.89655173 0.020482693 1.7120001 101 86 57 255
-0.89076257 0.020456996 1.71 58 46 19 255
-0.88343424 0.020395497 1.705 44 35 12 255
-0.87819922 0.020381926 1.7040001 39 26 3 255
-0.87041062 0.020308631 1.6980001 59 45 22 255
-0.8667379 0.020331096 1.7 84 66 42 255
-0.85950822 0.020269923 1.6950001 81 63 39 255
-0.85483134 0.020268613 1.6950001 77 64 41 255
-0.84915501 0.020243464 1.6930001 56 45 22 255
-0.84698474 0.020302081 1.6980001 41 34 13 255
-0.8447904 0.02036076 1.7030001 32 30 12 255
-0.83911866 0.020335816 1.7010001 27 25 7 255
-0.83640456 0.020382669 1.705 26 25 9 255
-0.8322081 0.020393722 1.7060001 23 22 6 255
-0.83722544 0.020631954 1.7260001 26 24 6 255
-0.83731276 0.020750701 1.7360001 30 28 10 255
-0.83734816 0.020869507 1.7460001 38 34 17 255
-0.8320865 0.020856891 1.7450001 40 33 13 255
-0.82588482 0.020820433 1.7420001 45 34 13 255
-0.82017362 0.020795992 1.7400001 56 43 20 255
-0.81635052 0.020819418 1.7420001 62 48 24 255
-0.81251901 0.0208429 1.7440001 71 53 27 255
-0.80914223 0.020878397 1.7470001 73 56 27 255
-0.80483067 0.020890046 1.748 77 58 29 255
-0.8014313 0.020925654 1.751 74 55 26 255
-0.79665291 0.020925466 1.751 76 59 30 255
-0.79097223 0.020901432 1.7490001 68 55 26 255
-0.78485507 0.020865504 1.7460001 107 95 66 255
-0.77786267 0.020805728 1.7410001 146 141 111 255
-0.7717877 0.020769905 1.738 142 139 109 255
-0.76617223 0.020746084 1.7360001 142 143 111 255
-0.76144677 0.020746216 1.7360001 133 134 102 255
-0.75715899 0.020758349 1.7370001 128 131 99 255
-0.75243431 0.020758579 1.7370001 120 123 92 255
-0.74771118 0.020758858 1.7370001 143 146 115 255
-0.74213409 0.020735281 1.7350001 145 149 121 255
-0.73571944 0.020687846 1.7310001 158 164 139 255
-0.72932798 0.020640459 1.7270001 161 169 144 255
-0.72212034 0.020569207 1.7210001 155 163 138 255
-0.71536356 0.020509949 1.7160001 158 166 141 255
-0.70904928 0.020462682 1.7120001 176 186 163 255
-0.70358086 0.020439362 1.71 184 191 169 255
-0.6977157 0.020404126 1.7070001 185 194 173 255
-0.6914618 0.020356975 1.7030001 190 199 180 255
-0.68523067 0.020309862 1.6990001 184 193 174 255
-0.6794228 0.020274738 1.6960001 183 192 173 255
-0.6728363 0.020215737 1.6910001 186 195 176 255
-0.66706812 0.02018068 1.6880001 187 196 177 255
-0.66092461 0.020133702 1.6840001 190 199 180 255
-0.65519327 0.02009871 1.6810001 190 199 180 255
-0.65064001 0.020099619 1.6810001 185 194 175 255
-0.64608747 0.020100562 1.6810001 181 190 171 255
-0.64191705 0.020113494 1.682 178 187 168 255
-0.6366052 0.020090587 1.6800001 179 188 169 255
-0.63055211 0.020043788 1.6760001 174 183 164 255
-0.62489468 0.020008976 1.6730001 173 182 163 255
-0.61925405 0.019974189 1.6700001 176 185 164 255
-0.61473429 0.01997531 1.6700001 168 177 156 255
-0.60948402 0.019952536 1.6680001 154 164 141 255
-0.60424495 0.019929785 1.6660001 154 164 139 255
-0.59973693 0.019930987 1.6660001 162 170 145 255
-0.59558642 0.019944178 1.6670001 144 152 126 255
-0.59072155 0.019933466 1.6660001 150 158 132 255
-0.58621413 0.019934744 1.6660001 143 151 126 255
-0.58170682 0.019936046 1.6660001 131 141 116 255
-0.57789248 0.019961305 1.6680001 137 147 122 255
-0.57303607 0.019950684 1.6670001 141 151 126 255
-0.56920826 0.019975992 1.669 148 158 133 255
-0.56469297 0.019977385 1.669 147 155 129 255
-0.56051326 0.01999077 1.6700001 158 166 140 255
-0.55499625 0.019956289 1.6670001 159 167 141 255
-0.55048615 0.01995774 1.6670001 160 168 142 255
-0.54564828 0.019947236 1.6660001 150 158 132 255
-0.54179013 0.019972673 1.6680001 160 168 142 255
-0.53663242 0.019950228 1.6660001 160 168 142 255
-0.53244358 0.019963725 1.6670001 161 171 145 255
-0.52729887 0.019941306 1.6650001 161 171 145 255
-0.52247882 0.019930881 1.664 170 180 154 255
-0.51735246 0.019908486 1.6620001 186 196 171 255
-0.5122366 0.019886104 1.6600001 168 178 153 255
-0.50682539 0.01985175 1.6570001 173 185 162 255
-0.50203627 0.019841367 1.6560001 178 190 167 255
-0.49695176 0.019819012 1.654 151 163 140 255
-0.49157974 0.019784678 1.651 170 182 159 255
-0.48681369 0.019774321 1.6500001 166 178 155 255
-0.48205253 0.019763969 1.649 169 179 154 255
-0.47758588 0.019765614 1.649 180 190 165 255
-0.47225794 0.019731304 1.646 156 166 141 255
-0.46722999 0.019708985 1.6440001 150 162 139 255
-0.46193072 0.019674681 1.641 157 169 146 255
-0.45692593 0.019652365 1.6390001 161 173 150 255
-0.4516553 0.019618064 1.636 194 204 179 255
-0.44640028 0.019583762 1.6330001 172 182 157 255
-0.44116095 0.019549457 1.6300001 160 170 145 255
-0.43647298 0.01953914 1.6290001 151 163 138 255
-0.43178988 0.019528825 1.628 163 175 150 255
-0.42737395 0.019530509 1.628 170 180 155 255
-0.42243776 0.0195082 1.626 167 179 154 255
-0.41802582 0.019509885 1.626 164 177 150 255
-0.41335884 0.019499574 1.6250001 155 166 137 255
-0.40869647 0.01948926 1.6240001 143 154 125 255
-0.40453675 0.019502951 1.6250001 134 145 116 255
-0.40037075 0.019516641 1.626 131 140 109 255
-0.3957116 0.01950633 1.6250001 133 142 111 255
-0.39105701 0.019496011 1.6240001 149 158 127 255
-0.38664517 0.019497694 1.6240001 141 150 119 255
-0.3824679 0.019511383 1.6250001 134 146 113 255
-0.37828431 0.019525072 1.626 126 138 103 255
-0.37386456 0.01952675 1.626 134 146 111 255
-0.36967123 0.019540437 1.6270001 142 152 117 255
-0.3652471 0.019542109 1.6270001 142 152 117 255
-0.3612656 0.019567799 1.6290001 153 160 128 255
-0.35683432 0.019569462 1.6290001 134 141 109 255
-0.35261849 0.019583134 1.6300001 125 133 98 255
-0.34796917 0.01957277 1.6290001 125 133 98 255
-0.34395701 0.019598449 1.631 122 130 95 255
-0.33930865 0.019588068 1.6300001 117 127 92 255
-0.33548662 0.019625755 1.6330001 124 132 96 255
-0.33124188 0.019639399 1.6340001 124 132 96 255
-0.32719082 0.019665057 1.636 117 125 89 255
-0.32293066 0.019678686 1.6370001 110 119 79 255
-0.31885877 0.019704331 1.6390001 93 100 60 255
-0.31477505 0.019729968 1.641 98 106 70 255
-0.31011227 0.019719528 1.6400001 107 113 78 255
-0.30545399 0.019709073 1.6390001 105 112 83 255
-0.30061668 0.019686578 1.6370001 25 28 4 255
-0.29578939 0.01966407 1.6350001 19 19 1 255
-0.29079393 0.019629514 1.6320001 25 24 8 255
-0.2858139 0.019594939 1.6290001 30 27 11 255
-0.2811949 0.019584408 1.628 31 28 12 255
-0.27658042 0.01957386 1.6270001 34 32 14 255
-0.27213779 0.019575324 1.6270001 32 28 12 255
-0.26785886 0.019588809 1.628 29 25 9 255
-0.26357356 0.01960228 1.6290001 27 24 10 255
-0.25928196 0.019615738 1.6300001 29 25 14 255
-0.25545305 0.019665286 1.6340001 25 21 10 255
-0.251755 0.019726859 1.6390001 22 21 7 255
-0.24772702 0.019764353 1.6420001 25 23 12 255
-0.24294116 0.019741645 1.6400001 26 29 17 255
-0.23831074 0.019730952 1.6390001 60 63 51 255
-0.23382767 0.01973228 1.6390001 56 61 50 255
-0.22920384 0.019721551 1.6380001 83 89 81 255
-0.22431029 0.019686719 1.6350001 79 87 79 255
-0.21943234 0.019651862 1.6320001 78 86 78 255
-0.21470176 0.019629024 1.6300001 91 99 91 255
-0.21011032 0.019618204 1.6290001 92 100 92 255
-0.20527107 0.019583277 1.626 86 92 84 255
-0.20069455 0.019572416 1.6250001 72 78 70 255
-0.19600195 0.019549482 1.623 75 81 73 255
-0.1917917 0.019574713 1.6250001 71 77 69 255
-0.1872239 0.019563783 1.6240001 64 71 60 255
-0.18299851 0.019588972 1.626 65 72 61 255
-0.17865165 0.019602094 1.6270001 71 76 64 255
-0.17451274 0.019639293 1.6300001 66 71 59 255
-0.17025238 0.01966442 1.6320001 64 69 57 255
-0.16608198 0.01970158 1.6350001 65 70 56 255
-0.16199329 0.019750766 1.6390001 64 69 55 255
-0.15768984 0.019775834 1.641 66 71 57 255
-0.15328144 0.019788831 1.6420001 67 70 56 255
-0.14895755 0.019813854 1.6440001 67 70 56 255
-0.14470993 0.019850908 1.6470001 65 70 56 255
-0.14044528 0.019887941 1.6500001 63 68 54 255
-0.13616358 0.019924952 1.6530001 63 69 52 255
-0.13194448 0.019973991 1.6570001 66 72 55 255
-0.12770288 0.020023013 1.6610001 61 67 50 255
-0.12336464 0.020059953 1.664 63 69 52 255
-0.11886665 0.020072762 1.6650001 58 64 47 255
-0.11443132 0.020097598 1.6670001 59 65 48 255
-0.11011632 0.020146525 1.6710001 57 63 46 255
-0.10584202 0.020207485 1.6760001 61 65 48 255
-0.10141901 0.020244304 1.6790001 59 63 46 255
-0.096921429 0.020269042 1.6810001 59 62 48 255
-0.092192806 0.02024552 1.6790001 58 63 49 255
-0.087735586 0.020282261 1.682 62 67 53 255
-0.083310924 0.020331036 1.6860001 66 72 55 255
-0.079097241 0.020440077 1.6950001 63 68 54 255
-0.074570253 0.020476742 1.6980001 62 67 53 255
-0.069985285 0.020501319 1.7 61 66 52 255
-0.065389022 0.020525867 1.702 63 68 56 255
-0.060924146 0.020598628 1.7080001 64 69 57 255
-0.05645895 0.020683425 1.715 63 68 56 255
-0.05201536 0.020792315 1.7240001 60 65 51 255
-0.047439791 0.020864995 1.7300001 49 54 40 255
-0.042905036 0.02097383 1.7390001 39 44 30 255
-0.038254831 0.021046454 1.7450001 30 36 19 255
-0.033590637 0.021131111 1.7520001 32 37 23 255
-0.028822109 0.021167496 1.7550001 29 34 20 255
-0.024009604 0.021179726 1.756 23 30 18 255
-0.019169649 0.021167802 1.7550001 21 28 17 255
0.72619033 0.021228863 1.7760001 149 157 150 255
0.72977352 0.021192355 1.7730001 144 152 145 255
0.73251313 0.02113199 1.7680001 143 151 144 255
0.73397571 0.021035817 1.7600001 141 149 142 255
0.73371708 0.020891881 1.748 140 148 141 255
0.73423958 0.0207719 1.738 140 148 141 255
0.73385876 0.020628067 1.7260001 146 154 146 255
0.73512578 0.02053209 1.7180001 148 156 148 255
0.73592031 0.020424215 1.7090001 154 162 154 255
0.73623401 0.020304434 1.6990001 158 166 159 255
0.73823911 0.020232506 1.6930001 162 170 163 255
0.73714179 0.020076975 1.6800001 167 175 168 255
0.73818302 0.019981246 1.6720001 164 172 165 255
0.73962647 0.019897517 1.6650001 169 177 170 255
0.74282157 0.019861642 1.6620001 171 179 172 255
0.74285454 0.019742165 1.6520001 173 181 174 255
0.74283475 0.019622734 1.6420001 175 183 176 255
0.74230736 0.019491404 1.631 176 183 179 255
0.74217999 0.019372078 1.6210001 177 184 180 255
0.74199992 0.019252798 1.6110001 181 188 184 255
0.74176741 0.019133568 1.6010001 183 190 187 255
0.74241459 0.01903829 1.5930001 180 187 184 255
0.74255157 0.018931111 1.5840001 184 191 188 255
0.74217016 0.018812032 1.5740001 182 189 186 255
0.74221051 0.018704953 1.5650001 180 187 183 255
0.74268103 0.018609874 1.557 161 168 164 255
0.7440697 0.018538754 1.5510001 180 187 183 255
0.74253321 0.018395966 1.539 185 192 188 255
0.74141872 0.018265177 1.5280001 186 193 189 255
0.74171036 0.018170299 1.5200001 187 194 190 255
0.74294215 0.018099377 1.5140001 188 195 191 255
0.74167651 0.017968733 1.503 187 194 190 255
-1.0153481 0.015628224 1.6850001 29 32 18 255
-1.0003194 0.015467219 1.6680001 25 26 12 255
-1.0146413 0.015760642 1.7 25 26 12 255
-1.0163137 0.015859379 1.7110001 25 24 10 255
-0.98719156 0.015476261 1.6700001 27 24 8 255
-1.0136089 0.015964329 1.723 28 24 7 255
-0.99992186 0.015822358 1.7080001 42 30 11 255
-0.99797893 0.015865764 1.7130001 61 46 26 255
-0.99775368 0.015937015 1.7210001 84 59 36 255
-0.99518192 0.015971281 1.725 95 68 45 255
-0.9868533 0.015913047 1.7190001 102 75 52 255
-0.98084998 0.015891928 1.7170001 135 104 85 255
-0.97429585 0.01586164 1.7140001 141 121 105 255
-0.97115839 0.015886951 1.7170001 112 94 79 255
-0.9674471 0.015903078 1.7190001 117 110 97 255
-0.96149069 0.015882274 1.7170001 58 54 40 255
-0.95387977 0.015833801 1.7120001 59 55 38 255
-0.94962847 0.015840895 1.7130001 56 48 31 255
-0.94648033 0.015866552 1.7160001 57 47 28 255
-0.94441825 0.015910761 1.7210001 57 47 28 255
-0.93796575 0.015881076 1.7180001 56 44 25 255
-0.93207842 0.01586071 1.7160001 95 81 62 255
-0.92350531 0.015794205 1.7090001 61 45 22 255
-0.9187395 0.015792467 1.7090001 83 60 37 255
-0.91290843 0.015772313 1.7070001 98 74 48 255
-0.91028559 0.015807658 1.7110001 96 72 44 255
-0.90605742 0.015815351 1.7120001 69 47 19 255
-0.90182793 0.0158231 1.7130001 75 56 27 255
-0.89393163 0.015766256 1.7070001 61 48 21 255
-0.88919836 0.015764896 1.7070001 48 39 16 255
-0.88084209 0.015698951 1.7 46 37 16 255
-0.87510562 0.015679246 1.6980001 46 33 10 255
-0.86682117 0.015613437 1.6910001 73 59 36 255
-0.86265779 0.015621552 1.692 75 59 35 255
-0.85747862 0.015611258 1.6910001 72 56 32 255
-0.85382164 0.015628716 1.6930001 79 66 43 255
-0.84965557 0.015636997 1.6940001 59 48 27 255
-0.84498847 0.015636096 1.6940001 43 36 15 255
-0.84181309 0.01566294 1.697 31 29 11 255
-0.83714449 0.015662145 1.697 28 28 10 255
-0.83542252 0.015716774 1.7030001 25 24 8 255
-0.83123165 0.015725309 1.7040001 23 22 8 255
-0.83479929 0.01588154 1.7210001 25 22 6 255
-0.83731204 0.016019354 1.7360001 27 24 8 255
-0.83830678 0.016129525 1.748 29 27 9 255
-0.83303964 0.016119787 1.7470001 38 31 11 255
-0.82730663 0.01610087 1.7450001 39 30 9 255
-0.82111591 0.016072774 1.7420001 54 41 18 255
-0.81588149 0.01606318 1.7410001 62 48 24 255
-0.81251866 0.01609054 1.7440001 73 55 29 255
-0.80867881 0.016108716 1.7460001 76 57 28 255
-0.80529082 0.01613616 1.7490001 77 58 29 255
-0.80234653 0.016172878 1.7530001 78 56 28 255
-0.79710776 0.016163507 1.7520001 81 59 31 255
-0.79142439 0.016144956 1.7500001 78 61 31 255
-0.78485495 0.016107991 1.7460001 68 53 23 255
-0.77920306 0.016089525 1.7440001 151 142 111 255
-0.77356398 0.016071096 1.7420001 143 138 107 255
-0.76793784 0.01605271 1.7400001 138 139 105 255
-0.76276284 0.016043585 1.7390001 139 140 106 255
-0.75759506 0.016034499 1.738 132 135 103 255
-0.75243449 0.016025452 1.7370001 120 123 91 255
-0.74728096 0.016016442 1.7360001 121 125 97 255
-0.74256217 0.016016696 1.7360001 145 149 123 255
-0.73699486 0.015998529 1.7340001 159 165 140 255
-0.73101759 0.015971174 1.7310001 163 171 146 255
-0.72379917 0.015916171 1.725 157 164 142 255
-0.7166146 0.015861198 1.7190001 155 163 138 255
-0.70946395 0.015806256 1.7130001 172 182 159 255
-0.70399284 0.015788255 1.7110001 183 193 170 255
-0.69812495 0.015761055 1.7080001 185 194 175 255
-0.69227451 0.015733885 1.705 184 193 174 255
-0.68644124 0.015706742 1.702 174 185 166 255
-0.6810258 0.015688857 1.7 184 195 176 255
-0.67442858 0.015643312 1.6950001 188 197 178 255
-0.66904485 0.015625481 1.6930001 184 193 172 255
-0.66367269 0.015607676 1.6910001 178 187 166 255
-0.65792239 0.015580665 1.6880001 181 190 171 255
-0.65257609 0.015562909 1.6860001 178 189 170 255
-0.64839441 0.01557287 1.687 173 184 165 255
-0.64382619 0.015573628 1.687 173 183 166 255
-0.63887972 0.015565179 1.6860001 176 186 169 255
-0.63281047 0.015529054 1.682 175 185 168 255
-0.62751031 0.015511414 1.6800001 169 180 161 255
-0.62259227 0.01550303 1.6790001 176 187 168 255
-0.6169439 0.015476201 1.6760001 191 200 179 255
-0.61131203 0.015449388 1.6730001 190 200 177 255
-0.6053341 0.015413359 1.669 179 189 164 255
-0.60117793 0.015423524 1.6700001 151 160 131 255
-0.59665936 0.015424473 1.6700001 156 163 132 255
-0.59214097 0.015425444 1.6700001 152 159 128 255
-0.5876227 0.015426433 1.6700001 148 155 126 255
-0.58310467 0.015427442 1.6700001 145 154 125 255
-0.57893306 0.015437706 1.6710001 135 143 117 255
-0.57406861 0.015429511 1.6700001 135 145 120 255
-0.56989169 0.015439812 1.6710001 134 144 119 255
-0.56537092 0.015440887 1.6710001 148 158 133 255
-0.5608502 0.015441983 1.6710001 163 171 146 255
-0.55533057 0.015415365 1.6680001 164 172 147 255
-0.55114788 0.015425729 1.669 158 166 141 255
-0.54630458 0.015417622 1.6680001 148 156 131 255
-0.54211617 0.015428015 1.669 147 155 130 255
-0.537278 0.015419935 1.6680001 155 163 138 255
-0.53276432 0.015421111 1.6680001 165 175 150 255
-0.52761698 0.015403808 1.6660001 180 190 165 255
-0.52279419 0.015395759 1.6650001 176 186 161 255
-0.51735389 0.015369225 1.6620001 174 184 161 255
-0.51223803 0.015351947 1.6600001 189 199 174 255
-0.50713271 0.015334676 1.6580001 153 165 142 255
-0.50143135 0.015298912 1.654 163 175 152 255
-0.49665269 0.015290904 1.6530001 174 186 163 255
-0.49128348 0.0152644 1.6500001 148 160 137 255
-0.48681512 0.015265655 1.6500001 160 170 147 255
-0.4814693 0.015239158 1.6470001 187 197 174 255
-0.4770081 0.015240428 1.6470001 185 195 172 255
-0.47139868 0.015204686 1.6430001 177 189 166 255
-0.46637878 0.015187453 1.641 159 171 148 255
-0.46136922 0.015170224 1.6390001 174 186 163 255
-0.45692739 0.015171509 1.6390001 162 174 151 255
-0.45165673 0.015145028 1.636 160 170 147 255
-0.44667509 0.015127807 1.6340001 179 191 168 255
-0.44143304 0.015101324 1.631 161 173 148 255
-0.4364745 0.015084104 1.6290001 152 164 139 255
-0.43152612 0.01506688 1.6270001 167 179 154 255
-0.42711291 0.01506818 1.6270001 162 174 149 255
-0.42217946 0.015050957 1.6250001 166 179 152 255
-0.41802734 0.015061521 1.626 164 174 148 255
-0.41285157 0.015035033 1.623 132 143 114 255
-0.40894964 0.015054865 1.6250001 132 143 114 255
-0.40453824 0.01505617 1.6250001 134 143 112 255
-0.40061852 0.015076006 1.6270001 133 140 109 255
-0.39620012 0.015077312 1.6270001 132 139 107 255
-0.39154011 0.015069349 1.626 139 146 114 255
-0.38688478 0.015061383 1.6250001 139 147 112 255
-0.38270473 0.015071952 1.626 132 143 106 255
-0.37851843 0.015082521 1.6270001 129 140 103 255
-0.37386608 0.015074547 1.626 137 147 112 255
-0.36944547 0.015075841 1.626 132 142 107 255
-0.36457509 0.015058587 1.6240001 139 149 116 255
-0.36082351 0.01508769 1.6270001 130 140 107 255
-0.35661674 0.015098249 1.628 126 135 104 255
-0.35283628 0.015127352 1.631 132 139 107 255
-0.34861144 0.015137905 1.6320001 115 122 90 255
-0.34416938 0.015139177 1.6320001 103 113 80 255
-0.33951822 0.015131166 1.631 95 105 72 255
-0.33548805 0.015150982 1.6330001 85 95 60 255
-0.33124331 0.015161514 1.6340001 86 96 61 255
-0.32719225 0.015181323 1.636 90 101 64 255
-0.32293209 0.015191846 1.6370001 113 122 83 255
-0.31886017 0.015211644 1.6390001 125 134 95 255
-0.31458464 0.015222155 1.6400001 122 130 94 255
-0.31011367 0.015223378 1.6400001 113 119 84 255
-0.30582812 0.015233873 1.641 106 110 82 255
-0.30116898 0.015225794 1.6400001 18 21 0 255
-0.29633346 0.015208419 1.6380001 19 18 2 255
-0.29079527 0.01515389 1.6320001 27 26 10 255
-0.28616613 0.015145771 1.631 28 25 9 255
-0.28136891 0.015128355 1.6290001 31 28 12 255
-0.2767517 0.015120212 1.628 31 28 12 255
-0.27197182 0.01510277 1.626 29 25 9 255
-0.26769561 0.01511318 1.6270001 29 25 9 255
-0.26341304 0.01512358 1.628 28 24 10 255
-0.25912413 0.015133967 1.6290001 27 24 10 255
-0.25514162 0.015162928 1.6320001 27 24 10 255
-0.25175622 0.015229044 1.6390001 24 21 7 255
-0.24772824 0.015257988 1.6420001 24 22 11 255
-0.24309045 0.01524975 1.641 25 26 14 255
-0.23860273 0.015250792 1.641 61 64 52 255
-0.23425685 0.015261114 1.6420001 53 58 47 255
-0.22948484 0.015243537 1.6400001 81 88 77 255
