ply
format ascii 1.0
comment PCL generated
element vertex 1002
property float x
property float y
property float z
property uchar red
property uchar green
property uchar blue
property uchar alpha
element camera 0
property float view_px
property float view_py
property float view_pz
property float x_axisx
property float x_axisy
property float x_axisz
property float y_axisx
property float y_axisy
property float y_axisz
property float z_axisx
property float z_axisy
property float z_axisz
property float focal
property float scalex
property float scaley
property float centerx
property float centery
property int viewportx
property int viewporty
property float k1
property float k2
end_header
-0.76179498 -0.1480422 1.6160001 217 221 213 255
-0.74049461 -0.14473961 1.58 230 237 226 255
-0.7305764 -0.1436362 1.5680001 149 159 142 255
-0.72350526 -0.14308284 1.562 152 163 144 255
-0.71969235 -0.14317112 1.5630001 138 148 125 255
-0.71496081 -0.1430766 1.562 143 151 126 255
-0.71023691 -0.14298247 1.5610001 140 148 123 255
-0.70190227 -0.14215596 1.552 198 208 183 255
-0.69541705 -0.14169624 1.5470001 151 161 136 255
-0.68940783 -0.14132851 1.5430001 119 129 104 255
-0.68519849 -0.14132749 1.5430001 121 129 103 255
-0.68099093 -0.14132684 1.5430001 129 136 107 255
-0.67722368 -0.14141813 1.544 131 135 107 255
-0.67345273 -0.14150977 1.5450001 126 133 104 255
-0.66924477 -0.14151016 1.5450001 155 162 133 255
-0.66374695 -0.1412361 1.5420001 170 179 150 255
-0.65869474 -0.14105396 1.5400001 138 147 118 255
-0.65322971 -0.14078052 1.5370001 127 136 105 255
-0.64904928 -0.14078221 1.5370001 134 143 114 255
-0.64445072 -0.14069261 1.536 135 143 117 255
-0.63944197 -0.14051169 1.534 137 145 119 255
-0.63568765 -0.1406059 1.5350001 141 148 126 255
-0.63151771 -0.14060877 1.5350001 142 149 127 255
-0.6281662 -0.14079514 1.5370001 147 154 132 255
-0.62399286 -0.14079858 1.5370001 169 176 155 255
-0.61941731 -0.1407107 1.536 162 171 150 255
-0.61444765 -0.14053148 1.534 160 172 149 255
-0.60948986 -0.14035253 1.5320001 151 163 140 255
-0.60493875 -0.14026542 1.531 142 154 131 255
-0.60078633 -0.14027017 1.531 161 173 150 255
-0.59663469 -0.1402752 1.531 126 136 111 255
-0.59209687 -0.14018883 1.5300001 127 137 112 255
-0.58794945 -0.14019433 1.5300001 130 138 113 255
-0.5830394 -0.14001679 1.5280001 140 148 123 255
-0.5785197 -0.1399311 1.5270001 143 153 128 255
-0.57400602 -0.13984561 1.526 150 160 135 255
-0.56987166 -0.13985199 1.526 151 161 138 255
-0.56499642 -0.13967529 1.524 150 160 135 255
-0.55976439 -0.13940713 1.521 149 161 136 255
-0.55527961 -0.13932244 1.5200001 144 154 128 255
-0.55116326 -0.13932961 1.5200001 142 152 126 255
-0.5470472 -0.13933697 1.5200001 143 153 128 255
-0.5429315 -0.13934454 1.5200001 152 162 137 255
-0.53846145 -0.13926059 1.5190001 148 156 131 255
-0.53399712 -0.1391768 1.5180001 145 152 130 255
-0.53023648 -0.13927658 1.5190001 140 148 123 255
-0.52577794 -0.13919313 1.5180001 135 143 117 255
-0.52166849 -0.13920154 1.5180001 131 139 113 255
-0.51721823 -0.13911839 1.5170001 141 150 121 255
-0.51311171 -0.13912709 1.5170001 143 152 123 255
-0.50934076 -0.13922769 1.5180001 139 148 119 255
-0.5052315 -0.13923669 1.5180001 145 154 125 255
-0.50112218 -0.13924584 1.5180001 152 160 134 255
-0.49668545 -0.13916339 1.5170001 144 154 128 255
-0.49225396 -0.13908105 1.516 142 152 126 255
-0.48814985 -0.13909057 1.516 141 151 125 255
-0.48404557 -0.13910021 1.516 141 151 125 255
-0.47994116 -0.13911 1.516 144 152 126 255
-0.47552267 -0.1390281 1.5150001 147 157 131 255
-0.4711093 -0.13894629 1.5140001 148 158 133 255
-0.46700954 -0.13895637 1.5140001 153 163 140 255
-0.46290961 -0.13896655 1.5140001 144 154 131 255
-0.45820323 -0.13879322 1.5120001 135 145 120 255
-0.45410806 -0.13880356 1.5120001 132 142 116 255
-0.4497149 -0.13872218 1.511 133 143 117 255
-0.44562173 -0.13873267 1.511 132 143 114 255
-0.44182044 -0.13883509 1.5120001 131 140 109 255
-0.43772376 -0.13884573 1.5120001 125 134 105 255
-0.43362671 -0.13885647 1.5120001 130 139 108 255
-0.42952916 -0.13886724 1.5120001 132 141 110 255
-0.42571256 -0.13896994 1.5130001 133 142 111 255
-0.42189008 -0.13907272 1.5140001 141 150 119 255
-0.41778564 -0.13908368 1.5140001 135 144 113 255
-0.41313431 -0.13891095 1.5120001 128 137 108 255
-0.40822273 -0.13864635 1.5090001 131 139 113 255
-0.4030591 -0.13828987 1.5050001 163 171 146 255
-0.39791659 -0.13793334 1.501 160 168 143 255
-0.37322775 -0.13790812 1.5000001 123 132 103 255
-0.36915493 -0.13791929 1.5000001 121 130 99 255
-0.36556822 -0.13811435 1.5020001 120 129 98 255
-0.36172929 -0.13821746 1.503 123 132 101 255
-0.3574084 -0.13813668 1.5020001 117 126 95 255
-0.35356268 -0.13823982 1.503 124 133 104 255
-0.34947833 -0.13825096 1.503 127 134 105 255
-0.34585291 -0.13844608 1.5050001 128 135 106 255
-0.34198877 -0.13854922 1.506 126 133 102 255
-0.33811852 -0.13865234 1.5070001 126 135 104 255
-0.33402041 -0.13866343 1.5070001 126 135 104 255
-0.32992157 -0.1386745 1.5070001 129 138 107 255
-0.32582203 -0.13868552 1.5070001 129 138 107 255
-0.32172173 -0.13869652 1.5070001 127 136 107 255
-0.3178314 -0.1387995 1.508 130 139 108 255
-0.31414297 -0.13899451 1.5100001 133 140 109 255
-0.31064823 -0.13928159 1.5130001 131 138 107 255
-0.30673116 -0.13938448 1.5140001 131 138 106 255
-0.30300772 -0.13957942 1.516 130 136 101 255
-0.29927269 -0.13977434 1.5180001 128 134 99 255
-0.29572034 -0.14006129 1.521 125 131 96 255
-0.29234263 -0.14044032 1.5250001 115 120 88 255
-0.28913125 -0.14091143 1.5300001 118 123 91 255
-0.2860781 -0.14147462 1.536 126 131 100 255
-0.28354207 -0.14231421 1.5450001 124 131 100 255
-0.28167927 -0.14352228 1.5580001 128 135 104 255
-0.2799229 -0.14482257 1.572 126 133 104 255
-0.27808931 -0.14612298 1.5860001 76 84 58 255
-0.27566072 -0.14714704 1.5970001 54 62 37 255
-0.27249178 -0.14780258 1.6040001 48 57 38 255
-0.26861516 -0.14808948 1.6070001 49 58 39 255
-0.26439255 -0.14819203 1.608 51 61 44 255
-0.25984025 -0.14811014 1.6070001 51 61 46 255
-0.25545159 -0.14812028 1.6070001 67 74 62 255
-0.25074968 -0.14794599 1.605 61 68 56 255
-0.24605791 -0.14777152 1.603 54 59 47 255
-0.24137625 -0.14759693 1.6010001 46 51 39 255
-0.23685281 -0.14751439 1.6 47 52 40 255
-0.23189819 -0.14715511 1.5960001 60 67 55 255
-0.22710718 -0.14688784 1.5930001 61 68 57 255
-0.22233185 -0.14662042 1.59 53 62 51 255
-0.21784641 -0.14653729 1.5890001 66 75 64 255
-0.21323135 -0.14636178 1.5870001 58 67 56 255
-0.20875809 -0.14627834 1.5860001 57 64 53 255
-0.20441848 -0.14628696 1.5860001 61 68 57 255
-0.20020431 -0.14638771 1.5870001 63 70 59 255
-0.19573714 -0.14630382 1.5860001 60 67 56 255
-0.19127476 -0.14621979 1.585 60 67 56 255
-0.18681718 -0.1461356 1.5840001 58 65 54 255
-0.18259481 -0.14623573 1.585 55 60 48 255
-0.1787037 -0.14661257 1.5890001 55 60 48 255
-0.17435111 -0.14662018 1.5890001 58 63 51 255
-0.17010489 -0.14671992 1.59 59 64 52 255
-0.16553983 -0.14654265 1.5880001 63 68 57 255
-0.16128963 -0.14664209 1.5890001 66 71 60 255
-0.15673706 -0.14646447 1.5870001 67 74 63 255
-0.1523869 -0.14647125 1.5870001 67 74 63 255
-0.14803617 -0.14647786 1.5870001 64 71 60 255
-0.14359434 -0.14639202 1.5860001 62 68 60 255
-0.13924526 -0.14639829 1.5860001 69 77 69 255
-0.13472553 -0.14621979 1.5840001 67 75 67 255
-0.13038085 -0.14622571 1.5840001 67 76 65 255
-0.12603569 -0.14623144 1.5840001 66 73 62 255
-0.12169002 -0.146237 1.5840001 52 61 49 255
-0.11741797 -0.14633469 1.585 60 67 55 255
-0.11299729 -0.14624758 1.5840001 65 70 58 255
-0.10865025 -0.1462526 1.5840001 56 61 49 255
-0.10423692 -0.14616509 1.5830001 66 71 59 255
-0.099891789 -0.14616974 1.5830001 61 68 57 255
-0.095485881 -0.14608185 1.582 70 77 66 255
-0.091142692 -0.1460861 1.582 69 75 67 255
-0.086854018 -0.14618251 1.5830001 66 72 65 255
-0.082611613 -0.14637108 1.585 50 56 49 255
-0.07820978 -0.14628243 1.5840001 67 73 65 255
-0.073813111 -0.14619358 1.5830001 79 86 75 255
-0.069333874 -0.14591981 1.58 81 88 76 255
-0.064953104 -0.14583057 1.5790001 81 86 74 255
-0.060615949 -0.14583348 1.5790001 69 74 62 255
-0.056242898 -0.14574382 1.5780001 59 64 52 255
-0.051875114 -0.14565395 1.577 61 66 54 255
-0.047542755 -0.14565626 1.577 56 61 49 255
-0.043265004 -0.14584309 1.5790001 56 63 51 255
-0.03892678 -0.145845 1.5790001 56 61 50 255
-0.034588393 -0.14584671 1.5790001 60 65 53 255
-0.030249864 -0.14584821 1.5790001 60 65 53 255
-0.02592762 -0.14594188 1.58 61 66 54 255
-0.021572445 -0.14585063 1.5790001 65 70 56 255
-0.017233592 -0.14585152 1.5790001 64 69 55 255
-0.012886503 -0.14575987 1.5780001 63 71 56 255
-0.0085556917 -0.14585274 1.5790001 65 72 60 255
-0.004216678 -0.14585304 1.5790001 70 77 66 255
0.00012235311 -0.14585313 1.5790001 64 70 62 255
0.0044585578 -0.14576064 1.5780001 68 74 67 255
0.0087892478 -0.14566797 1.577 75 81 74 255
0.013122727 -0.14566746 1.577 88 94 86 255
0.017434016 -0.145482 1.575 86 94 86 255
0.021692785 -0.14501925 1.5700001 82 90 82 255
0.025957117 -0.14474104 1.567 75 83 75 255
0.030262792 -0.14473972 1.567 68 74 66 255
0.03456834 -0.14473821 1.567 66 72 64 255
0.038873751 -0.1447365 1.567 59 66 55 255
0.043151446 -0.14464225 1.5660001 61 68 57 255
0.04748407 -0.14473251 1.567 60 67 56 255
0.051855035 -0.14491493 1.5690001 58 65 54 255
0.056236781 -0.14509714 1.5710001 56 65 54 255
0.060552198 -0.14509444 1.5710001 56 65 54 255
0.06486737 -0.14509153 1.5710001 58 64 56 255
0.069226302 -0.14518079 1.572 59 65 57 255
0.073543675 -0.14517751 1.572 60 67 56 255
0.077860743 -0.14517404 1.572 63 69 61 255
0.082072943 -0.14498566 1.5700001 64 70 62 255
0.086383872 -0.1449818 1.5700001 68 75 64 255
0.090636685 -0.14488542 1.5690001 68 75 64 255
0.094944149 -0.14488117 1.5690001 68 75 64 255
0.099124715 -0.14469208 1.567 69 76 65 255
0.10342593 -0.14468747 1.567 75 81 73 255
0.10758922 -0.14449804 1.5650001 78 84 77 255
0.11174112 -0.1443084 1.5630001 80 86 79 255
0.11580735 -0.14402629 1.5600001 80 86 79 255
0.12001063 -0.14392865 1.559 82 88 81 255
0.12428767 -0.14392316 1.559 78 84 77 255
0.12872918 -0.14410214 1.5610001 70 76 68 255
0.13301072 -0.1440963 1.5610001 66 74 66 255
0.13729176 -0.14409029 1.5610001 69 77 70 255
0.1412095 -0.14371489 1.557 88 96 89 255
0.14510475 -0.14333937 1.5530001 83 91 84 255
0.14916991 -0.14314829 1.5510001 75 83 76 255
0.15342136 -0.14314164 1.5510001 67 75 68 255
0.15797718 -0.14341168 1.554 64 70 63 255
0.16234009 -0.14349698 1.5550001 65 71 63 255
0.16649358 -0.14339754 1.554 65 71 63 255
0.17042124 -0.14311343 1.5510001 61 67 59 255
0.17421921 -0.14273693 1.5470001 64 73 62 255
0.17845607 -0.14272936 1.5470001 64 72 65 255
0.18257418 -0.14262937 1.5460001 74 82 75 255
0.18668619 -0.14252926 1.5450001 87 95 88 255
0.19066846 -0.14233676 1.5430001 85 93 86 255
0.19476543 -0.14223638 1.5420001 75 81 74 255
0.19898532 -0.14222811 1.5420001 69 75 68 255
0.20359981 -0.14249636 1.5450001 68 74 66 255
0.20809555 -0.14267227 1.5470001 63 70 59 255
0.21246424 -0.14275579 1.5480001 59 66 55 255
0.21641774 -0.14256251 1.5460001 58 65 53 255
0.22035955 -0.14236912 1.544 60 67 55 255
0.22458062 -0.14236005 1.544 63 70 59 255
0.22850458 -0.14216647 1.5420001 77 84 73 255
0.23286963 -0.14224935 1.5430001 83 89 81 255
0.23693208 -0.14214775 1.5420001 68 74 66 255
0.24098834 -0.14204605 1.5410001 51 57 49 255
0.24487926 -0.14185205 1.539 48 54 46 255
0.24875848 -0.14165801 1.5370001 49 57 49 255
0.252626 -0.14146385 1.5350001 88 96 88 255
0.25664914 -0.14136177 1.534 70 78 71 255
0.26066604 -0.14125963 1.5330001 59 67 60 255
0.26484951 -0.14124954 1.5330001 77 83 76 255
0.26920766 -0.14133148 1.534 81 87 80 255
0.27374873 -0.14150544 1.536 73 79 71 255
0.27775708 -0.14140293 1.5350001 68 74 66 255
0.28139183 -0.14111613 1.5320001 71 77 69 255
0.28538224 -0.14101352 1.531 70 78 70 255
0.28936642 -0.14091082 1.5300001 68 76 68 255
0.29353625 -0.14090018 1.5300001 72 78 71 255
0.29731613 -0.14070529 1.5280001 69 75 68 255
0.30108425 -0.14051032 1.526 75 81 74 255
0.30464077 -0.14022329 1.5230001 84 90 83 255
0.30899113 -0.14030449 1.524 77 83 76 255
0.31355166 -0.14047769 1.526 70 76 69 255
0.31812233 -0.14065078 1.5280001 71 77 70 255
0.32185942 -0.14045565 1.526 70 76 69 255
0.3255848 -0.14026047 1.524 73 79 71 255
0.33016407 -0.14043342 1.526 69 76 65 255
0.3349725 -0.14069831 1.529 70 77 66 255
0.33935294 -0.14077909 1.5300001 71 76 65 255
0.34351352 -0.14076783 1.5300001 70 74 66 255
0.34699166 -0.14048055 1.5270001 68 74 67 255
0.35068274 -0.14028527 1.5250001 68 74 67 255
0.35459489 -0.14018197 1.524 73 79 72 255
0.35850084 -0.14007869 1.5230001 74 80 73 255
0.36216253 -0.13988343 1.521 76 82 75 255
0.36629438 -0.13987212 1.521 73 81 74 255
0.37066907 -0.13995276 1.5220001 73 81 74 255
0.37504852 -0.14003341 1.5230001 74 82 75 255
0.37893477 -0.13993013 1.5220001 73 79 72 255
0.38306665 -0.13991882 1.5220001 68 74 67 255
0.38719779 -0.13990751 1.5220001 70 76 69 255
0.39132842 -0.13989623 1.5220001 68 76 69 255
0.39519858 -0.13979304 1.521 68 76 69 255
0.39853758 -0.13950612 1.5180001 69 77 70 255
0.40239024 -0.13940303 1.5170001 72 80 72 255
0.40623689 -0.13929999 1.516 70 76 68 255
0.41088963 -0.13947265 1.5180001 71 79 71 255
0.41473246 -0.13936968 1.5170001 68 76 68 255
0.41829327 -0.13917494 1.5150001 76 84 77 255
0.42156389 -0.13888837 1.5120001 79 87 80 255
0.4253808 -0.13878563 1.511 74 82 75 255
0.42947599 -0.1387748 1.511 73 79 72 255
0.43357083 -0.13876401 1.511 74 80 73 255
0.43795481 -0.13884515 1.5120001 73 81 74 255
0.44146675 -0.13865085 1.5100001 74 82 75 255
0.44585261 -0.13873208 1.511 71 79 72 255
0.44964799 -0.13862978 1.5100001 69 77 70 255
0.45463955 -0.13889478 1.5130001 69 77 69 255
0.4587374 -0.13888444 1.5130001 70 78 70 255
0.46344677 -0.13905776 1.5150001 71 78 67 255
0.46816668 -0.13923115 1.5170001 72 79 68 255
0.47320843 -0.13949639 1.5200001 72 79 68 255
0.47983637 -0.14022052 1.5280001 72 79 67 255
0.48650736 -0.14094464 1.536 74 79 67 255
0.49130481 -0.14111827 1.5380001 59 64 52 255
0.49418005 -0.1407415 1.534 56 61 49 255
0.49735829 -0.14045665 1.531 57 62 50 255
0.5011754 -0.14035542 1.5300001 54 61 49 255
0.50531727 -0.14034608 1.5300001 55 62 50 255
0.50945896 -0.14033686 1.5300001 55 62 50 255
0.51259363 -0.14005263 1.5270001 55 62 50 255
0.51571202 -0.13976859 1.524 53 60 48 255
0.51949644 -0.13966814 1.5230001 56 63 52 255
0.52327549 -0.13956785 1.5220001 57 65 57 255
0.52566314 -0.13910095 1.5170001 74 82 74 255
0.52767462 -0.13854259 1.511 78 86 79 255
0.53106153 -0.1383512 1.5090001 73 81 74 255
0.53550166 -0.13843504 1.5100001 71 77 69 255
0.53994745 -0.13851902 1.511 68 74 66 255
0.54367882 -0.13841988 1.5100001 65 71 63 255
0.54704225 -0.13822924 1.508 66 72 64 255
0.54966432 -0.1378555 1.5040001 84 90 82 255
0.55300134 -0.1376653 1.5020001 88 94 86 255
0.55744064 -0.13775025 1.503 82 88 80 255
0.56300658 -0.13811037 1.5070001 68 75 64 255
0.56746578 -0.13819571 1.508 65 72 61 255
0.57079387 -0.13800637 1.506 48 55 44 255
0.57334816 -0.13763398 1.5020001 55 62 51 255
0.57703471 -0.13753673 1.501 62 70 62 255
0.58265221 -0.13789788 1.5050001 68 74 67 255
0.58868194 -0.13835083 1.5100001 70 76 68 255
0.59316915 -0.13843751 1.511 63 70 59 255
0.5960815 -0.13815796 1.508 48 53 42 255
0.6001724 -0.13815354 1.508 70 75 64 255
0.60426408 -0.13814937 1.508 70 77 66 255
0.60835671 -0.13814545 1.508 69 75 67 255
0.6124503 -0.13814181 1.508 68 72 64 255
0.61613601 -0.13804683 1.5070001 71 76 65 255
0.62022901 -0.13804375 1.5070001 11 16 5 255
0.62390864 -0.13794932 1.506 18 20 10 255
0.62633306 -0.13758041 1.5020001 17 19 9 255
-0.95604938 -0.16066705 1.6980001 20 24 7 255
-0.96022278 -0.16215567 1.7140001 23 26 12 255
-0.95706546 -0.16241486 1.7170001 33 34 20 255
-0.95888841 -0.16352594 1.7290001 28 29 15 255
-0.95347643 -0.16340807 1.728 25 26 14 255
-0.92995954 -0.16017075 1.6940001 38 39 27 255
-0.92575473 -0.1602439 1.6950001 35 38 26 255
-0.92317975 -0.16060129 1.6990001 22 25 13 255
-0.88624918 -0.15574211 1.6480001 16 19 7 255
-0.92654294 -0.16449323 1.7410001 15 17 7 255
-0.90633816 -0.1617357 1.7120001 18 18 8 255
-0.89156544 -0.15992402 1.6930001 16 18 8 255
-0.89314216 -0.16104136 1.705 20 20 10 255
-0.8915301 -0.16159244 1.7110001 20 20 10 255
-0.87278563 -0.1590277 1.6840001 19 19 9 255
-0.86192799 -0.15788041 1.6720001 18 18 8 255
-0.86447197 -0.15918881 1.6860001 20 20 10 255
-0.8531732 -0.15794845 1.6730001 19 19 9 255
-0.86375982 -0.16076823 1.7030001 20 20 10 255
-0.89234394 -0.16698638 1.7690001 15 17 7 255
-0.84832656 -0.15961218 1.6910001 14 16 6 255
-0.86112022 -0.1629048 1.7260001 15 17 7 255
-0.84864098 -0.16231826 1.72 15 17 7 255
-0.83016533 -0.15966672 1.692 20 21 9 255
-0.79574668 -0.15390208 1.631 20 20 10 255
-0.74565458 -0.15008411 1.5910001 237 244 233 255
-0.73244417 -0.14828742 1.572 178 185 173 255
-0.72443527 -0.14752886 1.5640001 142 153 134 255
-0.72061652 -0.14761968 1.5650001 155 164 143 255
-0.71542138 -0.14742795 1.5630001 155 163 138 255
-0.71114928 -0.14742526 1.5630001 158 166 141 255
-0.70416558 -0.14685704 1.557 151 159 134 255
-0.69766635 -0.14638357 1.552 198 208 183 255
-0.69074947 -0.14581616 1.5460001 145 155 130 255
-0.68564337 -0.1456264 1.544 134 142 116 255
-0.68143284 -0.14562565 1.544 125 132 103 255
-0.67766249 -0.14571959 1.5450001 126 131 100 255
-0.67345262 -0.14571956 1.5450001 128 133 102 255
-0.67054373 -0.14600283 1.5480001 131 136 105 255
-0.66632879 -0.1460035 1.5480001 139 146 117 255
-0.66083211 -0.14572154 1.5450001 173 182 153 255
-0.65450329 -0.14525129 1.5400001 131 142 113 255
-0.64946985 -0.14506432 1.5380001 140 150 124 255
-0.64528775 -0.14506629 1.5380001 135 143 117 255
-0.64069003 -0.14497425 1.5370001 133 142 113 255
-0.63651311 -0.14497684 1.5370001 136 144 119 255
-0.63233745 -0.14497975 1.5370001 137 145 120 255
-0.62857157 -0.14507727 1.5380001 134 142 117 255
-0.62398928 -0.14498642 1.5370001 136 143 121 255
-0.61981672 -0.14499018 1.5370001 147 156 135 255
-0.61484408 -0.14480558 1.5350001 153 163 140 255
-0.60948539 -0.14452687 1.5320001 154 166 141 255
-0.60532916 -0.14453144 1.5320001 157 170 143 255
-0.60117382 -0.14453629 1.5320001 158 168 142 255
-0.5981884 -0.14482445 1.5350001 167 177 151 255
-0.59286541 -0.14454675 1.5320001 166 176 150 255
-0.58871228 -0.14455232 1.5320001 148 158 133 255
-0.58341503 -0.14427508 1.529 141 151 126 255
-0.57927138 -0.14428116 1.529 141 151 126 255
-0.57475203 -0.1441931 1.5280001 146 156 131 255
-0.57023865 -0.14410523 1.5270001 141 151 126 255
-0.56536043 -0.14392321 1.5250001 145 155 129 255
-0.56049353 -0.14374138 1.5230001 142 155 128 255
-0.55600303 -0.14365411 1.5220001 148 158 132 255
-0.55224377 -0.14375584 1.5230001 144 154 128 255
-0.5484792 -0.14385776 1.524 144 154 129 255
-0.54435241 -0.1438655 1.524 147 155 130 255
-0.53987151 -0.14377902 1.5230001 148 155 133 255
-0.5353961 -0.1436927 1.5220001 148 158 135 255
-0.53127545 -0.14370097 1.5220001 147 157 134 255
-0.52680856 -0.14361499 1.521 141 151 128 255
-0.52269083 -0.14362361 1.521 130 140 115 255
-0.51823235 -0.14353795 1.5200001 130 140 114 255
-0.51377928 -0.14345245 1.5190001 135 146 117 255
-0.50933164 -0.14336707 1.5180001 138 147 116 255
-0.50555509 -0.14347073 1.5190001 139 148 117 255
-0.50144297 -0.14348009 1.5190001 141 150 119 255
-0.49765822 -0.14358407 1.5200001 142 149 118 255
-0.49321854 -0.14349924 1.5190001 149 158 127 255
-0.48846212 -0.14332007 1.5170001 145 154 123 255
-0.48467436 -0.14342444 1.5180001 144 153 122 255
-0.48024783 -0.14333996 1.5170001 143 150 119 255
-0.47614035 -0.14335006 1.5170001 142 151 122 255
-0.47203264 -0.14336029 1.5170001 142 152 126 255
-0.46792465 -0.14337063 1.5170001 152 162 137 255
-0.46412227 -0.14347559 1.5180001 153 163 140 255
-0.45940495 -0.14329708 1.516 148 158 135 255
-0.45559925 -0.14340222 1.5170001 144 154 129 255
-0.45089483 -0.14322387 1.5150001 138 148 122 255
-0.4464958 -0.14314011 1.5140001 137 146 117 255
-0.44210193 -0.14305642 1.5130001 136 145 114 255
-0.43771297 -0.14297278 1.5120001 131 140 109 255
-0.43361574 -0.14298376 1.5120001 130 139 108 255
-0.42951822 -0.14299481 1.5120001 127 136 105 255
-0.42626423 -0.14328967 1.5150001 125 134 103 255
-0.42271495 -0.14349005 1.5170001 130 139 108 255
-0.41887835 -0.14359592 1.5180001 132 141 110 255
-0.41476253 -0.14360723 1.5180001 132 141 110 255
-0.41037574 -0.14352398 1.5170001 134 143 112 255
-0.40599376 -0.14344074 1.516 133 141 115 255
-0.40135163 -0.14326292 1.5140001 142 150 124 255
-0.39619496 -0.14289583 1.5100001 144 153 124 255
-0.39079973 -0.14243406 1.5050001 127 135 109 255
-0.38620195 -0.14225619 1.503 124 133 104 255
-0.3818686 -0.14217296 1.5020001 122 129 98 255
-0.37854621 -0.14246839 1.5050001 133 142 111 255
-0.37446052 -0.14247987 1.5050001 141 150 119 255
-0.37037405 -0.14249133 1.5050001 142 151 120 255
-0.36628705 -0.14250283 1.5050001 132 141 112 255
-0.36243999 -0.14260899 1.506 129 138 109 255
-0.35811093 -0.14252576 1.5050001 129 138 109 255
-0.35378662 -0.14244251 1.5040001 127 136 107 255
-0.34946707 -0.14235926 1.503 126 133 102 255
-0.34584162 -0.14256012 1.5050001 126 133 102 255
-0.3422046 -0.14276101 1.5070001 127 134 103 255
-0.33855596 -0.14296187 1.5090001 128 135 104 255
-0.33467409 -0.14306803 1.5100001 127 136 105 255
-0.33056715 -0.1430794 1.5100001 132 141 112 255
-0.3264595 -0.14309074 1.5100001 127 136 105 255
-0.32256451 -0.14319679 1.511 129 138 109 255
-0.31887412 -0.1433976 1.5130001 132 141 110 255
-0.31538013 -0.14369319 1.516 131 138 106 255
-0.31207439 -0.14408357 1.5200001 127 134 103 255
-0.30854347 -0.14437914 1.5230001 124 131 100 255
-0.30559504 -0.14495911 1.529 113 120 88 255
-0.30241606 -0.14544432 1.534 124 129 97 255
-0.299209 -0.14592952 1.539 126 136 91 255
-0.29616567 -0.14650954 1.5450001 132 139 107 255
-0.29422262 -0.1476586 1.557 135 140 109 255
-0.29314461 -0.14928198 1.5740001 133 140 111 255
-0.29160604 -0.1507158 1.5890001 39 47 22 255
-0.28908092 -0.15167548 1.5990001 61 68 46 255
-0.28578818 -0.15225573 1.605 62 69 47 255
-0.28228661 -0.15274113 1.6100001 61 68 47 255
-0.2782391 -0.15294185 1.6120001 61 70 51 255
-0.27400997 -0.15304761 1.613 62 71 52 255
-0.26960751 -0.15305841 1.613 51 59 42 255
-0.26503977 -0.15297419 1.6120001 62 70 55 255
-0.26047665 -0.15288985 1.6110001 58 65 53 255
-0.25591823 -0.15280539 1.6100001 72 79 68 255
-0.25120825 -0.15262589 1.608 76 83 71 255
-0.24650843 -0.15244624 1.6060001 61 68 56 255
-0.24166794 -0.15217152 1.603 50 55 43 255
-0.23713918 -0.1520865 1.6020001 48 53 39 255
-0.2323245 -0.15181145 1.5990001 41 48 36 255
-0.22781059 -0.15172614 1.598 71 78 67 255
-0.2228819 -0.15135582 1.5940001 66 75 64 255
-0.21824858 -0.15117525 1.5920001 73 81 73 255
-0.21362542 -0.15099449 1.59 68 77 66 255
-0.20901248 -0.15081359 1.5880001 66 75 64 255
-0.20453869 -0.1507275 1.5870001 65 72 61 255
-0.20006961 -0.15064125 1.5860001 70 76 68 255
-0.19572876 -0.15064983 1.5860001 63 70 59 255
-0.19126654 -0.15056325 1.585 61 68 57 255
-0.18692702 -0.15057151 1.585 61 68 57 255
-0.18270208 -0.15067463 1.5860001 59 64 53 255
-0.17869589 -0.15096761 1.5890001 57 62 50 255
-0.17445318 -0.15107043 1.59 57 62 50 255
-0.17020439 -0.15117311 1.5910001 60 65 53 255
-0.16584526 -0.15118061 1.5910001 62 67 56 255
-0.16158697 -0.15128297 1.5920001 62 67 56 255
-0.15712512 -0.15119509 1.5910001 62 68 60 255
-0.15276419 -0.1512021 1.5910001 68 74 66 255
-0.14830936 -0.15111385 1.59 67 74 63 255
-0.14395003 -0.15112048 1.59 62 68 60 255
-0.13959014 -0.15112695 1.59 73 79 71 255
-0.13514468 -0.15103817 1.5890001 65 73 65 255
-0.13062187 -0.15085417 1.5870001 64 70 62 255
-0.12626866 -0.15086007 1.5870001 67 74 63 255
-0.12191494 -0.15086579 1.5870001 58 65 54 255
-0.11763483 -0.15096638 1.5880001 65 72 60 255
-0.11327744 -0.15097173 1.5880001 76 81 69 255
-0.10891961 -0.15097688 1.5880001 64 69 57 255
-0.10456135 -0.15098187 1.5880001 68 73 61 255
-0.10020266 -0.15098664 1.5880001 70 75 64 255
-0.095843591 -0.15099122 1.5880001 71 78 67 255
-0.091484144 -0.15099563 1.5880001 65 71 63 255
-0.08712431 -0.15099981 1.5880001 64 70 63 255
-0.082764141 -0.15100381 1.5880001 71 77 69 255
-0.078452997 -0.15110271 1.5890001 63 69 61 255
-0.074089423 -0.1511063 1.5890001 62 69 58 255
-0.069681674 -0.1510146 1.5880001 67 74 63 255
-0.065237999 -0.1508276 1.5860001 71 78 66 255
-0.060805041 -0.1506404 1.5840001 85 90 78 255
-0.05641846 -0.15054807 1.5830001 78 85 73 255
-0.051971357 -0.15026534 1.58 66 73 62 255
-0.047570668 -0.15007749 1.5780001 63 70 58 255
-0.04326297 -0.15017477 1.5790001 57 64 52 255
-0.038974248 -0.15036695 1.5810001 60 65 53 255
-0.034630571 -0.15036871 1.5810001 59 64 52 255
-0.03028675 -0.15037026 1.5810001 58 63 51 255
-0.025942804 -0.1503716 1.5810001 58 63 51 255
-0.021598751 -0.15037273 1.5810001 62 67 53 255
-0.017254608 -0.15037367 1.5810001 65 70 56 255
-0.012910391 -0.15037438 1.5810001 66 71 57 255
-0.0085715409 -0.15047 1.582 66 73 61 255
-0.0042218193 -0.1503752 1.5810001 68 75 64 255
0.00012242481 -0.15028018 1.58 72 78 70 255
0.0044639977 -0.15028006 1.58 68 74 67 255
0.0088111255 -0.15037487 1.5810001 68 74 67 255
0.013172033 -0.15056457 1.5830001 65 71 63 255
0.017510671 -0.15046871 1.582 65 71 63 255
0.02181611 -0.15018246 1.5790001 72 80 72 255
0.026104968 -0.14989598 1.5760001 85 91 83 255
0.030415857 -0.1497995 1.575 83 89 81 255
0.034699071 -0.14960773 1.5730001 73 79 71 255
0.038995951 -0.14951086 1.572 71 77 69 255
0.043232076 -0.14922358 1.5690001 66 73 62 255
0.047512136 -0.14912631 1.5680001 65 72 61 255
0.051852603 -0.14921905 1.5690001 63 70 59 255
0.056234147 -0.14940667 1.5710001 58 67 56 255
0.06054936 -0.1494039 1.5710001 60 66 58 255
0.06486433 -0.14940093 1.5710001 60 66 58 255
0.069223069 -0.14949286 1.572 59 65 57 255
0.073587023 -0.14958458 1.5730001 59 66 55 255
0.077857122 -0.14948592 1.572 61 67 59 255
0.082069129 -0.14929196 1.5700001 66 73 62 255
0.086434878 -0.14938308 1.5710001 65 70 59 255
0.090748012 -0.14937893 1.5710001 69 74 63 255
0.095060781 -0.14937457 1.5710001 71 76 65 255
0.099309914 -0.14927496 1.5700001 70 76 68 255
0.10355317 -0.14917514 1.5690001 71 77 69 255
0.10772176 -0.14898007 1.567 76 82 75 255
0.1118075 -0.14868976 1.5640001 81 87 80 255
0.11595052 -0.14849433 1.562 82 88 81 255
0.1202361 -0.14848889 1.562 82 88 81 255
0.12468065 -0.14867339 1.5640001 72 78 71 255
0.12913565 -0.14885764 1.5660001 68 74 66 255
0.13343073 -0.14885165 1.5660001 66 74 67 255
0.13754942 -0.14865534 1.5640001 68 76 69 255
0.14156593 -0.14836386 1.5610001 77 85 78 255
0.14556542 -0.1480722 1.5580001 91 99 92 255
0.14945176 -0.14768538 1.554 80 88 81 255
0.15361235 -0.14758351 1.5530001 76 84 77 255
0.15797019 -0.14767154 1.554 67 75 68 255
0.16233291 -0.14775941 1.5550001 64 72 65 255
0.16637914 -0.14756204 1.5530001 65 71 63 255
0.17041378 -0.14736451 1.5510001 62 68 60 255
0.17443685 -0.14716686 1.549 63 72 61 255
0.17856367 -0.14706407 1.5480001 59 67 59 255
0.18268439 -0.14696115 1.5470001 73 81 74 255
0.18655732 -0.14666809 1.544 88 96 89 255
0.19078386 -0.14665988 1.544 84 92 85 255
0.19488345 -0.14655656 1.5430001 74 80 73 255
0.19923492 -0.14664301 1.544 68 74 67 255
0.20372298 -0.14682433 1.5460001 66 72 64 255
0.2083558 -0.14710042 1.549 64 70 62 255
0.21272983 -0.14718644 1.5500001 58 65 54 255
0.21682866 -0.1470824 1.549 56 63 52 255
0.22063585 -0.14678836 1.5460001 58 65 54 255
0.22471684 -0.1466841 1.5450001 59 66 55 255
0.2286434 -0.14648478 1.5430001 77 84 73 255
0.23270923 -0.14638029 1.5420001 82 88 80 255
0.2369225 -0.14637062 1.5420001 65 71 63 255
0.24082226 -0.14617102 1.5400001 56 63 52 255
0.24471034 -0.14597131 1.5380001 46 53 42 255
0.24858673 -0.14577152 1.536 53 61 53 255
0.25278056 -0.14576145 1.536 88 96 88 255
0.25680634 -0.14565638 1.5350001 70 78 71 255
0.26065591 -0.14545634 1.5330001 58 66 59 255
0.26466647 -0.14535108 1.5320001 68 74 67 255
0.26884633 -0.14534064 1.5320001 80 86 78 255
0.27356005 -0.1456147 1.5350001 73 79 71 255
0.27756557 -0.14550918 1.534 70 76 68 255
0.28138125 -0.14530878 1.5320001 71 77 69 255
0.28518516 -0.1451083 1.5300001 71 79 72 255
0.28916654 -0.14500259 1.529 71 79 72 255
0.29333353 -0.14499168 1.529 71 77 70 255
0.29730523 -0.14488585 1.5280001 69 75 67 255
0.30127063 -0.14477998 1.5270001 71 77 69 255
0.30502984 -0.14457928 1.5250001 83 89 82 255
0.30918285 -0.14456812 1.5250001 79 85 78 255
0.31354055 -0.14465168 1.526 71 77 70 255
0.31790295 -0.14473519 1.5270001 71 77 70 255
0.32163727 -0.14453429 1.5250001 70 76 69 255
0.32578722 -0.14452294 1.5250001 73 79 72 255
0.33058551 -0.14479581 1.5280001 71 77 69 255
0.33518022 -0.14497384 1.5300001 70 76 68 255
0.33956331 -0.14505705 1.531 69 75 67 255
0.3430531 -0.14476129 1.5280001 68 74 66 255
0.34652576 -0.14446552 1.5250001 70 76 69 255
0.35044137 -0.14435923 1.524 73 79 72 255
0.35435075 -0.14425293 1.5230001 73 79 72 255
0.35825399 -0.14414664 1.5220001 76 84 77 255
0.36191303 -0.14394565 1.5200001 74 82 75 255
0.36604214 -0.14393406 1.5200001 72 80 72 255
0.37041405 -0.14401713 1.521 70 78 70 255
0.37479079 -0.14410022 1.5220001 73 79 72 255
0.37867433 -0.14399394 1.521 71 77 70 255
0.38305518 -0.14407702 1.5220001 71 77 70 255
0.38718638 -0.14406542 1.5220001 66 74 67 255
0.39131704 -0.14405386 1.5220001 71 79 72 255
0.39492735 -0.14385302 1.5200001 67 75 68 255
0.39852628 -0.14365226 1.5180001 69 77 70 255
0.40211371 -0.14345153 1.516 72 80 73 255
0.40622562 -0.1434401 1.516 71 79 72 255
0.41060773 -0.14352334 1.5170001 72 80 73 255
0.4144479 -0.14341736 1.516 68 76 68 255
0.418006 -0.14321688 1.5140001 78 84 77 255
0.42155284 -0.14301647 1.5120001 76 82 75 255
0.42593282 -0.14309989 1.5130001 72 78 71 255
0.43003353 -0.14308877 1.5130001 71 77 70 255
0.43413386 -0.14307772 1.5130001 72 78 71 255
0.43823361 -0.14306672 1.5130001 77 83 76 255
0.44174832 -0.14286669 1.511 77 85 78 255
0.44613701 -0.14295042 1.5120001 72 80 72 255
0.45023295 -0.14293964 1.5120001 73 79 71 255
0.45522994 -0.14321256 1.5150001 73 80 69 255
0.45963648 -0.14329648 1.516 73 80 69 255
0.46465996 -0.1435695 1.5190001 71 78 67 255
0.46939081 -0.14374807 1.521 71 78 67 255
0.47475481 -0.14411573 1.5250001 74 81 70 255
0.48108229 -0.14476691 1.5320001 75 80 69 255
0.48618057 -0.14504018 1.5350001 71 76 65 255
0.49033654 -0.14503007 1.5350001 56 61 49 255
0.49320379 -0.14464216 1.531 55 60 48 255
0.49702379 -0.14453785 1.5300001 58 66 51 255
0.50083828 -0.14443369 1.529 56 63 51 255
0.50530785 -0.14451858 1.5300001 57 64 52 255
0.50911671 -0.14441471 1.529 53 60 48 255
0.51258451 -0.14421655 1.5270001 53 60 48 255
0.51570308 -0.14392413 1.524 51 58 47 255
0.51982874 -0.14391518 1.524 54 63 52 255
0.52292311 -0.14362313 1.521 55 63 56 255
0.52530819 -0.14314242 1.516 77 85 78 255
0.52766645 -0.14266194 1.511 75 83 76 255
0.53175735 -0.14265373 1.511 71 79 71 255
0.53655773 -0.14283453 1.5130001 70 76 68 255
0.54029715 -0.14273226 1.5120001 63 69 61 255
0.54403132 -0.1426302 1.511 63 69 61 255
0.54739773 -0.14243396 1.5090001 62 68 60 255
0.55075359 -0.14223793 1.5070001 78 86 79 255
0.55336267 -0.14185336 1.503 86 94 87 255
0.55669218 -0.1416578 1.501 90 98 91 255
0.56150573 -0.14183994 1.503 71 79 71 255
0.56670696 -0.14211665 1.506 69 75 67 255
0.57040876 -0.1420161 1.5050001 51 58 47 255
0.57296067 -0.14163272 1.501 55 64 53 255
0.57702917 -0.14162701 1.501 64 71 60 255
0.5838083 -0.14228199 1.508 73 79 71 255
0.5894565 -0.14265414 1.5120001 75 82 71 255
0.59316432 -0.14255477 1.511 51 56 45 255
0.59607691 -0.14226699 1.508 44 49 37 255
0.60016805 -0.1422625 1.508 65 70 58 255
0.60426009 -0.14225827 1.508 70 75 63 255
0.60794955 -0.14215998 1.5070001 72 77 66 255
0.61163449 -0.14206196 1.506 69 74 63 255
0.61572397 -0.14205857 1.506 77 80 68 255
0.6198144 -0.14205545 1.506 13 16 4 255
0.62307745 -0.14186399 1.5040001 19 19 9 255
0.62591368 -0.14157848 1.501 17 19 9 255
-0.96902555 -0.16755238 1.7210001 20 23 9 255
-0.98209739 -0.17064109 1.7530001 20 23 9 255
-0.99722445 -0.17411889 1.789 18 21 7 255
-0.96057624 -0.16854633 1.7320001 24 25 11 255
-0.94853371 -0.16725734 1.7190001 24 25 13 255
-0.90912032 -0.16110513 1.6560001 49 52 40 255
-0.93615359 -0.16672531 1.7140001 51 54 42 255
-0.90580559 -0.16545747 1.702 17 20 8 255
-0.91959095 -0.16884151 1.7370001 18 21 9 255
-0.90264142 -0.16658832 1.7140001 18 21 9 255
-0.89467216 -0.16684678 1.7170001 20 21 9 255
-0.87586099 -0.16506742 1.6990001 18 18 8 255
-0.8470664 -0.16134836 1.6610001 18 18 8 255
-0.85413539 -0.16356969 1.6840001 18 18 8 255
-0.75643885 -0.15665336 1.6140001 236 242 234 255
-0.73524398 -0.15315464 1.5780001 233 240 229 255
-0.72582853 -0.15208288 1.567 120 130 115 255
-0.72015953 -0.15178806 1.5640001 177 188 169 255
-0.71542436 -0.15168774 1.5630001 142 152 129 255
-0.71069676 -0.15158784 1.562 141 149 124 255
-0.70462 -0.15119722 1.5580001 151 159 134 255
-0.69946617 -0.15100113 1.5560001 145 153 128 255
-0.69343162 -0.15061133 1.552 205 215 190 255
-0.68742067 -0.1502219 1.5480001 146 156 131 255
-0.68275744 -0.15012401 1.5470001 116 125 96 255
-0.67766273 -0.14992945 1.5450001 119 126 95 255
-0.67388833 -0.1500264 1.5460001 122 128 93 255
-0.67011011 -0.15012367 1.5470001 122 126 91 255
-0.66675842 -0.15031837 1.549 127 132 101 255
-0.66254187 -0.15031934 1.549 148 153 122 255
-0.65662682 -0.14993247 1.5450001 167 175 149 255
-0.65115714 -0.14964296 1.5420001 144 152 127 255
-0.64654434 -0.14954787 1.5410001 139 149 124 255
-0.64193809 -0.1494531 1.5400001 142 152 127 255
-0.63775277 -0.14945571 1.5400001 138 148 123 255
-0.63233435 -0.14916745 1.5370001 138 148 123 255
-0.62815952 -0.14917068 1.5370001 129 137 112 255
-0.62357968 -0.14907713 1.536 142 149 127 255
-0.61940956 -0.14908093 1.536 148 155 133 255
-0.61483991 -0.14898796 1.5350001 153 160 138 255
-0.61067444 -0.14899233 1.5350001 136 146 123 255
-0.60690492 -0.14909405 1.536 143 153 128 255
-0.60273838 -0.14909895 1.536 149 159 134 255
-0.59896249 -0.14920123 1.5370001 161 171 146 255
-0.59402084 -0.14901252 1.5350001 156 168 145 255
-0.58985943 -0.14901823 1.5350001 154 165 144 255
-0.58455378 -0.1487329 1.5320001 154 165 144 255
-0.58002281 -0.14864199 1.531 153 164 145 255
-0.57549787 -0.14855132 1.5300001 148 159 138 255
-0.57097882 -0.14846087 1.529 146 157 136 255
-0.56646574 -0.14837062 1.5280001 143 155 132 255
-0.56195843 -0.14828059 1.5270001 148 160 137 255
-0.55745697 -0.14819075 1.526 140 152 129 255
-0.55332398 -0.14819826 1.526 145 157 134 255
-0.54919124 -0.14820595 1.526 139 149 126 255
-0.54541606 -0.14831097 1.5270001 137 147 124 255
-0.54092681 -0.14822194 1.526 142 149 127 255
-0.53644317 -0.1481331 1.5250001 139 147 122 255
-0.53266323 -0.1482387 1.526 146 156 131 255
-0.52853167 -0.14824735 1.526 152 162 137 255
-0.52440023 -0.14825615 1.526 152 164 139 255
-0.5199281 -0.148168 1.5250001 150 162 137 255
-0.51546133 -0.14807998 1.524 140 153 126 255
-0.51066452 -0.14789493 1.5220001 132 142 116 255
-0.50654417 -0.14790438 1.5220001 134 144 118 255
-0.50209361 -0.14781678 1.521 136 145 116 255
-0.49830332 -0.14792369 1.5220001 143 152 123 255
-0.49418277 -0.14793356 1.5220001 144 153 124 255
-0.4903841 -0.14804079 1.5230001 149 156 125 255
-0.48562208 -0.14785649 1.521 152 159 128 255
-0.48118737 -0.14776956 1.5200001 144 151 122 255
-0.47644392 -0.14758547 1.5180001 141 150 121 255
-0.47264454 -0.14769316 1.5190001 131 139 113 255
-0.46914789 -0.14789821 1.521 134 144 119 255
-0.46564034 -0.14810342 1.5230001 140 150 127 255
-0.46151549 -0.14811423 1.5230001 146 156 133 255
-0.45709005 -0.1480279 1.5220001 140 150 127 255
-0.45237201 -0.14784436 1.5200001 141 149 123 255
-0.44795942 -0.14775816 1.5190001 149 157 131 255
-0.44384402 -0.1477693 1.5190001 152 161 130 255
-0.43943882 -0.14768325 1.5180001 144 151 120 255
-0.43503851 -0.14759724 1.5170001 135 144 113 255
-0.43092737 -0.14760859 1.5170001 131 140 109 255
-0.42737839 -0.14781463 1.5190001 128 137 106 255
-0.42353955 -0.14792344 1.5200001 127 136 105 255
-0.41969463 -0.14803229 1.521 127 136 105 255
-0.4158439 -0.14814125 1.5220001 126 133 102 255
-0.41171676 -0.14815292 1.5220001 132 139 108 255
-0.4081246 -0.14835931 1.524 133 142 111 255
-0.40399092 -0.14837109 1.524 135 144 113 255
-0.39933181 -0.14818814 1.5220001 139 148 117 255
-0.39338481 -0.14751835 1.5150001 147 156 127 255
-0.38824594 -0.14714059 1.511 131 140 111 255
-0.38363668 -0.14695759 1.5090001 123 130 101 255
-0.38004369 -0.14716415 1.511 117 124 93 255
-0.37619048 -0.14727335 1.5120001 109 116 85 255
-0.3723312 -0.14738259 1.5130001 110 117 86 255
-0.36797902 -0.14729698 1.5120001 123 132 101 255
-0.364113 -0.14740622 1.5130001 141 150 121 255
-0.35952696 -0.14722317 1.511 145 153 127 255
-0.3554216 -0.14723496 1.511 136 144 118 255
-0.35108298 -0.14714928 1.5100001 127 135 109 255
-0.34720877 -0.14725849 1.511 124 132 106 255
-0.34355542 -0.14746518 1.5130001 128 136 110 255
-0.33989054 -0.14767186 1.5150001 132 141 112 255
-0.33599234 -0.14778104 1.516 132 141 112 255
-0.33230695 -0.14798774 1.5180001 130 138 112 255
-0.3288261 -0.14829189 1.521 128 137 108 255
-0.32554168 -0.14869356 1.5250001 120 129 98 255
-0.32265618 -0.14929026 1.531 118 127 98 255
-0.31973734 -0.14988704 1.5370001 122 131 102 255
-0.31719565 -0.1506789 1.5450001 130 137 108 255
-0.31400189 -0.15117821 1.5500001 130 137 108 255
-0.31137967 -0.15197016 1.5580001 137 144 115 255
-0.30930451 -0.15305483 1.5690001 71 75 49 255
-0.30736303 -0.15423715 1.5810001 13 15 0 255
-0.30535537 -0.15541954 1.5930001 17 19 1 255
-0.30347046 -0.15669964 1.6060001 14 18 1 255
-0.30151388 -0.15797983 1.6190001 17 20 6 255
-0.29783401 -0.15838188 1.623 49 55 38 255
-0.29304683 -0.15819831 1.6210001 71 78 66 255
-0.28791362 -0.15781944 1.6170001 72 79 67 255
-0.2833274 -0.15773322 1.6160001 65 74 62 255
-0.27891842 -0.1577445 1.6160001 61 70 58 255
-0.27433878 -0.15765807 1.6150001 64 74 59 255
-0.2699309 -0.15766914 1.6150001 54 62 47 255
-0.26519337 -0.15748483 1.613 63 70 59 255
-0.26062772 -0.15739806 1.6120001 61 68 57 255
-0.25638455 -0.15750641 1.613 75 81 73 255
-0.25182274 -0.15741937 1.6120001 78 84 76 255
-0.24711213 -0.15723452 1.6100001 76 82 74 255
-0.24195932 -0.15675651 1.605 60 67 55 255
-0.23757322 -0.15676668 1.605 45 52 40 255
-0.23275054 -0.15648369 1.6020001 40 47 36 255
-0.22822855 -0.1563959 1.6010001 75 82 71 255
-0.22329186 -0.15601489 1.5970001 68 76 68 255
-0.21878754 -0.15592678 1.5960001 82 90 83 255
-0.21401925 -0.15564311 1.5930001 75 83 76 255
-0.20913504 -0.15526155 1.5890001 72 80 73 255
-0.20465864 -0.15517294 1.5880001 69 77 70 255
-0.20018701 -0.15508419 1.5870001 65 73 65 255
-0.19596694 -0.15519071 1.5880001 62 68 60 255
-0.19149941 -0.15510161 1.5870001 64 71 60 255
-0.18703666 -0.15501237 1.5860001 60 67 56 255
-0.18280914 -0.15511845 1.5870001 59 66 55 255
-0.1786879 -0.1553221 1.5890001 59 64 53 255
-0.17455509 -0.15552561 1.5910001 59 64 53 255
-0.17041066 -0.15572898 1.5930001 56 61 50 255
-0.16615047 -0.15583447 1.5940001 57 62 51 255
-0.16178265 -0.15584199 1.5940001 57 64 53 255
-0.15731546 -0.15575156 1.5930001 59 65 57 255
-0.15294921 -0.15575872 1.5930001 63 69 61 255
-0.1485824 -0.15576574 1.5930001 68 74 66 255
-0.14430553 -0.15587033 1.5940001 62 68 60 255
-0.13993485 -0.15587696 1.5940001 71 77 69 255
-0.13539356 -0.15568784 1.5920001 70 76 68 255
-0.13094501 -0.1555963 1.5910001 67 73 65 255
-0.126581 -0.15560237 1.5910001 69 76 65 255
-0.12221652 -0.15560825 1.5910001 60 67 56 255
-0.11785155 -0.15561393 1.5910001 67 74 62 255
-0.1134861 -0.15561941 1.5910001 68 75 63 255
-0.10905166 -0.15552692 1.59 59 66 54 255
-0.10468809 -0.155532 1.59 64 71 59 255
-0.10032412 -0.15553692 1.59 65 72 61 255
-0.09602011 -0.15563945 1.5910001 70 77 66 255
-0.091652624 -0.15564397 1.5910001 68 74 66 255
-0.087284751 -0.15564828 1.5910001 66 72 65 255
-0.08296866 -0.15575022 1.5920001 59 65 58 255
-0.078646727 -0.15585195 1.5930001 69 75 67 255
-0.074225761 -0.15575783 1.5920001 54 60 52 255
-0.06985385 -0.15576132 1.5920001 77 84 73 255
-0.065481663 -0.15576459 1.5920001 68 75 64 255
-0.061070818 -0.15566982 1.5910001 62 69 58 255
-0.056665216 -0.15557484 1.59 71 78 67 255
-0.052166201 -0.15518612 1.5860001 80 89 78 255
-0.047719095 -0.15489501 1.5830001 81 90 79 255
-0.043315679 -0.15470153 1.5810001 72 79 68 255
-0.038972367 -0.15470354 1.5810001 61 68 57 255
-0.034628898 -0.15470535 1.5810001 57 64 53 255
-0.030342754 -0.15500051 1.5840001 56 63 51 255
-0.025974367 -0.15490402 1.5830001 61 66 54 255
-0.021625025 -0.15490519 1.5830001 58 63 51 255
-0.017264683 -0.15480828 1.582 62 67 55 255
-0.012926096 -0.15490688 1.5830001 62 69 58 255
-0.0085927974 -0.15520099 1.5860001 66 71 60 255
-0.0042296252 -0.15500559 1.5840001 66 72 64 255
0.00012265133 -0.15490782 1.5830001 71 77 69 255
0.0044694315 -0.15480986 1.582 71 77 70 255
0.0088274162 -0.15500525 1.5840001 72 78 71 255
0.013188036 -0.15510255 1.585 77 83 76 255
0.017543027 -0.15510181 1.585 69 75 68 255
0.021870315 -0.15490514 1.5830001 66 72 65 255
0.026219646 -0.15490395 1.5830001 67 73 66 255
0.030568872 -0.15490255 1.5830001 72 78 71 255
0.034873858 -0.15470526 1.5810001 69 75 67 255
0.039167706 -0.15450773 1.5790001 80 86 78 255
0.043422855 -0.15421215 1.5760001 80 89 78 255
0.047661345 -0.15391639 1.5730001 74 83 72 255
0.051916193 -0.15371825 1.5710001 66 74 66 255
0.056195643 -0.15361777 1.5700001 63 71 63 255
0.060507912 -0.15361492 1.5700001 62 70 62 255
0.064819925 -0.15361187 1.5700001 60 68 60 255
0.069219761 -0.15380432 1.572 60 68 60 255
0.07367707 -0.15409437 1.575 60 66 58 255
0.078001969 -0.15409069 1.575 59 66 55 255
0.082274295 -0.15398899 1.5740001 60 67 56 255
0.086540796 -0.15388708 1.5730001 66 71 59 255
0.090801463 -0.15378498 1.572 62 67 55 255
0.095177285 -0.15387835 1.5730001 67 72 61 255
0.099431716 -0.15377584 1.572 68 75 64 255
0.10381226 -0.15386881 1.5730001 71 77 69 255
0.10792292 -0.15357031 1.5700001 76 82 75 255
0.11208818 -0.15336944 1.5680001 80 86 79 255
0.11616778 -0.1530706 1.5650001 82 88 81 255
0.1204614 -0.15306498 1.5650001 76 82 75 255
0.12475453 -0.15305918 1.5650001 67 73 65 255
0.12921211 -0.1532488 1.567 68 74 66 255
0.13350977 -0.15324263 1.567 68 74 66 255
0.13771895 -0.15313849 1.5660001 74 80 73 255
0.14183146 -0.1529364 1.5640001 72 80 73 255
0.14593245 -0.15273413 1.562 79 87 80 255
0.14992577 -0.15243393 1.559 91 98 94 255
0.15390207 -0.15213358 1.5560001 85 92 88 255
0.15796301 -0.15193085 1.554 71 79 72 255
0.16201238 -0.15172796 1.552 76 84 77 255
0.16615739 -0.15162271 1.5510001 66 74 67 255
0.17018639 -0.15141955 1.549 65 73 65 255
0.17431645 -0.15131398 1.5480001 60 68 60 255
0.17844038 -0.15120827 1.5470001 66 74 67 255
0.18267627 -0.15120013 1.5470001 76 84 77 255
0.18654907 -0.15089864 1.544 83 91 84 255
0.19089901 -0.15098795 1.5450001 78 86 79 255
0.19525382 -0.15107711 1.5460001 73 79 71 255
0.19987141 -0.15136151 1.549 68 74 66 255
0.20397769 -0.15125492 1.5480001 65 72 61 255
0.2083468 -0.1513436 1.549 69 76 65 255
0.21244623 -0.15123674 1.5480001 60 67 56 255
0.21667942 -0.15122743 1.5480001 55 62 51 255
0.22062647 -0.15102261 1.5460001 55 61 53 255
0.22470734 -0.15091538 1.5450001 58 66 58 255
0.22878198 -0.15080804 1.544 76 82 74 255
0.23269951 -0.15060289 1.5420001 86 92 84 255
0.23675901 -0.15049532 1.5410001 68 74 66 255
0.24081229 -0.15038764 1.5400001 64 70 62 255
0.24470028 -0.15018223 1.5380001 48 54 46 255
0.24873841 -0.15007435 1.5370001 52 60 53 255
0.25293487 -0.15006402 1.5370001 88 96 88 255
0.25729787 -0.15015121 1.5380001 71 79 72 255
0.26081547 -0.14975017 1.534 61 69 62 255
0.26482868 -0.14964193 1.5330001 60 66 59 255
0.2690112 -0.14963123 1.5330001 84 90 82 255
0.27372751 -0.14991321 1.536 75 81 73 255
0.27773571 -0.1498047 1.5350001 69 75 68 255
0.28155401 -0.14959852 1.5330001 72 78 71 255
0.2853606 -0.14939229 1.531 73 79 72 255
0.28934464 -0.14928359 1.5300001 72 78 71 255
0.29332244 -0.14917482 1.529 72 78 71 255
0.29729405 -0.149066 1.5280001 71 77 70 255
0.30145672 -0.14905468 1.5280001 72 78 70 255
0.30521858 -0.14884819 1.526 85 91 83 255
0.30917153 -0.14873922 1.5250001 81 87 80 255
0.31332371 -0.14872772 1.5250001 75 81 74 255
0.31768331 -0.14881368 1.526 70 76 69 255
0.32162577 -0.14870456 1.5250001 72 78 71 255
0.32577568 -0.14869291 1.5250001 73 79 72 255
0.33057389 -0.1489737 1.5280001 72 78 70 255
0.33516857 -0.14915693 1.5300001 68 74 66 255
0.33932984 -0.14914511 1.5300001 67 73 65 255
0.34259236 -0.14874339 1.526 68 74 67 255
0.34628683 -0.14853662 1.524 69 75 68 255
0.3501997 -0.14842732 1.5230001 75 81 74 255
0.35410634 -0.14831801 1.5220001 75 83 76 255
0.35800689 -0.14820871 1.521 72 80 73 255
0.36190128 -0.14809939 1.5200001 74 82 75 255
0.3660304 -0.14808753 1.5200001 71 79 71 255
0.37015882 -0.14807566 1.5200001 71 79 71 255
0.37428656 -0.14806379 1.5200001 74 80 73 255
0.37841365 -0.1480519 1.5200001 71 77 70 255
0.38279176 -0.14813744 1.521 70 76 69 255
0.38692027 -0.14812557 1.521 68 76 69 255
0.3913053 -0.14821112 1.5220001 69 77 70 255
0.3949157 -0.14800455 1.5200001 72 80 73 255
0.3982521 -0.14770067 1.5170001 71 79 72 255
0.4018369 -0.14749421 1.5150001 72 80 73 255
0.40594614 -0.14748253 1.5150001 72 80 73 255
0.41032553 -0.14756821 1.516 70 78 71 255
0.41416308 -0.14745927 1.5150001 72 78 71 255
0.41799462 -0.14735039 1.5140001 75 81 74 255
0.42182031 -0.14724156 1.5130001 77 83 76 255
0.42592159 -0.14723013 1.5130001 75 81 74 255
0.4297381 -0.14712144 1.5120001 74 80 73 255
0.43412268 -0.14720742 1.5130001 73 79 72 255
0.43822253 -0.14719617 1.5130001 72 78 71 255
0.44202971 -0.14708771 1.5120001 75 81 74 255
0.4461261 -0.14707662 1.5120001 75 81 73 255
0.45051986 -0.14716288 1.5130001 73 80 69 255
0.45551962 -0.14744371 1.516 71 78 67 255
0.45992899 -0.14753011 1.5170001 72 79 67 255
0.46526113 -0.14790832 1.521 72 79 67 255
0.47030607 -0.14818932 1.524 74 81 70 255
0.47598958 -0.14866488 1.529 70 77 66 255
0.48169994 -0.14914045 1.534 73 78 67 255
0.48648697 -0.14932442 1.536 67 72 61 255
0.49000698 -0.14911966 1.534 56 61 49 255
0.49319381 -0.14881784 1.531 59 64 52 255
0.4970139 -0.14871056 1.5300001 60 68 53 255
0.50115615 -0.14870067 1.5300001 59 67 52 255
0.50529826 -0.14869089 1.5300001 57 64 52 255
0.50910723 -0.14858407 1.529 56 63 51 255
0.51190388 -0.14818592 1.5250001 54 63 52 255
0.51501721 -0.14788511 1.5220001 54 63 52 255
0.51913762 -0.14787601 1.5220001 57 65 57 255
0.52222675 -0.14757559 1.5190001 59 67 60 255
0.52495313 -0.14717823 1.5150001 78 86 79 255
0.52800727 -0.14687823 1.5120001 74 82 74 255
0.53280491 -0.14706412 1.5140001 69 75 67 255
0.53725898 -0.14715305 1.5150001 68 74 66 255
0.54064667 -0.1469508 1.5130001 63 69 61 255
0.5443837 -0.14684583 1.5120001 62 68 60 255
0.5477531 -0.146644 1.5100001 65 73 65 255
0.55147731 -0.14653946 1.5090001 68 76 69 255
0.55409205 -0.14614385 1.5050001 79 87 80 255
0.55705637 -0.14584559 1.5020001 90 98 91 255
0.56075197 -0.14574178 1.501 85 93 86 255
0.56519538 -0.14583237 1.5020001 68 76 68 255
0.56926572 -0.14582612 1.5020001 65 71 63 255
0.57257307 -0.14562589 1.5000001 57 65 57 255
0.57779235 -0.14591132 1.503 67 74 63 255
0.5845772 -0.1465853 1.5100001 72 78 70 255
