ply
format ascii 1.0
comment PCL generated
element vertex 979
property float x
property float y
property float z
property uchar red
property uchar green
property uchar blue
property uchar alpha
element camera 0
property float view_px
property float view_py
property float view_pz
property float x_axisx
property float x_axisy
property float x_axisz
property float y_axisx
property float y_axisy
property float y_axisz
property float z_axisx
property float z_axisy
property float z_axisz
property float focal
property float scalex
property float scaley
property float centerx
property float centery
property int viewportx
property int viewporty
property float k1
property float k2
end_header
-0.73871136 0.030051678 1.7270001 203 210 199 255
-0.7331683 0.030017404 1.725 152 159 148 255
-0.72806001 0.030000608 1.7240001 161 168 157 255
-0.72295839 0.029983867 1.723 169 174 163 255
-0.71828043 0.029984595 1.723 187 192 181 255
-0.71236116 0.029933175 1.72 191 195 187 255
-0.70687097 0.029899217 1.7180001 207 211 203 255
-0.700984 0.029847916 1.715 209 215 207 255
-0.69511443 0.029796673 1.7120001 194 200 193 255
-0.68966532 0.029762881 1.71 202 208 200 255
-0.68382758 0.029711746 1.7070001 178 184 176 255
-0.67840487 0.02967806 1.705 204 211 200 255
-0.67259866 0.029627021 1.702 161 166 155 255
-0.66680956 0.029576033 1.6990001 174 179 167 255
-0.6610375 0.029525088 1.6960001 163 168 156 255
-0.65644354 0.029526422 1.6960001 175 180 166 255
-0.65146595 0.029510394 1.6950001 175 180 166 255
-0.64687598 0.029511821 1.6950001 175 181 164 255
-0.64152873 0.029478472 1.6930001 162 168 151 255
-0.63732153 0.029497406 1.6940001 166 174 157 255
-0.63348293 0.029533798 1.6960001 177 185 168 255
-0.62852156 0.029517993 1.6950001 185 190 178 255
-0.62356597 0.029502233 1.6940001 183 188 176 255
-0.61788529 0.029451674 1.6910001 165 170 158 255
-0.61330926 0.029453406 1.6910001 172 177 165 255
-0.60801357 0.029420342 1.6890001 180 185 173 255
-0.60380071 0.029439565 1.6900001 178 183 169 255
-0.59887367 0.029423995 1.6890001 184 189 175 255
-0.59430391 0.029425874 1.6890001 177 182 168 255
-0.58833766 0.029358095 1.6850001 174 179 165 255
-0.58377898 0.029360045 1.6850001 177 183 166 255
-0.57956403 0.029379452 1.6860001 146 152 135 255
-0.57568485 0.029416317 1.6880001 157 163 146 255
-0.571118 0.02941836 1.6880001 157 162 148 255
-0.56655121 0.029420439 1.6880001 155 160 146 255
-0.56231719 0.029439976 1.6890001 165 170 156 255
-0.55741727 0.029424684 1.6880001 161 168 156 255
-0.55219501 0.029391982 1.6860001 181 186 174 255
-0.54665858 0.029341862 1.6830001 173 181 166 255
-0.54210448 0.029344071 1.6830001 171 179 164 255
-0.53786963 0.02936374 1.6840001 165 173 158 255
-0.53299564 0.02934856 1.6830001 164 169 155 255
-0.52781278 0.029315958 1.6810001 160 165 151 255
-0.52232909 0.029265933 1.6780001 182 189 177 255
-0.5177871 0.029268248 1.6780001 182 190 175 255
-0.5129388 0.029253135 1.677 135 143 126 255
-0.50839865 0.029255487 1.677 164 172 155 255
-0.50415856 0.0292753 1.6780001 149 158 139 255
-0.49961492 0.02927769 1.6780001 150 156 138 255
-0.49507073 0.029280094 1.6780001 159 165 148 255
-0.48994142 0.029247608 1.6760001 141 147 130 255
-0.48511195 0.029232584 1.6750001 143 149 132 255
-0.48028734 0.029217569 1.674 168 173 159 255
-0.47575188 0.02922002 1.674 179 187 172 255
-0.47121581 0.029222481 1.674 168 176 159 255
-0.46640038 0.029207496 1.6730001 175 183 166 255
-0.46158969 0.02919252 1.6720001 137 146 127 255
-0.45678383 0.029177545 1.6710001 136 145 126 255
-0.45252404 0.029197499 1.6720001 138 145 124 255
-0.44772223 0.02918254 1.6710001 143 150 129 255
-0.44372085 0.029219979 1.6730001 139 145 127 255
-0.43892032 0.029205026 1.6720001 139 145 127 255
-0.43464416 0.029225012 1.6730001 145 151 133 255
-0.43010476 0.029227536 1.6730001 141 146 125 255
-0.42556459 0.029230064 1.6730001 137 142 120 255
-0.42177859 0.029285012 1.6760001 135 140 118 255
-0.41772661 0.029322492 1.6780001 129 136 114 255
-0.41440162 0.029412407 1.6830001 129 135 110 255
-0.41129223 0.029519819 1.6890001 123 130 101 255
-0.40839022 0.029644722 1.6960001 111 118 87 255
-0.40497315 0.029734684 1.7010001 106 111 80 255
-0.40058663 0.029754724 1.702 96 100 65 255
-0.39572853 0.029739805 1.7010001 93 96 64 255
-0.39018524 0.02967242 1.697 87 90 58 255
-0.38511723 0.029639984 1.6950001 137 140 108 255
-0.38028371 0.029625028 1.6940001 118 121 90 255
-0.37589827 0.029645044 1.6950001 116 122 87 255
-0.37128747 0.029647561 1.6950001 112 118 92 255
-0.36602676 0.02959759 1.692 132 138 113 255
-0.35949987 0.029442636 1.6830001 176 183 162 255
-0.35365367 0.029340133 1.677 147 154 133 255
-0.34908825 0.029342584 1.677 116 123 101 255
-0.34534365 0.029415015 1.6810001 58 65 43 255
-0.34117097 0.029452449 1.6830001 93 98 76 255
-0.3361865 0.029419869 1.6810001 16 18 0 255
-0.33140925 0.029404771 1.6800001 25 25 7 255
-0.32624742 0.029354645 1.677 30 27 11 255
-0.32148471 0.029339507 1.6760001 31 28 12 255
-0.31634837 0.029289341 1.6730001 32 29 15 255
-0.31122744 0.029239142 1.6700001 36 32 21 255
-0.30648923 0.029223939 1.669 23 22 16 255
-0.30175558 0.029208718 1.6680001 93 94 88 255
-0.29702649 0.029193476 1.6670001 111 114 111 255
-0.29195103 0.029143184 1.664 63 66 63 255
-0.28706375 0.029110374 1.6620001 71 74 71 255
-0.28235653 0.029095059 1.6610001 76 79 76 255
-0.27782115 0.02909724 1.6610001 95 99 101 255
-0.27328482 0.029099397 1.6610001 100 104 106 255
-0.26826221 0.029048966 1.6580001 100 104 106 255
-0.26341423 0.029016029 1.6560001 91 95 97 255
-0.25857627 0.028983062 1.654 78 82 84 255
-0.25405559 0.028985117 1.654 80 82 82 255
-0.24953406 0.028987143 1.654 90 92 92 255
-0.24486355 0.02897162 1.6530001 74 78 78 255
-0.24019766 0.028956069 1.6520001 85 89 89 255
-0.23567908 0.028958013 1.6520001 83 87 87 255
-0.23129955 0.028977465 1.6530001 92 99 96 255
-0.22663939 0.028961826 1.6520001 102 107 103 255
-0.22225279 0.028981224 1.6530001 75 80 76 255
-0.21785992 0.029000591 1.654 75 80 76 255
-0.21346079 0.029019935 1.6550001 81 87 80 255
-0.20880289 0.029004177 1.654 80 86 79 255
-0.20452023 0.029041 1.6560001 78 83 79 255
-0.20010509 0.029060254 1.6570001 74 79 75 255
-0.19568373 0.029079486 1.6580001 77 80 76 255
-0.19125612 0.029098678 1.659 79 82 79 255
-0.18670978 0.029100308 1.659 80 83 80 255
-0.18205291 0.029084358 1.6580001 80 85 82 255
-0.17740083 0.029068371 1.6570001 85 89 89 255
-0.17285787 0.029069899 1.6570001 87 91 91 255
-0.1684158 0.029088931 1.6580001 80 84 84 255
-0.16386876 0.029090386 1.6580001 79 84 81 255
-0.15960936 0.029144449 1.6610001 74 79 75 255
-0.15505278 0.029145835 1.6610001 74 77 73 255
-0.15067682 0.029182287 1.6630001 76 80 73 255
-0.14637712 0.02923625 1.6660001 76 80 73 255
-0.14231573 0.02934283 1.6720001 75 79 72 255
-0.13822082 0.029449381 1.6780001 75 79 72 255
-0.13433129 0.029608555 1.687 76 80 73 255
-0.13046868 0.029785261 1.697 69 73 66 255
-0.12655064 0.029961944 1.7070001 62 66 58 255
-0.12222019 0.030050827 1.7120001 56 58 50 255
-0.11772448 0.03010457 1.715 43 43 33 255
-0.1130141 0.030105615 1.715 41 41 31 255
-0.10817697 0.030071516 1.7130001 49 49 39 255
-0.10347117 0.030072479 1.7130001 51 53 45 255
-0.098822579 0.030090958 1.7140001 50 54 46 255
-0.094222985 0.030126952 1.7160001 56 60 53 255
-0.08945553 0.030110238 1.715 54 58 51 255
-0.084643759 0.030075919 1.7130001 59 63 56 255
-0.079842642 0.030041562 1.7110001 66 70 63 255
-0.075052172 0.030007161 1.7090001 66 69 65 255
-0.070395865 0.030025387 1.71 66 69 65 255
-0.065541677 0.029955782 1.7060001 70 73 69 255
-0.060780518 0.029921245 1.7040001 70 73 70 255
-0.056030106 0.029886667 1.702 72 75 72 255
-0.051411133 0.029922286 1.7040001 70 75 71 255
-0.046780929 0.029957861 1.7060001 72 77 73 255
-0.042164207 0.030010955 1.7090001 69 75 68 255
-0.037530795 0.030064007 1.7120001 67 73 66 255
-0.032880731 0.030117016 1.715 68 74 67 255
-0.028131904 0.030082179 1.7130001 70 74 67 255
-0.023434974 0.030099981 1.7140001 73 76 72 255
-0.018710595 0.030082613 1.7130001 71 74 70 255
-0.013999807 0.030082766 1.7130001 74 77 73 255
-0.009278114 0.030047752 1.7110001 75 78 74 255
-0.0045780698 0.030082937 1.7130001 74 77 73 255
0.00013283944 0.03008296 1.7130001 72 76 69 255
0.0048522311 0.030135624 1.7160001 74 77 73 255
0.0095769465 0.030153118 1.7170001 71 77 70 255
0.014332104 0.030223252 1.7210001 72 78 71 255
0.019075966 0.030240661 1.7220001 69 75 68 255
0.023825241 0.030258019 1.723 72 78 71 255
0.02861307 0.030310461 1.7260001 73 76 72 255
0.033397947 0.030345293 1.728 71 74 70 255
0.038171597 0.03036252 1.7290001 71 74 71 255
0.042950585 0.030379703 1.7300001 69 72 69 255
0.047734883 0.030396843 1.7310001 70 73 69 255
0.05252447 0.030413937 1.7320001 68 72 65 255
0.057187028 0.030360751 1.7290001 69 72 68 255
0.061976146 0.030377761 1.7300001 67 72 68 255
0.066693336 0.030359605 1.7290001 68 73 69 255
0.071487397 0.030376527 1.7300001 69 74 71 255
0.076198496 0.030358288 1.7290001 71 76 73 255
0.080997422 0.030375121 1.7300001 74 79 76 255
0.085950181 0.030444583 1.7340001 73 78 74 255
0.09081994 0.030478887 1.7360001 73 78 75 255
0.095590182 0.030478032 1.7360001 70 75 72 255
0.10036001 0.030477136 1.7360001 72 75 72 255
0.10506886 0.030458646 1.7350001 71 74 71 255
0.10983506 0.030457666 1.7350001 73 76 73 255
0.11440266 0.030403981 1.7320001 72 75 72 255
0.1191597 0.030402923 1.7320001 76 79 76 255
0.12391623 0.030401824 1.7320001 74 79 75 255
0.12852366 0.030365577 1.7300001 67 72 69 255
0.13296553 0.030294193 1.7260001 61 66 63 255
0.1376242 0.030275427 1.725 63 68 65 255
0.14219429 0.03023907 1.723 65 70 67 255
0.73108035 0.031538151 1.812 173 178 184 255
0.73477548 0.031484857 1.8090001 171 176 182 255
0.73436648 0.031257592 1.7960001 170 175 181 255
0.73388803 0.031030396 1.7830001 170 175 181 255
0.73126876 0.030716266 1.7650001 170 175 181 255
0.73230624 0.030558836 1.756 166 171 177 255
0.7332961 0.030401479 1.7470001 163 168 174 255
0.73466104 0.030261599 1.7390001 160 165 171 255
0.73555857 0.03010438 1.7300001 155 160 166 255
0.73469716 0.029877638 1.7170001 152 158 161 255
0.73548889 0.029720567 1.7080001 150 156 159 255
0.73580003 0.029546173 1.6980001 152 157 163 255
0.73693049 0.02940665 1.6900001 152 157 163 255
0.73670268 0.029215001 1.6790001 157 162 168 255
0.73818272 0.029093022 1.6720001 159 164 170 255
0.73829377 0.028918916 1.6620001 160 165 171 255
0.73835218 0.028744888 1.6520001 162 167 173 255
0.73790824 0.028553527 1.641 168 173 179 255
0.74012059 0.028466638 1.636 171 176 182 255
0.7400322 0.028292829 1.626 176 181 187 255
0.74080682 0.028153885 1.618 176 181 188 255
0.7401582 0.027962821 1.6070001 174 179 186 255
0.74223155 0.027876228 1.6020001 181 186 193 255
0.74288154 0.027737506 1.5940001 184 189 196 255
0.74536526 0.027668465 1.59 187 192 199 255
0.74500036 0.027495088 1.58 185 190 197 255
0.74410874 0.027304381 1.5690001 172 177 184 255
0.74220544 0.027078941 1.5560001 182 186 196 255
0.74215227 0.026923178 1.5470001 193 198 205 255
0.74108738 0.026732681 1.536 192 196 206 255
0.74190569 0.026611876 1.529 195 199 209 255
0.74073637 0.026421519 1.5180001 194 199 209 255
0.7429443 0.026353074 1.5140001 195 200 210 255
0.74266571 0.026197672 1.5050001 196 201 211 255
-0.92580593 0.024208212 1.6450001 25 27 17 255
-0.92686307 0.024838818 1.6890001 19 20 8 255
-0.91995382 0.024776947 1.6850001 23 24 12 255
-0.91904706 0.024876924 1.692 19 19 9 255
-0.91054082 0.024771173 1.6850001 17 17 7 255
-0.88917619 0.024312759 1.654 17 17 7 255
-0.87012839 0.023913341 1.6270001 20 20 10 255
-0.88912565 0.02468738 1.6800001 19 19 9 255
-0.89972591 0.025111165 1.7090001 22 22 12 255
-0.91226435 0.025593739 1.7420001 20 20 10 255
-0.90795469 0.025606219 1.743 19 19 9 255
-0.87665486 0.024985161 1.7010001 19 19 9 255
-0.88732857 0.025423903 1.7310001 18 18 8 255
-0.87642652 0.025245843 1.7190001 20 20 10 255
-0.86965132 0.025185384 1.715 21 21 11 255
-0.86239767 0.025110334 1.71 18 18 8 255
-0.87573957 0.025637411 1.7460001 18 18 8 255
-0.8724255 0.025679981 1.7490001 20 20 10 255
-0.86711431 0.025663907 1.748 19 19 9 255
-0.86526513 0.025750685 1.7540001 21 21 11 255
-0.86191469 0.0257935 1.7570001 18 18 8 255
-0.85757524 0.025807036 1.7580001 19 19 9 255
-0.85274851 0.025805974 1.7580001 20 20 10 255
-0.84792477 0.025804993 1.7580001 19 19 9 255
-0.84694058 0.025921514 1.766 19 19 9 255
-0.84448504 0.025994075 1.771 19 17 6 255
-0.84105664 0.026037356 1.774 22 18 7 255
-0.84091419 0.026183451 1.784 26 22 11 255
-0.83931381 0.026285583 1.7910001 33 26 13 255
-0.83488238 0.02629973 1.7920001 39 33 17 255
-0.83044809 0.026313955 1.7930001 128 124 108 255
-0.82462943 0.026284222 1.7910001 148 145 129 255
-0.81836641 0.026239883 1.7880001 164 163 147 255
-0.81030214 0.026136916 1.7810001 150 153 139 255
-0.80227834 0.026034022 1.774 192 195 183 255
-0.79339588 0.025901847 1.7650001 186 189 177 255
-0.78679848 0.025843116 1.761 191 196 185 255
-0.77978081 0.025769772 1.756 198 203 192 255
-0.77279228 0.025696492 1.751 196 201 190 255
-0.76627147 0.025637951 1.7470001 197 204 193 255
-0.75977409 0.025579469 1.743 198 204 196 255
-0.75373358 0.025535729 1.7400001 201 206 195 255
-0.74728036 0.025477365 1.7360001 149 156 145 255
-0.73999506 0.025389707 1.7300001 204 211 200 255
-0.73401892 0.02534613 1.7270001 179 186 175 255
-0.72848278 0.025317285 1.725 179 184 173 255
-0.72295904 0.025288494 1.723 153 158 147 255
-0.71786427 0.025274435 1.7220001 173 178 167 255
-0.71277612 0.025260424 1.7210001 182 187 176 255
-0.70769465 0.025246466 1.72 200 204 196 255
-0.70221102 0.025217878 1.7180001 203 207 199 255
-0.69673938 0.025189338 1.7160001 216 222 215 255
-0.69087625 0.025146166 1.7130001 200 206 199 255
-0.6842292 0.025073681 1.7080001 185 191 184 255
-0.6788038 0.025045274 1.7060001 193 199 191 255
-0.67259979 0.02498755 1.702 195 199 191 255
-0.66720319 0.024959229 1.7 157 162 151 255
-0.66142845 0.024916267 1.697 158 163 151 255
-0.65644479 0.024902709 1.6960001 177 182 170 255
-0.65185165 0.024903877 1.6960001 177 182 168 255
-0.647259 0.024905084 1.6960001 181 187 170 255
-0.64266694 0.024906332 1.6960001 153 161 144 255
-0.63807541 0.024907617 1.6960001 161 169 152 255
-0.63460499 0.024953002 1.6990001 169 177 160 255
-0.62926465 0.024924988 1.697 182 187 173 255
-0.6246717 0.024926385 1.697 176 181 167 255
-0.61934847 0.024898442 1.6950001 161 166 154 255
-0.61476171 0.024899907 1.6950001 169 174 162 255
-0.60909516 0.024857333 1.692 180 185 173 255
-0.60415971 0.024844171 1.6910001 168 173 161 255
-0.59922993 0.024831036 1.6900001 179 184 170 255
-0.59536123 0.024862012 1.692 177 182 168 255
-0.58973616 0.024819551 1.6890001 186 191 177 255
-0.58447367 0.024791805 1.687 178 184 167 255
-0.57956588 0.024778785 1.6860001 156 162 145 255
-0.57568675 0.02480988 1.6880001 156 164 147 255
-0.57145822 0.024826307 1.6890001 156 162 145 255
-0.56688875 0.024828061 1.6890001 177 185 170 255
-0.56231916 0.024829842 1.6890001 163 171 156 255
-0.55741918 0.024816943 1.6880001 158 165 153 255
-0.55219704 0.024789365 1.6860001 178 183 171 255
-0.54698545 0.024761802 1.6840001 174 179 165 255
-0.54275072 0.02477837 1.6850001 173 178 164 255
-0.5385105 0.024794966 1.6860001 170 175 161 255
-0.53394783 0.024796873 1.6860001 167 172 158 255
-0.52875692 0.024769383 1.6840001 165 170 156 255
-0.52357638 0.024741905 1.682 186 193 181 255
-0.51871496 0.024729151 1.6810001 184 192 177 255
-0.51385856 0.024716413 1.6800001 142 150 133 255
-0.50931036 0.0247184 1.6800001 163 171 154 255
-0.50446129 0.024705688 1.6790001 143 152 133 255
-0.49991482 0.024707705 1.6790001 143 149 131 255
-0.49536791 0.024709731 1.6790001 156 162 145 255
-0.49052826 0.024697056 1.6780001 144 150 133 255
-0.48540384 0.024669671 1.6760001 147 152 138 255
-0.48057657 0.024657011 1.6750001 155 160 146 255
-0.47603834 0.024659079 1.6750001 177 185 170 255
-0.47121805 0.024646437 1.674 166 174 157 255
-0.46640268 0.024633801 1.6730001 164 172 155 255
-0.46159199 0.024621168 1.6720001 136 145 126 255
-0.4570595 0.024623269 1.6720001 144 153 132 255
-0.45279697 0.024640104 1.6730001 144 151 130 255
-0.44826043 0.024642218 1.6730001 143 150 129 255
-0.44372317 0.024644336 1.6730001 134 141 120 255
-0.43892267 0.024631727 1.6720001 148 155 134 255
-0.43438664 0.024633851 1.6720001 143 149 131 255
-0.43036419 0.024665449 1.674 139 146 125 255
-0.42607561 0.024682319 1.6750001 133 138 117 255
-0.42203251 0.024713926 1.677 129 136 114 255
-0.4179779 0.024745543 1.6790001 126 133 111 255
-0.41391152 0.024777165 1.6810001 127 133 108 255
-0.41056406 0.024853012 1.6860001 129 136 107 255
-0.40767014 0.024958352 1.6930001 112 119 88 255
-0.40473741 0.025063712 1.7 104 107 75 255
-0.40035367 0.025080619 1.7010001 94 97 65 255
-0.39573088 0.025082778 1.7010001 83 86 54 255
-0.38995767 0.025011197 1.6960001 109 112 81 255
-0.38489234 0.024983844 1.6940001 137 140 108 255
-0.38028607 0.024985982 1.6940001 115 118 86 255
-0.37612239 0.025017614 1.6960001 110 113 82 255
-0.37150884 0.025019737 1.6960001 116 120 92 255
-0.36581272 0.024948088 1.6910001 128 134 108 255
-0.35950214 0.024832154 1.6830001 180 185 163 255
-0.35386682 0.024760459 1.6780001 126 131 109 255
-0.34971499 0.024792043 1.6800001 114 120 95 255
-0.3457568 0.024838381 1.6830001 59 65 40 255
-0.34137595 0.024855196 1.6840001 111 114 92 255
-0.3361887 0.024812957 1.6810001 13 13 0 255
-0.33141145 0.024800226 1.6800001 27 27 9 255
-0.32644421 0.024772717 1.6780001 31 28 12 255
-0.32148692 0.024745187 1.6760001 31 28 12 255
-0.31635052 0.024702873 1.6730001 31 28 14 255
-0.31122959 0.024660541 1.6700001 34 30 19 255
-0.30649137 0.02464772 1.669 23 22 16 255
-0.30175772 0.024634883 1.6680001 103 104 98 255
-0.29702857 0.024622027 1.6670001 107 110 107 255
-0.29177764 0.02456484 1.6630001 62 65 62 255
-0.28672037 0.024522396 1.6600001 71 74 71 255
-0.28201854 0.024509476 1.659 75 78 75 255
-0.27748859 0.024511313 1.659 102 106 108 255
-0.27295774 0.024513131 1.659 99 103 105 255
-0.26810235 0.024485374 1.6570001 101 105 107 255
-0.26341614 0.024472374 1.6560001 88 92 94 255
-0.25873449 0.024459349 1.6550001 72 76 78 255
-0.2542111 0.024461083 1.6550001 78 80 82 255
-0.24968679 0.024462797 1.6550001 92 94 96 255
-0.24501351 0.024449704 1.654 74 78 78 255
-0.24034487 0.024436589 1.6530001 85 89 89 255
-0.23582351 0.024438232 1.6530001 81 88 87 255
-0.23130132 0.024439855 1.6530001 93 100 97 255
-0.22691549 0.024456237 1.654 100 105 101 255
-0.22252341 0.0244726 1.6550001 79 84 81 255
-0.21812505 0.024488941 1.6560001 75 80 76 255
-0.21372041 0.024505256 1.6570001 82 88 81 255
-0.20905703 0.024491971 1.6560001 81 87 80 255
-0.20464534 0.024508236 1.6570001 77 82 78 255
-0.20022742 0.02452448 1.6580001 75 80 76 255
-0.19556725 0.024511114 1.6570001 74 77 73 255
-0.19114237 0.024527306 1.6580001 79 82 79 255
-0.18659872 0.024528675 1.6580001 78 81 78 255
-0.18194456 0.024515223 1.6570001 81 86 83 255
-0.17729521 0.024501745 1.6560001 85 89 89 255
-0.17265062 0.024488233 1.6550001 84 88 88 255
-0.16831559 0.024519082 1.6570001 82 86 86 255
-0.16396891 0.024549905 1.659 76 81 78 255
-0.15970674 0.024595503 1.6620001 76 81 78 255
-0.1553341 0.024626274 1.664 78 81 77 255
-0.15094988 0.024657018 1.6660001 79 82 78 255
-0.14672977 0.024717335 1.6700001 78 82 75 255
-0.14248714 0.024777627 1.674 76 80 73 255
-0.13813961 0.02482309 1.677 76 80 73 255
-0.13401391 0.024912933 1.6830001 75 79 72 255
-0.130316 0.025091568 1.6950001 72 76 68 255
-0.12662582 0.025284991 1.7080001 68 72 64 255
-0.12250677 0.025404375 1.7160001 59 61 51 255
-0.1179314 0.025434902 1.7180001 60 62 52 255
-0.11321274 0.025435787 1.7180001 39 39 29 255
-0.10849363 0.025436636 1.7180001 48 48 38 255
-0.10371365 0.025422646 1.7170001 50 52 42 255
-0.098996386 0.025423426 1.7170001 50 52 42 255
-0.094388515 0.025453787 1.7190001 51 53 45 255
-0.089612767 0.025439691 1.7180001 54 58 50 255
-0.084842145 0.025425561 1.7170001 60 64 57 255
-0.079983316 0.025381774 1.7140001 62 66 59 255
-0.075184561 0.025352759 1.7120001 66 69 65 255
-0.070478804 0.025353326 1.7120001 66 71 67 255
-0.065695897 0.025324235 1.71 66 71 67 255
-0.060923722 0.02529511 1.7080001 69 74 71 255
-0.056228112 0.025295569 1.7080001 68 73 70 255
-0.0515926 0.025325611 1.71 72 78 71 255
-0.047000706 0.025385238 1.7140001 69 75 68 255
-0.042386614 0.025444832 1.7180001 67 73 66 255
-0.037728418 0.025489576 1.7210001 67 73 66 255
-0.032996047 0.025489856 1.7210001 66 72 65 255
-0.028230684 0.025460474 1.7190001 70 74 67 255
-0.023476195 0.025431056 1.7170001 69 73 66 255
-0.018754449 0.025431223 1.7170001 70 74 67 255
-0.014057136 0.025475781 1.72 69 73 66 255
-0.0093324203 0.025490686 1.7210001 73 76 72 255
-0.0046101795 0.025549985 1.725 70 74 67 255
0.00013392627 0.025579629 1.7270001 70 74 67 255
0.0048890328 0.025609232 1.7290001 69 73 66 255
0.0096495394 0.025623986 1.7300001 70 74 67 255
0.014432161 0.025668325 1.733 68 74 67 255
0.019231219 0.02571263 1.7360001 69 75 68 255
0.024005208 0.025712458 1.7360001 67 72 68 255
0.02881225 0.025741875 1.738 69 74 70 255
0.033591509 0.025741627 1.738 69 74 71 255
0.038370624 0.025741346 1.738 68 73 70 255
0.043149568 0.025741026 1.738 67 72 69 255
0.047873169 0.025711048 1.7360001 66 71 68 255
0.052615896 0.025695845 1.7350001 65 70 66 255
0.057286743 0.025650987 1.7320001 64 69 65 255
0.06201249 0.025635708 1.7310001 68 73 70 255
0.066771053 0.025635207 1.7310001 64 69 66 255
0.071611963 0.025664283 1.733 60 67 64 255
0.076463573 0.025693329 1.7350001 61 65 65 255
0.73355788 0.026510408 1.8060001 172 177 184 255
0.7327317 0.026304049 1.7920001 171 176 182 255
0.73183089 0.026097758 1.7780001 170 175 181 255
0.73209822 0.025935562 1.7670001 172 177 183 255
0.73272395 0.025788106 1.7570001 169 174 180 255
0.73413634 0.025670065 1.7490001 163 168 174 255
0.73466152 0.025522728 1.7390001 158 163 169 255
0.73640943 0.025419483 1.7320001 157 162 168 255
0.73469758 0.025198892 1.7170001 156 161 167 255
0.73462814 0.025037067 1.7060001 150 155 161 255
0.73493373 0.02488998 1.6960001 152 157 163 255
0.73693079 0.024801655 1.6900001 155 161 164 255
0.73714167 0.02465469 1.6800001 156 162 165 255
0.7381829 0.024537137 1.6720001 159 164 170 255
0.73873806 0.024404969 1.6630001 160 166 172 255
0.73924601 0.024272863 1.654 163 168 174 255
0.73880756 0.024111466 1.6430001 169 174 180 255
0.74012053 0.024008835 1.636 172 177 183 255
0.74139732 0.023906264 1.6290001 175 180 186 255
0.74172235 0.023774406 1.6200001 177 182 188 255
0.74061847 0.02359858 1.608 175 180 186 255
0.74176776 0.023496194 1.6010001 183 188 194 255
0.74241501 0.023379194 1.5930001 186 191 197 255
0.74395841 0.02329161 1.5870001 188 193 200 255
0.7431137 0.023130704 1.5760001 191 196 203 255
0.7422111 0.022969859 1.5650001 189 193 203 255
0.74125063 0.02280907 1.554 191 195 205 255
0.7421515 0.022707054 1.5470001 194 198 208 255
0.74156898 0.022561066 1.5370001 193 199 206 255
0.74190474 0.022444494 1.529 195 200 210 255
0.7417112 0.022313306 1.5200001 196 201 211 255
0.74392456 0.022255577 1.516 194 199 209 255
0.74414492 0.022139193 1.508 194 199 209 255
-0.95978594 0.020945387 1.7490001 21 22 8 255
-0.90029633 0.019745398 1.649 22 23 11 255
-0.90111983 0.019862784 1.659 18 18 8 255
-0.87547415 0.019592907 1.6370001 20 20 10 255
-0.8959229 0.020153385 1.6840001 20 21 9 255
-0.90076661 0.020366801 1.702 22 23 11 255
-0.90656787 0.020604193 1.7220001 20 21 9 255
-0.91173857 0.020829653 1.7410001 20 20 10 255
-0.90013903 0.020672332 1.728 18 18 8 255
-0.88644516 0.020573303 1.72 21 21 11 255
-0.8647719 0.020177066 1.687 17 17 7 255
-0.89121044 0.02090515 1.748 19 19 9 255
-0.88283414 0.02082002 1.7410001 20 20 10 255
-0.86996108 0.02062735 1.725 19 19 9 255
-0.874735 0.020853279 1.7440001 20 18 8 255
-0.87042898 0.020864036 1.7450001 22 20 10 255
-0.86016828 0.020731391 1.7340001 20 20 10 255
-0.86329079 0.020921621 1.7500001 20 20 10 255
-0.86240429 0.021016266 1.7580001 21 21 11 255
-0.85757434 0.021015335 1.7580001 20 21 9 255
-0.84935212 0.020930795 1.751 20 21 9 255
-0.84744155 0.021001719 1.7570001 21 22 10 255
-0.85077643 0.021204183 1.774 21 22 10 255
-0.84877592 0.021275224 1.7800001 21 19 8 255
-0.84484887 0.021298515 1.7820001 24 21 7 255
-0.84232771 0.021357721 1.7870001 26 22 8 255
-0.83884466 0.021393087 1.7900001 43 35 18 255
-0.8348819 0.02141656 1.7920001 38 30 13 255
-0.83044767 0.021428144 1.7930001 146 140 123 255
-0.82324785 0.021368081 1.7880001 145 141 124 255
-0.81699306 0.021331979 1.7850001 163 163 145 255
-0.80893713 0.021248134 1.7780001 151 153 136 255
-0.80182606 0.021188244 1.7730001 189 192 178 255
-0.79294634 0.021080613 1.7640001 190 193 179 255
-0.78590488 0.021020835 1.7590001 192 197 186 255
-0.77978086 0.020985013 1.756 198 202 194 255
-0.77367508 0.020949243 1.7530001 195 199 191 255
-0.76714885 0.020901574 1.7490001 195 201 193 255
-0.76064616 0.020853955 1.7450001 200 206 198 255
-0.75416696 0.020806381 1.7410001 194 198 190 255
-0.74771118 0.020758858 1.7370001 150 156 148 255
-0.74085087 0.020699427 1.7320001 191 197 189 255
-0.73444432 0.020651992 1.728 197 203 195 255
-0.72848332 0.020616554 1.725 191 198 187 255
-0.72253996 0.02058116 1.7220001 154 161 149 255
-0.71703106 0.020557757 1.72 169 174 162 255
-0.71236259 0.020558301 1.72 166 171 160 255
-0.70769536 0.02055889 1.72 182 187 176 255
-0.70262057 0.020547565 1.7190001 210 214 206 255
-0.69714618 0.020524327 1.7170001 199 205 198 255
-0.69128036 0.020489171 1.7140001 218 224 217 255
-0.68463063 0.020430146 1.7090001 186 192 185 255
-0.6788047 0.020395061 1.7060001 196 202 195 255
-0.67339104 0.020371966 1.7040001 206 212 204 255
-0.66798908 0.020348907 1.702 180 186 178 255
-0.66220903 0.020313926 1.6990001 154 161 149 255
-0.65644586 0.020278974 1.6960001 150 157 145 255
-0.65185267 0.020279925 1.6960001 160 168 153 255
-0.64726007 0.020280909 1.6960001 178 186 169 255
-0.64266813 0.020281926 1.6960001 155 163 146 255
-0.6380766 0.020282974 1.6960001 151 159 142 255
-0.6338591 0.020296013 1.697 170 179 160 255
-0.6288951 0.020285163 1.6960001 176 182 165 255
-0.62393689 0.020274341 1.6950001 172 178 161 255
-0.6189844 0.020263547 1.6940001 168 174 157 255
-0.61440033 0.020264739 1.6940001 170 175 161 255
-0.60909653 0.020242034 1.692 182 186 169 255
-0.60451841 0.02024328 1.692 167 173 156 255
-0.5992313 0.020220622 1.6900001 179 185 168 255
-0.59501082 0.020233884 1.6910001 166 172 155 255
-0.58973759 0.020211274 1.6890001 186 192 175 255
-0.58516812 0.020212617 1.6890001 176 182 165 255
-0.58059865 0.020213982 1.6890001 156 162 145 255
-0.5763703 0.020227337 1.6900001 161 167 150 255
-0.57179815 0.020228749 1.6900001 165 171 154 255
-0.56722599 0.02023018 1.6900001 171 179 164 255
-0.56232077 0.020219659 1.6890001 173 181 166 255
-0.55742085 0.020209158 1.6880001 166 173 161 255
-0.55252618 0.020198671 1.687 183 190 178 255
-0.54763681 0.020188205 1.6860001 171 178 166 255
-0.54307455 0.020189727 1.6860001 170 178 163 255
-0.53883159 0.02020324 1.687 171 176 162 255
-0.53394949 0.020192819 1.6860001 159 164 150 255
-0.52938664 0.020194391 1.6860001 163 168 154 255
-0.52420068 0.020172019 1.6840001 187 195 180 255
-0.51902527 0.020149656 1.682 186 194 179 255
-0.51355451 0.020115322 1.6790001 142 150 135 255
-0.509009 0.020116942 1.6790001 171 179 164 255
-0.50416267 0.020106591 1.6780001 153 161 146 255
-0.49961892 0.020108232 1.6780001 135 143 128 255
-0.49507478 0.020109886 1.6780001 155 163 148 255
-0.4905301 0.020111548 1.6780001 158 163 149 255
-0.48540568 0.020089248 1.6760001 159 164 150 255
-0.48029149 0.020066952 1.674 158 163 149 255
-0.47547188 0.02005665 1.6730001 185 190 176 255
-0.47065702 0.020046353 1.6720001 167 175 158 255
-0.46640459 0.020060042 1.6730001 157 166 147 255
-0.46187001 0.02006175 1.6730001 146 155 136 255
-0.45706141 0.020051468 1.6720001 140 149 128 255
-0.45279893 0.020065179 1.6730001 136 145 124 255
-0.44772646 0.020042911 1.6710001 136 143 122 255
-0.44319469 0.020044636 1.6710001 139 146 125 255
-0.43866211 0.020046365 1.6710001 146 153 132 255
-0.43438864 0.020060092 1.6720001 148 154 136 255
-0.43010899 0.020073825 1.6730001 146 153 132 255
-0.42607757 0.02009956 1.6750001 135 140 119 255
-0.42178282 0.020113302 1.6760001 134 139 117 255
-0.41797981 0.020151049 1.6790001 125 131 106 255
-0.41342101 0.020152794 1.6790001 125 131 105 255
-0.41032246 0.020226562 1.6850001 134 139 108 255
-0.40719053 0.020300342 1.6910001 117 122 91 255
-0.40450132 0.020398142 1.6990001 104 107 75 255
-0.40012023 0.020411909 1.7 97 101 66 255
-0.39550018 0.020413667 1.7 83 86 54 255
-0.3899596 0.020367386 1.6960001 121 124 93 255
-0.38512152 0.020357125 1.6950001 137 140 109 255
-0.380288 0.020346854 1.6940001 115 120 89 255
-0.37612429 0.020372614 1.6960001 101 106 75 255
-0.37151074 0.020374345 1.6960001 104 108 80 255
-0.36559829 0.020303985 1.6900001 113 117 89 255
-0.35929045 0.020209577 1.682 178 184 159 255
-0.35386869 0.02016321 1.6780001 136 139 115 255
-0.34950873 0.020176914 1.6790001 74 78 52 255
-0.34555325 0.020214647 1.682 87 91 65 255
-0.34097236 0.02021632 1.682 107 110 86 255
-0.33619058 0.020205967 1.6810001 60 60 40 255
-0.33141327 0.020195596 1.6800001 29 29 11 255
-0.32644603 0.020173196 1.6780001 30 29 13 255
-0.32148874 0.020150779 1.6760001 30 27 11 255
-0.31635231 0.020116324 1.6730001 31 28 12 255
-0.31123134 0.02008185 1.6700001 34 32 21 255
-0.30667675 0.020083437 1.6700001 20 20 12 255
-0.30157852 0.020048931 1.6670001 109 110 104 255
-0.29667395 0.020026434 1.6650001 107 110 106 255
-0.29142845 0.019979862 1.6610001 64 67 64 255
-0.28654933 0.01995733 1.659 72 75 72 255
-0.28185025 0.01994681 1.6580001 76 78 78 255
-0.27732298 0.019948304 1.6580001 101 105 107 255
-0.2726303 0.01993775 1.6570001 101 105 107 255
-0.26794219 0.019927181 1.6560001 96 100 102 255
-0.26341775 0.019928627 1.6560001 83 87 89 255
-0.25889245 0.019930059 1.6560001 76 80 82 255
-0.25436628 0.019931471 1.6560001 78 80 80 255
-0.24968833 0.01992083 1.6550001 91 95 95 255
-0.24516317 0.019922208 1.6550001 76 80 80 255
-0.24063714 0.019923566 1.6550001 86 90 90 255
-0.23596764 0.019912867 1.654 83 90 89 255
-0.23130277 0.019902151 1.6530001 90 97 94 255
-0.22691695 0.019915493 1.654 91 96 93 255
-0.22265929 0.019940859 1.6560001 73 78 75 255
-0.21812645 0.019942125 1.6560001 72 77 73 255
-0.21359281 0.01994337 1.6560001 81 87 80 255
-0.20905837 0.019944593 1.6560001 82 88 81 255
-0.20477019 0.019969886 1.6580001 78 83 79 255
-0.20034949 0.019983113 1.659 75 80 76 255
-0.19556852 0.019960184 1.6570001 78 81 77 255
-0.19114362 0.019973371 1.6580001 77 80 76 255
-0.18648742 0.019962439 1.6570001 85 88 85 255
-0.18183598 0.019951485 1.6560001 84 89 86 255
-0.17718932 0.019940509 1.6550001 86 91 88 255
-0.17265177 0.019941553 1.6550001 85 90 87 255
-0.16831671 0.019966677 1.6570001 79 84 81 255
-0.16406886 0.020003827 1.6600001 75 80 77 255
-0.15980391 0.020040959 1.6630001 75 80 77 255
-0.15533514 0.020053966 1.664 76 79 75 255
-0.15104151 0.020091055 1.6670001 78 81 77 255
-0.14673077 0.020128122 1.6700001 75 78 74 255
-0.14248811 0.020177219 1.674 76 80 73 255
-0.1379758 0.020190135 1.6750001 75 79 72 255
-0.13385557 0.020263296 1.6810001 75 79 72 255
-0.13016313 0.020408764 1.6930001 71 75 67 255
-0.12662669 0.020590384 1.7080001 70 75 64 255
-0.1226504 0.020711714 1.7180001 60 62 52 255
-0.11806951 0.020736575 1.72 50 52 42 255
-0.11334533 0.020737296 1.72 59 61 51 255
-0.10862069 0.020737991 1.72 43 45 35 255
-0.10389558 0.020738656 1.72 47 49 39 255
-0.099112391 0.020727236 1.7190001 48 50 40 255
-0.094444081 0.0207399 1.72 51 53 43 255
-0.089665569 0.020728424 1.7190001 52 54 44 255
-0.084892146 0.020716915 1.7180001 58 62 55 255
-0.080077209 0.020693317 1.7160001 64 68 61 255
-0.075272918 0.020669691 1.7140001 67 70 66 255
-0.070520468 0.020658094 1.7130001 64 69 66 255
-0.065773211 0.020646468 1.7120001 66 71 68 255
-0.061066829 0.02064687 1.7120001 69 72 69 255
-0.056393109 0.020659303 1.7130001 71 74 71 255
-0.051834334 0.020719951 1.7180001 67 73 66 255
-0.047247838 0.020780569 1.723 70 76 69 255
-0.042608973 0.0208291 1.7270001 65 71 64 255
-0.037860226 0.020829355 1.7270001 62 68 61 255
-0.033092145 0.020817522 1.7260001 66 72 65 255
-0.028313 0.020793596 1.7240001 67 71 64 255
-0.023572072 0.020793764 1.7240001 68 72 65 255
-0.018841961 0.020805957 1.725 67 71 64 255
-0.014122619 0.020842249 1.728 69 73 66 255
-0.0093867136 0.020878509 1.7310001 67 71 64 255
-0.0046396111 0.020938862 1.7360001 68 72 65 255
0.00013478026 0.020962998 1.738 67 71 64 255
0.0049229995 0.020999169 1.7410001 69 73 66 255
0.0097221201 0.021023244 1.743 70 74 67 255
0.014548856 0.021071412 1.7470001 67 73 66 255
0.01938645 0.021107489 1.7500001 69 75 68 255
0.0242128 0.02111941 1.751 74 79 75 255
0.029011387 0.021107178 1.7500001 76 81 77 255
0.033823684 0.021106979 1.7500001 77 82 79 255
0.03854752 0.021058504 1.7460001 72 77 74 255
0.043298837 0.021034116 1.7440001 74 79 76 255
0.048011396 0.020997643 1.7410001 66 71 68 255
0.052767906 0.020985264 1.7400001 57 62 59 255
0.057353295 0.020912549 1.7340001 52 57 54 255
0.73059672 0.02121626 1.7750001 170 175 181 255
0.73371708 0.020891881 1.748 163 168 174 255
0.73254973 0.020724095 1.7340001 157 162 168 255
0.73385876 0.020628067 1.7260001 135 140 146 255
0.73427004 0.020508187 1.7160001 150 155 161 255
0.73548967 0.020412263 1.7080001 158 163 169 255
0.73493397 0.02026858 1.6960001 156 161 167 255
0.73518676 0.020148851 1.6860001 158 164 167 255
0.73582548 0.020041123 1.677 157 163 166 255
0.73774153 0.019969298 1.6710001 159 164 170 255
0.73918223 0.019885566 1.664 162 167 173 255
0.74058688 0.01980189 1.6570001 164 169 175 255
0.74105591 0.019694364 1.6480001 171 176 182 255
0.74147755 0.019586882 1.6390001 174 179 185 255
0.74230736 0.019491404 1.631 177 182 188 255
0.74263781 0.019384028 1.6220001 179 184 190 255
0.74199992 0.019252798 1.6110001 182 187 193 255
0.7413041 0.019121615 1.6 185 190 196 255
0.7414825 0.019014388 1.5910001 185 190 196 255
0.74348909 0.018955015 1.5860001 188 193 200 255
0.74405622 0.018859839 1.5780001 189 194 201 255
0.74268478 0.018716905 1.5660001 190 194 204 255
0.74220407 0.018597923 1.5560001 190 194 204 255
0.74167103 0.018478991 1.5460001 196 201 208 255
0.74253321 0.018395966 1.539 194 199 206 255
0.74238914 0.018289084 1.5300001 197 201 211 255
0.74219829 0.018182252 1.521 197 201 211 255
0.74343294 0.018111331 1.5150001 197 201 211 255
0.74315691 0.018004598 1.506 196 200 210 255
-0.94186741 0.015711432 1.6990001 31 32 20 255
-0.92662412 0.015533688 1.6800001 25 26 14 255
-0.90520799 0.015326441 1.6580001 21 22 10 255
-0.90763581 0.015444783 1.6710001 20 20 10 255
-0.90567285 0.015489226 1.6760001 17 17 7 255
-0.92306966 0.015947869 1.7260001 20 20 10 255
-0.89113289 0.015475061 1.6750001 23 21 10 255
-0.90341127 0.015769161 1.7070001 21 19 8 255
-0.89919561 0.015776914 1.7080001 22 20 9 255
-0.88031584 0.015526114 1.6810001 21 21 11 255
-0.90795118 0.016097371 1.743 22 22 12 255
-0.89638644 0.015975993 1.7300001 19 19 9 255
-0.88489777 0.015854692 1.7170001 21 21 11 255
-0.86323291 0.015548804 1.6840001 21 21 11 255
-0.8881501 0.016083183 1.7420001 22 22 12 255
-0.88536817 0.016119016 1.7460001 19 19 9 255
-0.88206381 0.016145673 1.7490001 17 17 7 255
-0.87573707 0.016116999 1.7460001 20 20 10 255
-0.86793387 0.016060689 1.7400001 22 20 10 255
-0.85719097 0.015949063 1.728 19 19 9 255
-0.86131662 0.016114382 1.7460001 18 18 8 255
-0.86338443 0.016242821 1.7600001 21 21 11 255
-0.8561101 0.01619596 1.7550001 21 22 10 255
-0.84692591 0.016112242 1.7460001 19 20 8 255
-0.84406459 0.016148543 1.7500001 20 21 9 255
-0.84502089 0.016258711 1.7620001 21 22 10 255
-0.84448373 0.016341237 1.771 24 20 9 255
-0.84721887 0.016488399 1.7870001 24 21 7 255
-0.84327 0.016506426 1.789 29 23 7 255
-0.83837563 0.016506048 1.789 44 36 19 255
-0.8339498 0.016514946 1.7900001 37 29 12 255
-0.82905787 0.016514663 1.7900001 146 141 121 255
-0.82232672 0.016477522 1.7860001 147 144 124 255
-0.81607747 0.016449653 1.7830001 161 159 141 255
-0.80848199 0.016394151 1.7770001 144 146 129 255
-0.80137366 0.016347921 1.7720001 193 196 182 255
-0.7938453 0.016292505 1.766 192 195 183 255
-0.78724527 0.016255585 1.7620001 191 196 185 255
-0.78111309 0.016227931 1.7590001 196 200 192 255
-0.77499926 0.016200319 1.756 192 196 188 255
-0.76934218 0.016181972 1.7540001 201 207 199 255
-0.76238996 0.016135983 1.7490001 198 204 196 255
-0.75546676 0.016090032 1.7440001 190 194 186 255
-0.74900287 0.016053349 1.7400001 139 145 137 255
-0.7429899 0.016025921 1.7370001 177 184 173 255
-0.7357198 0.01597085 1.7310001 213 218 207 255
-0.72975063 0.015943496 1.728 203 208 196 255
-0.72254044 0.015888492 1.7220001 155 160 146 255
-0.71744835 0.015879652 1.7210001 163 168 154 255
-0.71236306 0.015870845 1.72 168 173 161 255
-0.70810735 0.015880531 1.7210001 175 180 169 255
-0.70343858 0.015881017 1.7210001 206 210 202 255
-0.69877094 0.015881533 1.7210001 194 200 193 255
-0.69289428 0.015854396 1.7180001 220 226 219 255
-0.6862337 0.01580883 1.7130001 206 212 205 255
-0.67920333 0.015754061 1.7070001 194 200 193 255
-0.673787 0.015736233 1.705 199 205 198 255
-0.66838235 0.015718434 1.7030001 206 212 205 255
-0.66220981 0.015682198 1.6990001 176 183 172 255
-0.65605956 0.015645985 1.6950001 175 182 170 255
-0.65223789 0.015665181 1.697 157 165 150 255
-0.64764255 0.015665943 1.697 162 170 153 255
-0.6438058 0.015685195 1.6990001 162 170 153 255
-0.63845384 0.015667541 1.697 156 165 146 255
-0.63386011 0.015668374 1.697 155 164 145 255
-0.62852526 0.015650766 1.6950001 162 171 152 255
-0.62356979 0.015642412 1.6940001 163 169 152 255
-0.61898541 0.015643314 1.6940001 168 174 157 255
-0.61403877 0.015635001 1.6930001 162 168 151 255
-0.60945767 0.015635945 1.6930001 175 181 164 255
-0.60451949 0.015627669 1.692 162 168 150 255
-0.59958708 0.015619417 1.6910001 171 177 159 255
-0.5953638 0.015629655 1.692 169 175 157 255
-0.59043711 0.01562144 1.6910001 175 181 163 255
-0.58586222 0.015622478 1.6910001 176 182 164 255
-0.58094364 0.015614295 1.6900001 179 185 167 255
-0.57637161 0.015615368 1.6900001 165 171 154 255
-0.57247609 0.015634937 1.692 169 175 158 255
-0.56789857 0.015636045 1.692 161 169 154 255
-0.56298798 0.015627926 1.6910001 174 182 167 255
-0.55808264 0.015619821 1.6900001 172 180 165 255
-0.55252749 0.015593242 1.687 177 184 172 255
-0.54796284 0.015594404 1.687 171 178 166 255
-0.54339802 0.015595581 1.687 166 174 159 255
-0.53947181 0.015615262 1.6890001 179 184 170 255
-0.53458428 0.015607219 1.6880001 163 168 154 255
-0.53001595 0.015608433 1.6880001 171 176 162 255
-0.52482474 0.015591164 1.6860001 189 194 180 255
-0.5190267 0.015555407 1.682 190 195 181 255
-0.51386184 0.015538151 1.6800001 158 166 151 255
-0.50901043 0.015530154 1.6790001 165 173 158 255
-0.50476497 0.015540664 1.6800001 165 170 156 255
-0.50021589 0.015541934 1.6800001 132 140 125 255
-0.4956663 0.015543211 1.6800001 158 166 151 255
-0.49082389 0.015535244 1.6790001 163 168 154 255
-0.48569676 0.015518031 1.677 156 161 147 255
-0.48029298 0.015491566 1.674 158 164 147 255
-0.47547334 0.015483613 1.6730001 179 187 170 255
-0.47037703 0.01546641 1.6710001 170 179 160 255
-0.46640608 0.015486233 1.6730001 154 163 144 255
-0.46187147 0.015487551 1.6730001 164 173 154 255
-0.45733628 0.015488875 1.6730001 153 162 141 255
-0.45252976 0.01548094 1.6720001 150 159 138 255
-0.44799593 0.015482271 1.6720001 137 144 123 255
-0.44346139 0.015483603 1.6720001 141 148 127 255
-0.4386636 0.015475678 1.6710001 138 144 126 255
-0.43465 0.015495539 1.6730001 139 145 127 255
-0.43036762 0.015506142 1.674 142 148 130 255
-0.42658785 0.015535275 1.677 134 141 120 255
-0.42203602 0.01553662 1.677 135 140 118 255
-0.41798136 0.015556497 1.6790001 130 136 111 255
-0.41366878 0.015567111 1.6800001 129 135 109 255
-0.41008052 0.015605528 1.6840001 132 137 106 255
-0.40695128 0.015662484 1.6900001 123 128 97 255
-0.40378866 0.015719449 1.6960001 106 109 77 255
-0.39965108 0.015739344 1.6980001 92 95 63 255
-0.39503646 0.015740702 1.6980001 83 86 54 255
-0.38996118 0.015723513 1.6960001 137 142 111 255
-0.38489586 0.015706319 1.6940001 130 135 104 255
-0.38006505 0.015698392 1.6930001 119 124 93 255
-0.37590402 0.015718276 1.6950001 106 111 80 255
-0.37151229 0.015728889 1.6960001 102 107 76 255
-0.36538354 0.015665296 1.6890001 114 119 88 255
-0.35950556 0.015610965 1.6830001 178 182 156 255
-0.35408112 0.015575171 1.6790001 129 133 107 255
-0.34992653 0.015595028 1.6810001 94 98 70 255
-0.34555474 0.015605603 1.682 87 91 65 255
-0.34056839 0.015588338 1.6800001 130 131 107 255
-0.33599204 0.015589623 1.6800001 86 87 65 255
-0.33141473 0.015590898 1.6800001 21 23 5 255
-0.32664201 0.015582887 1.6790001 30 30 12 255
-0.32168198 0.015565581 1.677 32 29 13 255
-0.31654283 0.015538984 1.674 32 29 15 255
-0.31160548 0.015521656 1.6720001 33 31 20 255
-0.30667815 0.015504315 1.6700001 19 19 11 255
-0.30157989 0.015477677 1.6670001 89 90 84 255
-0.29649711 0.015451024 1.664 103 106 102 255
-0.29125431 0.015415071 1.6600001 64 67 64 255
-0.28637794 0.015397675 1.6580001 70 72 72 255
-0.28185156 0.015398841 1.6580001 81 83 83 255
-0.27715704 0.015390707 1.6570001 105 107 109 255
-0.27246708 0.015382561 1.6560001 104 106 108 255
-0.2679435 0.015383692 1.6560001 101 103 105 255
-0.26357809 0.015394096 1.6570001 76 80 80 255
-0.25905004 0.015395203 1.6570001 75 79 79 255
-0.2545211 0.015396293 1.6570001 75 79 79 255
-0.24968956 0.015378788 1.6550001 91 95 95 255
-0.2453125 0.015389144 1.6560001 79 84 81 255
-0.24049294 0.015371609 1.654 85 90 87 255
-0.23582616 0.015363351 1.6530001 83 88 85 255
-0.23116399 0.015355074 1.6520001 87 94 91 255
-0.22691809 0.01537467 1.654 92 97 93 255
-0.22266042 0.015394255 1.6560001 78 83 80 255
-0.21825927 0.015404527 1.6570001 71 76 72 255
-0.21372287 0.015405488 1.6570001 80 85 81 255
-0.20931192 0.015415732 1.6580001 80 85 81 255
-0.20477124 0.015416663 1.6580001 79 82 78 255
-0.20035055 0.015426876 1.659 78 81 77 255
-0.19556955 0.015409174 1.6570001 75 78 74 255
-0.19102933 0.015410053 1.6570001 82 85 81 255
-0.18637586 0.015401616 1.6560001 85 90 86 255
-0.18194674 0.01541176 1.6570001 90 95 91 255
-0.17729732 0.015403287 1.6560001 84 89 85 255
-0.17286134 0.015413397 1.6570001 81 86 82 255
-0.16852076 0.015432794 1.659 78 83 79 255
-0.16446508 0.015480082 1.664 76 79 75 255
-0.15999694 0.015490141 1.6650001 78 81 77 255
-0.15570939 0.015518792 1.6680001 75 78 74 255
-0.15140475 0.015547427 1.6710001 76 79 75 255
-0.14708303 0.015576044 1.674 74 78 71 255
-0.14265914 0.015595339 1.6760001 72 78 71 255
-0.13814129 0.015605309 1.677 71 77 70 255
-0.1338563 0.015643178 1.6810001 73 77 69 255
-0.13001008 0.015736869 1.6910001 72 76 68 255
-0.12647912 0.015877077 1.7060001 69 73 65 255
-0.12265106 0.015989356 1.7180001 60 62 54 255
-0.1181388 0.016017856 1.7210001 39 41 33 255
-0.11334595 0.016009105 1.72 48 50 40 255
-0.10868444 0.016018949 1.7210001 56 58 48 255
-0.10401697 0.016028771 1.7220001 48 51 39 255
-0.099285915 0.016029265 1.7220001 47 50 38 255
-0.094664253 0.016048353 1.7240001 50 52 42 255
-0.089926869 0.0160488 1.7240001 50 52 42 255
-0.085189104 0.016049229 1.7240001 53 55 47 255
-0.080310985 0.016021704 1.7210001 57 61 54 255
-0.075492926 0.016003465 1.7190001 62 65 61 255
-0.070726708 0.015994513 1.7180001 64 67 63 255
-0.065965675 0.015985539 1.7170001 67 70 66 255
-0.061245531 0.01598585 1.7170001 71 74 70 255
-0.056590956 0.016004764 1.7190001 68 74 67 255
-0.05204583 0.016060892 1.725 65 71 64 255
-0.047440056 0.016107691 1.7300001 64 70 63 255
-0.042781916 0.016145157 1.7340001 66 72 65 255
-0.038013898 0.016145358 1.7340001 61 67 60 255
-0.033207372 0.01612691 1.7320001 63 69 62 255
-0.028444542 0.016127063 1.7320001 67 71 64 255
-0.023667915 0.016117878 1.7310001 68 72 65 255
-0.018940378 0.016145919 1.7340001 65 69 62 255
-0.014196256 0.016173936 1.7370001 66 70 63 255
-0.0094409948 0.01621124 1.7410001 68 72 65 255
-0.0046610185 0.016239207 1.7440001 68 72 65 255
0.00013547899 0.016267156 1.7470001 66 72 65 255
0.0049456493 0.016285764 1.7490001 65 69 62 255
0.0097667975 0.016304351 1.751 67 71 64 255
0.014598905 0.016322915 1.7530001 67 70 66 255
0.019453026 0.016350763 1.756 68 71 68 255
0.024309736 0.016369279 1.7580001 59 64 61 255
0.029144179 0.016369147 1.7580001 58 62 62 255
0.033920515 0.016341057 1.7550001 56 60 60 255
0.73255008 0.015998835 1.7340001 161 166 172 255
0.7334339 0.015915476 1.725 162 167 173 255
0.73427039 0.015832156 1.7160001 158 163 169 255
0.73462874 0.01573965 1.7060001 157 162 168 255
0.73406756 0.015628729 1.6940001 159 164 170 255
0.73518693 0.015554748 1.6860001 157 162 168 255
0.73582566 0.01547158 1.677 159 164 170 255
0.73774159 0.01541613 1.6710001 161 166 172 255
0.73873818 0.015342267 1.6630001 164 169 175 255
0.73924601 0.015259216 1.654 164 169 175 255
0.73970675 0.015176204 1.6450001 170 175 181 255
0.74012029 0.015093229 1.636 174 179 185 255
0.74185222 0.015037972 1.6300001 176 181 187 255
0.74263763 0.014964302 1.6220001 179 184 190 255
0.74338144 0.01489067 1.6140001 181 186 192 255
0.74223053 0.014780174 1.6020001 185 190 196 255
0.74194831 0.014688168 1.5920001 187 192 198 255
0.74208242 0.014605425 1.5830001 188 193 200 255
0.74358422 0.014550401 1.577 189 194 201 255
0.74315852 0.014458511 1.567 190 194 204 255
0.74315757 0.014375885 1.5580001 189 193 203 255
0.74263 0.014284069 1.5480001 194 199 206 255
0.74253261 0.014201519 1.539 195 199 209 255
0.74238849 0.014119007 1.5300001 196 200 210 255
0.74219757 0.014036532 1.521 197 201 211 255
0.74245083 0.013963326 1.5130001 196 200 210 255
0.74315619 0.013899383 1.506 195 199 209 255
-0.88587469 0.010412889 1.598 22 23 11 255
-0.91972244 0.010918331 1.6760001 21 22 10 255
-0.92813671 0.01107332 1.7 21 22 10 255
-0.91741133 0.011000368 1.6890001 20 21 9 255
-0.8856774 0.0106735 1.6390001 20 21 9 255
-0.89472383 0.010892562 1.6730001 22 20 9 255
-0.92039269 0.01126253 1.7300001 23 21 10 255
-0.91028994 0.011196331 1.72 24 22 11 255
-0.89708847 0.011091137 1.7040001 21 19 8 255
-0.88136196 0.010953465 1.6830001 21 22 10 255
-0.8834672 0.011037121 1.6960001 18 18 8 255
-0.8886131 0.011159847 1.715 18 18 8 255
-0.88850433 0.011217528 1.7240001 17 19 9 255
-0.88988751 0.01129476 1.7360001 18 20 10 255
-0.87795228 0.011202874 1.7220001 17 19 9 255
-0.88384598 0.011338723 1.743 17 19 9 255
-0.88559324 0.011422558 1.756 19 19 9 255
-0.88125348 0.011428367 1.7570001 21 21 11 255
-0.87342 0.011388686 1.751 20 20 10 255
-0.86115879 0.011290515 1.7360001 19 19 9 255
-0.86624897 0.01142001 1.756 18 18 8 255
-0.86632711 0.011484499 1.766 23 23 13 255
-0.85757297 0.011431971 1.7580001 19 19 9 255
-0.84692544 0.011353469 1.7460001 18 19 7 255
-0.84406412 0.011379049 1.7500001 21 22 10 255
-0.84118372 0.011404662 1.7540001 20 21 9 255
-0.84829807 0.011566848 1.779 23 21 10 255
-0.84911489 0.011644537 1.7910001 27 23 7 255
-0.84468371 0.011650737 1.7920001 33 27 11 255
-0.83837533 0.011630968 1.789 43 35 18 255
-0.83301777 0.011624235 1.7880001 40 32 15 255
