ply
format ascii 1.0
comment PCL generated
element vertex 973
property float x
property float y
property float z
property uchar red
property uchar green
property uchar blue
property uchar alpha
element camera 0
property float view_px
property float view_py
property float view_pz
property float x_axisx
property float x_axisy
property float x_axisz
property float y_axisx
property float y_axisy
property float y_axisz
property float z_axisx
property float z_axisy
property float z_axisz
property float focal
property float scalex
property float scaley
property float centerx
property float centery
property int viewportx
property int viewporty
property float k1
property float k2
end_header
0.10208909 -0.05153051 1.766 80 84 76 255
0.10700125 -0.051558111 1.7670001 86 88 80 255
0.11191842 -0.051585637 1.7680001 82 84 76 255
0.11684064 -0.051613089 1.7690001 83 85 75 255
0.12169906 -0.051611297 1.7690001 82 86 78 255
0.1264139 -0.051551089 1.7670001 85 89 81 255
0.13126579 -0.051549159 1.7670001 88 92 84 255
0.1361942 -0.051576342 1.7680001 84 90 82 255
0.1411275 -0.051603448 1.7690001 80 86 78 255
0.14606576 -0.051630493 1.7700001 79 86 75 255
0.15126467 -0.051744964 1.774 78 85 74 255
0.15639694 -0.051830202 1.7770001 76 83 72 255
0.16145428 -0.051886193 1.779 80 85 74 255
0.16614795 -0.05182546 1.7770001 78 83 72 255
0.17121497 -0.051881324 1.779 76 81 70 255
0.17599532 -0.051849637 1.7780001 76 81 70 255
0.18097293 -0.051876202 1.779 73 78 67 255
0.18564194 -0.051815238 1.7770001 72 76 68 255
0.19062087 -0.05184168 1.7780001 70 74 66 255
0.1952747 -0.0517806 1.7760001 69 73 66 255
0.20002951 -0.051748618 1.7750001 72 76 69 255
0.20500892 -0.051774882 1.7760001 67 73 66 255
0.2097567 -0.051742788 1.7750001 94 100 93 255
0.21413548 -0.051623192 1.771 91 97 89 255
0.2188625 -0.051590998 1.7700001 82 88 80 255
0.22472073 -0.051821068 1.7780001 79 83 75 255
0.23126759 -0.052196763 1.7910001 78 83 72 255
0.23722547 -0.052426659 1.7990001 77 82 71 255
0.24174568 -0.052335929 1.7960001 74 79 68 255
0.24556185 -0.052099455 1.7880001 74 79 67 255
0.24961358 -0.051921245 1.7820001 71 76 65 255
0.25391716 -0.051801272 1.7780001 70 75 64 255
0.25863466 -0.051768664 1.7770001 69 74 63 255
0.26349404 -0.051765144 1.7770001 73 80 69 255
0.26910761 -0.051907223 1.7820001 77 83 75 255
0.27474755 -0.052049231 1.7870001 76 82 74 255
0.28041393 -0.052191179 1.7920001 75 81 73 255
0.28562912 -0.052245699 1.794 72 76 68 255
0.2906923 -0.052271042 1.7950001 72 76 68 255
0.29592466 -0.052325454 1.7970001 71 77 69 255
0.3023389 -0.052583639 1.8060001 76 80 72 255
0.30982214 -0.05301642 1.8210001 75 80 69 255
0.31634909 -0.053274434 1.83 73 78 67 255
0.32064143 -0.053153943 1.8260001 62 67 56 255
0.3247326 -0.053004324 1.8210001 50 53 41 255
0.32915768 -0.05291291 1.8180001 46 49 37 255
0.33374909 -0.052850574 1.8160001 59 61 51 255
0.33851516 -0.052817315 1.8150001 69 71 61 255
0.34308553 -0.052754927 1.8130001 68 73 62 255
0.34802797 -0.052750714 1.8130001 70 74 66 255
0.35296947 -0.052746478 1.8130001 72 76 68 255
0.35790986 -0.052742202 1.8130001 71 77 70 255
0.3626492 -0.05270882 1.812 72 78 71 255
0.36758497 -0.052704502 1.812 72 78 71 255
0.37272534 -0.052729242 1.8130001 69 75 67 255
0.37766188 -0.052724879 1.8130001 71 78 67 255
0.38301945 -0.052778646 1.8150001 72 79 68 255
0.38795945 -0.052774236 1.8150001 72 79 68 255
0.39311504 -0.052798878 1.8160001 70 77 65 255
0.39783663 -0.052765358 1.8150001 71 78 66 255
0.40232995 -0.052702755 1.8130001 71 78 66 255
0.40681142 -0.052640151 1.8110001 70 77 66 255
0.41105375 -0.052548479 1.8080001 69 76 65 255
0.4155089 -0.052485868 1.8060001 74 81 70 255
0.42018503 -0.052452326 1.8050001 73 80 69 255
0.42532584 -0.052476887 1.8060001 72 79 68 255
0.42999467 -0.052443326 1.8050001 75 82 71 255
0.43465725 -0.052409772 1.8040001 74 81 70 255
0.4393135 -0.052376211 1.8030001 77 83 75 255
0.44420975 -0.052371703 1.8030001 74 80 72 255
0.44910526 -0.052367199 1.8030001 77 83 75 255
0.45425171 -0.05239173 1.8040001 77 83 75 255
0.45914814 -0.052387223 1.8040001 74 80 72 255
0.46378654 -0.052353673 1.8030001 73 79 71 255
0.46815884 -0.05229111 1.8010001 78 84 76 255
0.47330737 -0.052315652 1.802 77 83 76 255
0.47846064 -0.052340202 1.8030001 78 82 75 255
0.48388657 -0.052393779 1.8050001 71 75 68 255
0.48959348 -0.052476384 1.8080001 74 75 69 255
0.49558941 -0.052588005 1.812 71 73 65 255
0.50188255 -0.052728646 1.817 71 73 65 255
0.50792319 -0.052840263 1.8210001 74 76 68 255
0.51342154 -0.05289384 1.8230001 73 75 67 255
0.51836139 -0.052889407 1.8230001 68 72 64 255
0.52243936 -0.052797962 1.8200001 64 68 60 255
0.52650058 -0.052706551 1.817 65 69 62 255
0.53025246 -0.052586183 1.8130001 68 72 65 255
0.5348677 -0.052552864 1.812 72 76 69 255
0.53977484 -0.052548572 1.812 71 75 68 255
0.54558319 -0.052631304 1.8150001 70 74 67 255
0.55292398 -0.052859038 1.8230001 68 72 65 255
0.55969548 -0.053028774 1.8290001 50 54 47 255
0.56464684 -0.053024575 1.8290001 55 61 54 255
0.56897479 -0.05296243 1.8270001 60 66 58 255
0.5732916 -0.052900329 1.825 62 68 60 255
0.5772804 -0.052809298 1.8220001 19 25 17 255
0.58061349 -0.052660353 1.817 73 78 67 255
0.58359706 -0.052482493 1.8110001 69 73 65 255
0.5875228 -0.052391641 1.8080001 69 73 65 255
0.59175962 -0.052329816 1.8060001 71 75 67 255
0.59565514 -0.052239075 1.8030001 71 77 69 255
0.60020041 -0.052206337 1.802 74 80 72 255
0.60406864 -0.05211572 1.7990001 72 79 68 255
0.60893595 -0.052112069 1.7990001 69 75 67 255
0.61346203 -0.052079506 1.7980001 64 70 62 255
0.61901432 -0.052133888 1.8000001 61 67 59 255
0.62353766 -0.052101437 1.7990001 68 74 66 255
0.62910366 -0.052155931 1.8010001 68 75 64 255
0.63397652 -0.052152563 1.8010001 70 75 64 255
0.63849473 -0.052120302 1.8000001 76 78 68 255
0.64265043 -0.052059159 1.7980001 47 49 39 255
0.64679539 -0.051998086 1.7960001 23 23 13 255
0.65455818 -0.052226592 1.8040001 24 24 14 255
0.65944016 -0.052223545 1.8040001 22 24 14 255
0.66137666 -0.051989004 1.7960001 21 23 13 255
0.66401201 -0.051812451 1.7900001 21 24 12 255
0.66586798 -0.051578097 1.7820001 14 19 7 255
0.66805756 -0.051372796 1.7750001 12 17 5 255
0.67248422 -0.051341236 1.774 4 9 0 255
0.67652422 -0.051280823 1.7720001 2 7 0 255
0.68093842 -0.05124943 1.771 76 81 70 255
0.68379921 -0.051102381 1.766 27 32 21 255
0.69209224 -0.051360529 1.7750001 24 29 18 255
0.70279062 -0.051792346 1.7900001 27 32 21 255
0.72147757 -0.052802872 1.825 120 127 116 255
0.72921014 -0.05300333 1.8320001 114 121 109 255
0.73056954 -0.052740961 1.8230001 109 116 104 255
0.73268801 -0.052536577 1.8160001 110 117 105 255
0.73558199 -0.052390166 1.8110001 105 114 102 255
0.73722321 -0.052157078 1.8030001 98 107 96 255
0.73882216 -0.051924109 1.7950001 102 109 98 255
0.74037898 -0.051691256 1.7870001 94 100 92 255
0.74105948 -0.051400669 1.7770001 102 110 102 255
0.74042791 -0.051023431 1.7640001 114 122 115 255
0.74057198 -0.05070417 1.7530001 123 131 124 255
0.74065751 -0.050385024 1.7420001 147 155 148 255
0.74282438 -0.050210621 1.7360001 157 165 158 255
0.74237639 -0.049862806 1.7240001 158 166 159 255
0.74316472 -0.049601879 1.715 158 166 159 255
0.74216157 -0.049225379 1.702 163 170 166 255
0.74459946 -0.049080379 1.697 169 176 173 255
0.74612892 -0.048877664 1.6900001 170 177 174 255
0.74806631 -0.048703983 1.6840001 175 182 181 255
0.74818504 -0.048414744 1.674 180 187 186 255
0.75004989 -0.048241314 1.6680001 181 188 185 255
0.75052673 -0.04798124 1.659 183 190 187 255
0.75323218 -0.047865897 1.6550001 185 192 189 255
0.75454426 -0.047663912 1.6480001 185 192 189 255
0.75766259 -0.047577746 1.6450001 186 193 192 255
0.75706023 -0.047260314 1.6340001 186 193 192 255
0.7568661 -0.04697194 1.6240001 186 193 192 255
0.75380683 -0.046510134 1.608 187 194 191 255
0.75537771 -0.046337694 1.6020001 188 195 192 255
0.75644374 -0.04613645 1.595 189 196 193 255
0.75795114 -0.045964267 1.5890001 189 196 193 255
0.7565496 -0.045618638 1.577 189 196 192 255
0.75653243 -0.045359917 1.5680001 190 197 194 255
0.75646853 -0.045101319 1.559 191 198 195 255
0.75635797 -0.044842839 1.5500001 192 199 196 255
0.75571001 -0.044555545 1.5400001 189 196 193 255
0.7555033 -0.0442973 1.531 192 199 198 255
0.75376129 -0.043952372 1.5190001 193 200 199 255
0.75445122 -0.043752242 1.5120001 194 201 200 255
0.75360042 -0.043465417 1.5020001 195 202 201 255
-0.77845627 -0.05988631 1.8920001 235 239 231 255
-0.7704618 -0.059666514 1.8850001 225 230 219 255
-0.76210058 -0.059415177 1.8770001 239 246 235 255
-0.75338036 -0.059132271 1.868 236 243 232 255
-0.74230665 -0.058659524 1.853 234 243 232 255
-0.73370266 -0.0583768 1.8440001 226 234 226 255
-0.72396278 -0.05799919 1.8320001 212 220 212 255
-0.71664351 -0.057811595 1.8260001 203 211 203 255
-0.70974755 -0.057655763 1.8210001 205 214 203 255
-0.70326638 -0.057531666 1.817 224 231 220 255
-0.69719207 -0.057439331 1.8140001 225 232 220 255
-0.69037133 -0.057283744 1.8090001 226 233 221 255
-0.68357831 -0.057128236 1.8040001 223 230 218 255
-0.67530805 -0.056846116 1.7950001 223 230 218 255
-0.66746056 -0.056595732 1.7870001 222 229 217 255
-0.6607694 -0.056440417 1.7820001 217 225 210 255
-0.65484172 -0.056348521 1.779 213 219 202 255
-0.64893079 -0.056256689 1.7760001 208 214 197 255
-0.64267373 -0.056133252 1.7720001 208 214 196 255
-0.63679862 -0.05604155 1.7690001 208 214 196 255
-0.62951088 -0.055823188 1.7620001 213 219 201 255
-0.62438864 -0.055794969 1.761 215 221 203 255
-0.61821634 -0.055671755 1.7570001 207 213 195 255
-0.61346263 -0.055675358 1.7570001 208 215 194 255
-0.60766947 -0.055583939 1.7540001 200 207 185 255
-0.60292381 -0.055587649 1.7540001 194 200 174 255
-0.59817833 -0.055591427 1.7540001 206 213 182 255
-0.59343272 -0.05559526 1.7540001 126 131 99 255
-0.58868712 -0.055599157 1.7540001 153 157 122 255
-0.5839414 -0.055603102 1.7540001 159 163 127 255
-0.57919556 -0.055607107 1.7540001 154 156 120 255
-0.57510465 -0.055674568 1.756 152 154 118 255
-0.57067782 -0.055710386 1.7570001 152 154 116 255
-0.56656748 -0.055777963 1.7590001 147 149 111 255
-0.56212682 -0.05581389 1.7600001 150 153 113 255
-0.55831373 -0.055913296 1.7630001 148 151 111 255
-0.55448407 -0.056012753 1.766 148 151 111 255
-0.55063784 -0.056112267 1.7690001 153 156 116 255
-0.5461579 -0.056148395 1.7700001 152 155 115 255
-0.541978 -0.056216288 1.7720001 155 158 116 255
-0.53718054 -0.056220777 1.7720001 153 156 116 255
-0.53298354 -0.056288749 1.774 153 156 116 255
-0.52788204 -0.05626158 1.7730001 156 159 117 255
-0.52337545 -0.056297902 1.774 157 160 120 255
-0.51857066 -0.056302518 1.774 155 159 121 255
-0.51347566 -0.056275416 1.7730001 159 164 124 255
-0.50895935 -0.056311835 1.774 159 166 126 255
-0.50415283 -0.056316521 1.774 152 159 120 255
-0.49906427 -0.056289494 1.7730001 138 144 108 255
-0.49398041 -0.056262471 1.7720001 141 147 111 255
-0.48862526 -0.056203716 1.7700001 144 149 117 255
-0.48355368 -0.056176718 1.7690001 142 147 116 255
-0.47794554 -0.056086212 1.766 158 165 134 255
-0.47235301 -0.055995714 1.7630001 174 181 152 255
-0.46624556 -0.055841673 1.7580001 178 187 156 255
-0.46042699 -0.055719383 1.7540001 165 172 143 255
-0.45462936 -0.055597086 1.7500001 163 170 139 255
-0.450138 -0.055633619 1.751 152 159 128 255
-0.44513178 -0.05560663 1.7500001 151 158 127 255
-0.4408851 -0.055674963 1.7520001 145 152 121 255
-0.43588001 -0.055647969 1.751 147 154 123 255
-0.4311257 -0.055652756 1.751 144 151 120 255
-0.42612702 -0.055625748 1.7500001 142 149 118 255
-0.42185536 -0.055694111 1.7520001 143 148 117 255
-0.41709581 -0.05569889 1.7520001 141 146 115 255
-0.41257074 -0.055735461 1.7530001 142 146 118 255
-0.40757409 -0.055708431 1.7520001 143 150 121 255
-0.40258196 -0.055681389 1.751 141 148 119 255
-0.39782164 -0.055686135 1.751 141 148 119 255
-0.39306039 -0.055690866 1.751 141 148 119 255
-0.38829815 -0.055695582 1.751 137 144 115 255
-0.38375416 -0.055732101 1.7520001 138 145 116 255
-0.37877113 -0.055704974 1.751 156 164 138 255
-0.37421981 -0.055741463 1.7520001 155 163 137 255
-0.36902946 -0.05568248 1.7500001 165 173 147 255
-0.36384901 -0.055623457 1.748 181 189 163 255
-0.35867861 -0.055564407 1.7460001 165 174 145 255
-0.35412627 -0.055600815 1.7470001 142 151 120 255
-0.34996751 -0.05570085 1.7500001 159 166 135 255
-0.34658042 -0.055928197 1.7570001 142 149 117 255
-0.3433488 -0.056187391 1.7650001 120 125 93 255
-0.33968896 -0.056382921 1.771 110 116 81 255
-0.33505008 -0.056419253 1.7720001 109 115 80 255
-0.33040485 -0.056455575 1.7730001 100 105 73 255
-0.32556948 -0.056460004 1.7730001 100 107 78 255
-0.32000959 -0.056337014 1.7690001 110 116 91 255
-0.31393608 -0.056118429 1.7620001 28 32 14 255
-0.30825064 -0.055963468 1.7570001 27 31 13 255
-0.30276433 -0.055840302 1.7530001 30 30 12 255
-0.29746887 -0.055748936 1.7500001 30 30 12 255
-0.29285786 -0.055784944 1.751 32 30 12 255
-0.28840497 -0.055852789 1.7530001 31 29 11 255
-0.2837784 -0.055888716 1.7540001 30 28 10 255
-0.27866834 -0.055829026 1.7520001 31 29 11 255
-0.27388093 -0.055833004 1.7520001 34 32 14 255
-0.26924619 -0.055868812 1.7530001 31 30 14 255
-0.26460505 -0.055904575 1.7540001 16 17 3 255
-0.25980943 -0.055908419 1.7540001 102 107 96 255
-0.25486758 -0.055880334 1.7530001 47 53 45 255
-0.24978761 -0.05582032 1.751 107 113 106 255
-0.2444379 -0.055696484 1.7470001 106 112 105 255
-0.23910919 -0.055572566 1.743 94 100 93 255
-0.23380151 -0.055448584 1.7390001 84 90 83 255
-0.22877836 -0.055388309 1.7370001 61 67 59 255
-0.22389428 -0.055359855 1.7360001 83 89 81 255
-0.21914108 -0.055363238 1.7360001 72 79 68 255
-0.2142636 -0.055334669 1.7350001 70 77 66 255
-0.20927 -0.055274129 1.733 79 83 75 255
-0.20428662 -0.05521353 1.7310001 85 91 83 255
-0.19954398 -0.05521667 1.7310001 91 97 89 255
-0.19480057 -0.05521974 1.7310001 96 102 95 255
-0.19016622 -0.055254657 1.7320001 91 97 90 255
-0.18531154 -0.055225693 1.7310001 89 95 88 255
-0.18067028 -0.055260483 1.7320001 94 98 90 255
-0.17632753 -0.055390935 1.7360001 81 86 75 255
-0.17166565 -0.055425599 1.7370001 73 78 67 255
-0.16690156 -0.0554283 1.7370001 69 74 62 255
-0.16185676 -0.05533519 1.7340001 78 83 72 255
-0.15700896 -0.055305831 1.733 84 90 82 255
-0.15207817 -0.055244491 1.7310001 80 86 78 255
-0.14732799 -0.055246901 1.7310001 89 95 88 255
-0.14257717 -0.055249248 1.7310001 85 91 84 255
-0.13782582 -0.055251524 1.7310001 91 97 90 255
-0.13292012 -0.055189885 1.7290001 85 89 81 255
-0.12817313 -0.055192016 1.7290001 98 102 94 255
-0.12335423 -0.055162147 1.728 87 89 79 255
-0.11874623 -0.055227973 1.7300001 90 92 82 255
-0.11412674 -0.055293735 1.7320001 79 84 72 255
-0.1094958 -0.055359427 1.7340001 81 86 74 255
-0.10473261 -0.055361196 1.7340001 85 90 79 255
-0.09985368 -0.055299029 1.7320001 81 85 77 255
-0.09504021 -0.055268716 1.7310001 85 90 79 255
-0.090284012 -0.055270258 1.7310001 87 92 81 255
-0.085527427 -0.055271715 1.7310001 85 88 76 255
-0.080910452 -0.055368897 1.7340001 81 86 74 255
-0.076188818 -0.055402134 1.7350001 78 83 69 255
-0.071420208 -0.05540337 1.7350001 82 87 75 255
-0.066651277 -0.055404525 1.7350001 80 85 73 255
-0.061882067 -0.055405606 1.7350001 81 84 72 255
-0.057178419 -0.05547047 1.7370001 76 79 67 255
-0.052342862 -0.055407517 1.7350001 81 83 73 255
-0.047600329 -0.055440292 1.7360001 81 81 71 255
-0.042876761 -0.055504918 1.738 77 79 69 255
-0.038185854 -0.055633347 1.7420001 75 77 67 255
-0.033472788 -0.055761699 1.7460001 74 76 66 255
-0.028737577 -0.055889975 1.7500001 75 77 67 255
-0.023966568 -0.055986229 1.7530001 76 79 67 255
-0.019168036 -0.056050472 1.7550001 73 78 66 255
-0.014358422 -0.056114625 1.7570001 71 76 64 255
-0.009532324 -0.056146763 1.7580001 72 77 65 255
-0.0046926672 -0.056083009 1.756 72 77 66 255
0.00013608714 -0.056051113 1.7550001 74 79 68 255
0.0049649961 -0.056083001 1.756 71 76 65 255
0.0097938059 -0.056082878 1.756 71 76 65 255
0.014614247 -0.05605074 1.7550001 72 77 65 255
0.019440202 -0.05605045 1.7550001 78 81 69 255
0.02426607 -0.056050077 1.7550001 79 82 70 255
0.029158138 -0.056177381 1.7590001 77 80 68 255
0.033975448 -0.056144908 1.7580001 82 84 74 255
0.038875408 -0.0562401 1.761 81 84 72 255
0.043742057 -0.056271348 1.7620001 81 84 72 255
0.048724309 -0.056430247 1.7670001 82 85 73 255
0.053733841 -0.056589063 1.7720001 78 83 71 255
0.058704492 -0.056683931 1.7750001 78 83 71 255
0.06358391 -0.0566829 1.7750001 75 80 68 255
0.068385921 -0.056617931 1.7730001 77 82 70 255
0.073135324 -0.05652095 1.7700001 76 81 69 255
0.077956043 -0.05648775 1.7690001 78 83 71 255
0.082724132 -0.05642255 1.7670001 79 84 73 255
0.087530427 -0.056389198 1.766 81 86 75 255
0.092330873 -0.056355774 1.7650001 78 83 72 255
0.097180486 -0.056354202 1.7650001 82 84 76 255
0.10208748 -0.056384478 1.766 81 83 75 255
0.10687844 -0.056350831 1.7650001 84 86 78 255
0.11185335 -0.056412879 1.7670001 81 83 73 255
0.11683881 -0.056474846 1.7690001 79 84 73 255
0.12169715 -0.05647289 1.7690001 81 85 77 255
0.12634037 -0.05637509 1.766 86 90 82 255
0.13118945 -0.056372978 1.766 87 93 85 255
0.13603801 -0.056370802 1.766 83 89 82 255
0.14096576 -0.05640047 1.7670001 81 87 79 255
0.14598094 -0.056461975 1.7690001 83 87 79 255
0.15092129 -0.056491502 1.7700001 81 86 75 255
0.15613049 -0.056616679 1.774 78 83 72 255
0.16108878 -0.056646049 1.7750001 78 83 72 255
0.16605192 -0.056675345 1.7760001 79 81 71 255
0.17092364 -0.056672651 1.7760001 77 80 68 255
0.17569569 -0.056637984 1.7750001 74 77 65 255
0.18046157 -0.056603245 1.774 74 76 66 255
0.18532573 -0.056600355 1.774 67 72 61 255
0.19018917 -0.056597397 1.774 69 73 65 255
0.1951618 -0.056626271 1.7750001 67 73 66 255
0.19980113 -0.056559384 1.7730001 81 87 80 255
0.20477501 -0.056588128 1.774 95 101 94 255
0.20916273 -0.056457333 1.7700001 87 93 85 255
0.2137696 -0.056390278 1.7680001 83 89 81 255
0.21861197 -0.056386948 1.7680001 83 90 79 255
0.22433829 -0.056606799 1.7750001 80 87 75 255
0.23061863 -0.056954131 1.7860001 81 86 74 255
0.23682645 -0.057269461 1.7960001 77 82 70 255
0.24174218 -0.05726584 1.7960001 74 79 68 255
0.24583299 -0.05707087 1.7900001 70 73 61 255
0.2498901 -0.056875866 1.784 67 72 61 255
0.25419918 -0.056744598 1.7800001 65 70 59 255
0.25863099 -0.056645166 1.7770001 69 74 63 255
0.26319376 -0.056577571 1.7750001 73 80 69 255
0.26834875 -0.056637421 1.7770001 77 83 75 255
0.27366751 -0.056729086 1.7800001 75 82 71 255
0.27947119 -0.056916296 1.7860001 77 84 73 255
0.28482914 -0.057007827 1.789 76 83 72 255
0.29004058 -0.057067446 1.7910001 71 78 67 255
0.29575598 -0.057222579 1.7960001 74 81 70 255
0.30266961 -0.057600662 1.8080001 76 81 70 255
0.31015825 -0.05807421 1.8230001 75 80 69 255
0.31582627 -0.058197264 1.8270001 67 72 61 255
0.319408 -0.057938024 1.8190001 54 59 48 255
0.32348007 -0.057774343 1.8140001 43 48 37 255
0.32806703 -0.057706177 1.812 54 59 48 255
0.3328259 -0.057669841 1.8110001 64 66 56 255
0.33776477 -0.0576653 1.8110001 69 71 61 255
0.34213498 -0.05756522 1.8080001 68 70 60 255
0.34706375 -0.057560623 1.8080001 69 74 63 255
0.35199153 -0.057556 1.8080001 71 76 65 255
0.35711578 -0.057583187 1.8090001 71 77 69 255
0.3620443 -0.057578497 1.8090001 70 76 68 255
0.36697185 -0.057573784 1.8090001 72 78 70 255
0.37210402 -0.057600871 1.8100001 70 76 68 255
0.37703237 -0.05759611 1.8100001 71 76 65 255
0.38259283 -0.057686776 1.8130001 74 79 68 255
0.3873136 -0.057650145 1.812 73 78 67 255
0.392461 -0.057677127 1.8130001 70 77 66 255
0.39695525 -0.057608649 1.8110001 70 77 66 255
0.40165955 -0.05757197 1.8100001 72 79 68 255
0.40613285 -0.057503484 1.8080001 69 76 64 255
0.41059437 -0.057434991 1.8060001 69 76 65 255
0.41527411 -0.057398301 1.8050001 74 81 70 255
0.41994759 -0.057361603 1.8040001 74 81 70 255
0.42485008 -0.057356689 1.8040001 72 79 68 255
0.42951354 -0.057319984 1.8030001 72 81 70 255
0.43392977 -0.057251491 1.8010001 75 83 75 255
0.4383342 -0.057183001 1.7990001 74 82 74 255
0.44346598 -0.057209864 1.8000001 76 82 74 255
0.44934961 -0.057332065 1.8040001 75 81 73 255
0.45525417 -0.057454251 1.8080001 74 80 72 255
0.45990694 -0.057417538 1.807 71 77 69 255
0.46403912 -0.057317287 1.8040001 74 80 72 255
0.4681541 -0.057217058 1.8010001 74 80 72 255
0.47277734 -0.057180386 1.8000001 78 84 77 255
0.47739446 -0.057143729 1.7990001 77 83 76 255
0.48200533 -0.057107087 1.7980001 79 83 76 255
0.48715168 -0.057133984 1.7990001 77 81 73 255
0.49230275 -0.057160888 1.8000001 75 79 71 255
0.49828708 -0.057283062 1.8040001 75 79 71 255
0.50373465 -0.057341728 1.8060001 74 76 68 255
0.50947404 -0.057432156 1.8090001 75 77 69 255
0.51494461 -0.057490837 1.8110001 72 73 67 255
0.51985139 -0.057486046 1.8110001 74 76 68 255
0.52475744 -0.057481281 1.8110001 66 70 63 255
0.52849317 -0.057349589 1.807 67 71 64 255
0.53279692 -0.05728142 1.8050001 70 74 67 255
0.53708935 -0.057213292 1.8030001 69 73 66 255
0.54227233 -0.057240393 1.8040001 70 74 67 255
0.54806668 -0.05733097 1.807 71 75 67 255
0.55479485 -0.057516746 1.8130001 68 74 66 255
0.56124651 -0.057670806 1.8180001 64 70 62 255
0.56679046 -0.057729725 1.8200001 58 64 56 255
0.57108837 -0.057661805 1.8180001 65 72 61 255
0.57442462 -0.057498787 1.8130001 21 28 17 255
0.578053 -0.057367556 1.8090001 68 73 62 255
0.58133727 -0.057204682 1.8040001 68 75 64 255
0.5855689 -0.05713699 1.802 67 71 63 255
0.58913434 -0.05700596 1.7980001 71 75 67 255
0.59366906 -0.056970105 1.7970001 75 81 73 255
0.59753191 -0.056870896 1.794 70 76 68 255
0.60171431 -0.056803465 1.7920001 73 80 69 255
0.60656267 -0.056799494 1.7920001 70 77 66 255
0.61141115 -0.056795586 1.7920001 66 73 62 255
0.61625952 -0.05679173 1.7920001 56 62 54 255
0.62076128 -0.056756251 1.7910001 73 79 71 255
0.62560707 -0.056752525 1.7910001 73 77 69 255
0.62974888 -0.056685496 1.789 74 79 68 255
0.63352531 -0.056586862 1.7860001 80 82 72 255
0.6369282 -0.056456622 1.7820001 17 19 9 255
0.64102995 -0.056389838 1.7800001 21 22 10 255
0.64548397 -0.05635481 1.779 22 23 11 255
0.64737415 -0.056098126 1.771 19 22 10 255
0.6499579 -0.055904906 1.7650001 21 24 12 255
0.65288043 -0.055743452 1.7600001 24 27 15 255
0.65614992 -0.055613771 1.756 21 24 12 255
0.65939832 -0.055484187 1.7520001 17 22 10 255
0.66376281 -0.055449698 1.751 19 24 12 255
0.66812235 -0.055415303 1.7500001 20 25 14 255
0.67324609 -0.055444323 1.751 14 19 8 255
0.67682719 -0.055346783 1.748 19 24 13 255
0.68351191 -0.055502638 1.7530001 17 22 11 255
0.69022453 -0.055658568 1.7580001 19 24 12 255
0.70329022 -0.056321129 1.779 14 19 7 255
0.71408248 -0.056793787 1.794 12 17 3 255
0.71934652 -0.056823332 1.7950001 15 20 6 255
0.72179264 -0.056631386 1.789 25 33 18 255
0.72948754 -0.05685107 1.7960001 33 41 26 255
0.73435932 -0.056849279 1.7960001 41 49 34 255
0.73676264 -0.056657676 1.7900001 63 70 58 255
0.73830593 -0.056402896 1.7820001 104 111 100 255
0.74022418 -0.056179903 1.7750001 96 103 92 255
0.74000692 -0.055798784 1.7630001 98 106 98 255
0.74099332 -0.055512756 1.7540001 107 115 107 255
0.74023139 -0.055100251 1.7410001 104 112 105 255
0.74196774 -0.054877788 1.7340001 88 96 89 255
0.74022257 -0.054402258 1.7190001 113 121 113 255
0.74099749 -0.054116759 1.71 142 150 143 255
0.73998088 -0.053704809 1.697 162 170 163 255
0.7437216 -0.053641092 1.6950001 163 170 166 255
0.74568725 -0.053450931 1.6890001 169 176 172 255
0.74762195 -0.0532609 1.6830001 174 181 178 255
0.74773812 -0.052944418 1.6730001 176 183 180 255
0.75005007 -0.052786306 1.6680001 178 185 182 255
0.75052696 -0.052501731 1.659 181 188 185 255
0.75141197 -0.052248947 1.651 184 191 188 255
0.7522555 -0.051996294 1.6430001 184 191 188 255
0.75489974 -0.051870365 1.6390001 184 191 188 255
0.75613451 -0.051649641 1.6320001 184 191 188 255
0.75593489 -0.051334091 1.6220001 189 194 191 255
0.75568306 -0.051018685 1.6120001 188 195 192 255
0.7567935 -0.050798364 1.605 187 194 191 255
0.75786799 -0.05057817 1.598 187 194 191 255
0.75699866 -0.050231516 1.5870001 188 195 191 255
0.75655121 -0.049916632 1.577 189 196 192 255
0.75605172 -0.04960189 1.567 191 198 195 255
0.75647044 -0.04935059 1.559 190 197 194 255
0.75635988 -0.049067762 1.5500001 191 198 195 255
0.75620288 -0.048785076 1.5410001 191 198 195 255
0.75698602 -0.048565827 1.534 189 196 195 255
0.75574875 -0.048220083 1.5230001 191 198 197 255
0.75545174 -0.047937781 1.5140001 193 200 199 255
0.75460654 -0.047623951 1.5040001 195 202 201 255
-0.77804297 -0.065008081 1.891 196 200 192 255
-0.77005112 -0.06476935 1.8840001 229 234 223 255
-0.76250452 -0.064565122 1.8780001 225 232 220 255
-0.75499159 -0.064360999 1.8720001 240 247 236 255
-0.74390686 -0.063847534 1.8570001 226 235 224 255
-0.73489398 -0.063506082 1.8470001 225 234 223 255
-0.72514582 -0.063095942 1.835 216 224 216 255
-0.71860337 -0.062960975 1.8310001 212 221 210 255
-0.71208352 -0.062826112 1.8270001 221 230 219 255
-0.70558602 -0.062691331 1.8230001 234 243 232 255
-0.69872659 -0.062522255 1.8180001 215 222 210 255
-0.6922766 -0.062387664 1.8140001 219 228 216 255
-0.68546999 -0.062218763 1.8090001 228 235 223 255
-0.67718607 -0.061912354 1.8000001 223 230 218 255
-0.66969848 -0.061674803 1.7930001 228 236 221 255
-0.66299099 -0.061506126 1.7880001 219 227 212 255
-0.65741521 -0.061440721 1.7860001 209 217 202 255
-0.65111977 -0.061306585 1.7820001 201 209 194 255
-0.64484644 -0.061172519 1.7780001 212 218 201 255
-0.63787502 -0.060969703 1.7720001 212 218 201 255
-0.63093638 -0.060766943 1.766 206 212 195 255
-0.62544864 -0.060701877 1.7640001 211 217 199 255
-0.61997193 -0.060636882 1.7620001 208 214 196 255
-0.61520457 -0.060640793 1.7620001 206 213 192 255
-0.61009073 -0.060610346 1.761 201 208 187 255
-0.60463858 -0.060545541 1.7590001 202 208 183 255
-0.59953851 -0.060515229 1.7580001 198 205 176 255
-0.59444368 -0.060484968 1.7570001 200 205 174 255
-0.59002554 -0.060523618 1.7580001 121 126 94 255
-0.58493596 -0.060493477 1.7570001 150 154 118 255
-0.58051223 -0.060532257 1.7580001 155 159 124 255
-0.57608289 -0.060571089 1.7590001 155 157 121 255
-0.57132316 -0.06057556 1.7590001 157 159 121 255
-0.56688523 -0.060614508 1.7600001 156 158 120 255
-0.56276119 -0.060687963 1.7620001 153 156 116 255
-0.55862588 -0.060761467 1.7640001 150 153 113 255
-0.55479354 -0.060869489 1.7670001 150 153 113 255
-0.55094457 -0.060977567 1.7700001 149 152 112 255
-0.54646182 -0.061016794 1.771 150 153 113 255
-0.54166746 -0.061021615 1.771 154 157 115 255
-0.53656954 -0.060992017 1.7700001 152 155 115 255
-0.53237796 -0.061065838 1.7720001 150 153 113 255
-0.52817494 -0.061139695 1.774 150 153 113 255
-0.52425569 -0.061248075 1.7770001 149 152 112 255
-0.5194428 -0.061253093 1.7770001 152 155 115 255
-0.51462924 -0.061258137 1.7770001 146 149 107 255
-0.51010203 -0.061297685 1.7780001 153 158 116 255
-0.50585306 -0.06137174 1.7800001 154 159 119 255
-0.50159258 -0.061445829 1.7820001 139 146 107 255
-0.49704194 -0.061485481 1.7830001 137 143 107 255
-0.49220908 -0.061490659 1.7830001 131 136 104 255
-0.48710218 -0.061461363 1.7820001 138 143 111 255
-0.48200014 -0.06143209 1.7810001 140 145 114 255
-0.47636685 -0.061333828 1.7780001 137 144 113 255
-0.47021875 -0.061166562 1.7730001 141 148 117 255
-0.46409702 -0.060999282 1.7680001 145 152 121 255
-0.45800155 -0.060831968 1.7630001 159 166 135 255
-0.45270374 -0.060768165 1.761 173 180 149 255
-0.44741604 -0.060704365 1.7590001 166 173 141 255
-0.44238997 -0.060675059 1.7580001 160 167 136 255
-0.43687072 -0.060576722 1.7550001 154 161 130 255
-0.43210551 -0.060581919 1.7550001 151 158 127 255
-0.42709604 -0.060552597 1.7540001 151 158 127 255
-0.42233193 -0.060557794 1.7540001 152 157 126 255
-0.41756696 -0.060562979 1.7540001 148 153 121 255
-0.41280115 -0.060568169 1.7540001 143 148 117 255
-0.40803438 -0.060573343 1.7540001 144 149 118 255
-0.40303686 -0.060543969 1.7530001 151 156 125 255
-0.39827108 -0.060549125 1.7530001 146 151 120 255
-0.39327994 -0.060519718 1.7520001 145 150 119 255
-0.38873681 -0.060559388 1.7530001 136 143 112 255
-0.38418731 -0.060599044 1.7540001 137 144 113 255
-0.37941515 -0.060604133 1.7540001 156 163 132 255
-0.3746421 -0.06060921 1.7540001 157 166 137 255
-0.36944631 -0.060545146 1.7520001 153 161 135 255
-0.36446866 -0.060515609 1.751 164 174 148 255
-0.35949555 -0.060486045 1.7500001 172 180 154 255
-0.35472962 -0.060491014 1.7500001 139 148 119 255
-0.35056269 -0.06059967 1.7530001 150 159 128 255
-0.34716743 -0.06084659 1.7600001 140 147 116 255
-0.34412217 -0.061162669 1.7690001 120 127 95 255
-0.3402597 -0.061340466 1.774 111 116 84 255
-0.33561268 -0.061379932 1.7750001 111 117 82 255
-0.33077285 -0.061384778 1.7750001 112 117 85 255
-0.3257485 -0.061355021 1.774 113 117 89 255
-0.32018596 -0.061221439 1.7700001 84 90 64 255
-0.3142879 -0.06101862 1.7640001 25 29 11 255
-0.30877253 -0.060884912 1.7600001 28 30 12 255
-0.30327803 -0.060751148 1.756 30 29 13 255
-0.29797444 -0.060651921 1.7530001 30 29 13 255
-0.29335529 -0.060691029 1.7540001 33 31 13 255
-0.28872973 -0.060730107 1.7550001 33 31 13 255
-0.28393599 -0.060734533 1.7550001 33 31 13 255
-0.27898225 -0.060704295 1.7540001 31 29 11 255
-0.27418944 -0.06070862 1.7540001 32 30 12 255
-0.26970285 -0.06078212 1.756 31 30 14 255
-0.26490274 -0.060786352 1.756 17 18 4 255
-0.25995359 -0.060755912 1.7550001 100 105 94 255
-0.25500903 -0.060725406 1.7540001 52 58 50 255
-0.25006905 -0.060694844 1.7530001 108 114 107 255
-0.2447139 -0.060560342 1.7490001 104 110 103 255
-0.23937982 -0.060425766 1.7450001 95 103 96 255
-0.23420119 -0.060325738 1.7420001 93 101 93 255
-0.22930157 -0.060294908 1.7410001 53 60 49 255
-0.22440661 -0.060264017 1.7400001 68 75 64 255
-0.21939005 -0.060198408 1.738 89 96 85 255
-0.21426015 -0.060098104 1.7350001 72 79 68 255
-0.20950817 -0.060101632 1.7350001 71 75 67 255
-0.2047554 -0.060105108 1.7350001 73 77 69 255
-0.19988658 -0.060073867 1.7340001 86 92 85 255
-0.19524756 -0.060111862 1.7350001 90 96 89 255
-0.19049251 -0.060115132 1.7350001 91 97 90 255
-0.18573672 -0.060118333 1.7350001 88 94 87 255
-0.18087593 -0.060086813 1.7340001 94 100 92 255
-0.17652774 -0.060228489 1.738 76 81 70 255
-0.17186047 -0.060266145 1.7390001 67 72 61 255
-0.16709095 -0.060269073 1.7390001 74 79 67 255
-0.1619474 -0.060133297 1.7350001 83 88 77 255
-0.15709694 -0.060101405 1.7340001 85 91 83 255
-0.15216348 -0.060034778 1.7320001 86 92 84 255
-0.14749573 -0.060072064 1.733 93 99 92 255
-0.14273952 -0.060074612 1.733 89 93 86 255
-0.13822159 -0.060181081 1.7360001 92 96 89 255
-0.13322537 -0.06007947 1.733 87 91 83 255
-0.12846747 -0.060081787 1.733 92 96 88 255
-0.12349491 -0.05998002 1.7300001 83 88 76 255
-0.11888149 -0.060051508 1.7320001 82 87 75 255
-0.11432247 -0.060157605 1.7350001 79 84 72 255
-0.10968336 -0.060228948 1.7370001 81 86 74 255
-0.10491201 -0.060230877 1.7370001 84 89 78 255
-0.10002492 -0.060163364 1.7350001 82 86 78 255
-0.095148377 -0.06009575 1.733 85 90 79 255
-0.090386763 -0.06009743 1.733 88 90 80 255
-0.085624747 -0.060099009 1.733 87 90 78 255
-0.081002362 -0.060204554 1.7360001 77 82 70 255
-0.076231405 -0.060205977 1.7360001 81 84 72 255
-0.07146012 -0.060207319 1.7360001 79 84 72 255
-0.066688523 -0.060208566 1.7360001 82 85 73 255
-0.061987974 -0.060279101 1.738 80 83 71 255
-0.057243254 -0.060314868 1.7390001 77 80 68 255
-0.05240228 -0.060246505 1.7370001 79 81 71 255
-0.047626913 -0.060247418 1.7370001 81 83 73 255
-0.042950019 -0.060386978 1.7410001 81 83 73 255
-0.038250946 -0.060526468 1.7450001 74 76 66 255
-0.03352971 -0.060665868 1.7490001 76 78 68 255
-0.028769908 -0.060770486 1.7520001 74 77 65 255
-0.023979818 -0.06084035 1.7540001 73 76 64 255
-0.01917862 -0.060910106 1.756 75 78 66 255
-0.014358168 -0.060945105 1.7570001 76 79 67 255
-0.0095213111 -0.060910638 1.756 72 77 66 255
-0.0046899128 -0.060876083 1.7550001 71 76 65 255
0.00013592966 -0.060806748 1.7530001 72 77 66 255
0.004962082 -0.060876075 1.7550001 71 75 67 255
0.0097880559 -0.060875941 1.7550001 75 80 69 255
0.014613989 -0.060875718 1.7550001 76 81 69 255
0.01942878 -0.060840715 1.7540001 78 83 71 255
0.024265641 -0.060875006 1.7550001 79 82 70 255
0.029157624 -0.061013263 1.7590001 77 80 68 255
0.034052152 -0.061116748 1.7620001 78 80 70 255
0.038985103 -0.061254818 1.766 81 84 72 255
0.043865416 -0.061288755 1.7670001 81 84 72 255
0.048806179 -0.061391961 1.7700001 77 82 70 255
0.053732902 -0.061460391 1.7720001 76 81 69 255
0.058670387 -0.061528742 1.774 77 82 70 255
0.063511156 -0.061492942 1.7730001 77 82 71 255
0.068307586 -0.061422382 1.771 76 81 69 255
0.07313405 -0.061386421 1.7700001 76 81 69 255
0.077998757 -0.061385043 1.7700001 80 85 73 255
0.082816333 -0.061348919 1.7690001 82 87 76 255
0.087677605 -0.061347377 1.7690001 82 87 76 255
0.09248621 -0.061311074 1.7680001 81 83 73 255
0.097288914 -0.061274689 1.7670001 82 84 76 255
0.10214353 -0.061272897 1.7670001 82 84 76 255
0.10687661 -0.061201673 1.7650001 85 87 79 255
0.11185145 -0.061269067 1.7670001 84 86 76 255
0.11677076 -0.061301693 1.7680001 81 86 75 255
0.12162627 -0.061299574 1.7680001 88 92 84 255
0.12619515 -0.061158683 1.7640001 89 93 85 255
0.13103864 -0.061156403 1.7640001 87 93 85 255
0.13603568 -0.061223369 1.766 84 90 82 255
0.14112291 -0.061324932 1.7690001 78 84 76 255
0.14606102 -0.061357081 1.7700001 81 85 77 255
0.15100399 -0.06138913 1.771 81 85 77 255
0.15595184 -0.061421108 1.7720001 79 84 73 255
0.16099535 -0.061487667 1.774 78 80 70 255
0.16586214 -0.061484825 1.774 82 84 74 255
0.17082456 -0.061516564 1.7750001 80 83 71 255
0.17549482 -0.061444264 1.7730001 75 78 66 255
0.18035686 -0.061441202 1.7730001 71 73 63 255
0.18511374 -0.061403416 1.7720001 71 76 65 255
0.19007884 -0.061434861 1.7730001 73 77 69 255
0.19493873 -0.061431583 1.7730001 86 90 83 255
0.19968519 -0.061393589 1.7720001 97 103 96 255
0.20419453 -0.061286241 1.7690001 87 93 85 255
0.20868668 -0.061178837 1.766 84 90 82 255
0.21352433 -0.061175298 1.766 81 88 76 255
0.21885578 -0.06131025 1.7700001 81 88 76 255
0.22420833 -0.061445117 1.774 85 92 80 255
0.22984017 -0.06164917 1.7800001 84 89 77 255
0.23589966 -0.061957039 1.789 81 86 74 255
0.24173838 -0.062195547 1.7960001 77 82 71 255
0.24624117 -0.062087674 1.7930001 75 77 67 255
0.25030646 -0.061875891 1.7870001 68 70 60 255
0.25433803 -0.061664067 1.7810001 61 66 55 255
0.25891811 -0.061590694 1.779 65 70 59 255
0.26318976 -0.061448045 1.7750001 68 75 64 255
0.26789162 -0.061409205 1.774 75 82 71 255
0.27289465 -0.061439551 1.7750001 77 84 73 255
0.27821517 -0.061539046 1.7780001 79 86 75 255
0.28371042 -0.061673101 1.7820001 77 84 73 255
0.28922653 -0.061807077 1.7860001 78 83 72 255
0.2957516 -0.062148612 1.7960001 77 82 71 255
0.3035022 -0.062732257 1.8130001 79 84 73 255
0.31032389 -0.063108176 1.8240001 76 81 69 255
0.31513023 -0.063068829 1.8230001 65 70 59 255
0.31852543 -0.062752709 1.8140001 48 53 42 255
0.32258382 -0.062574953 1.8090001 44 49 38 255
0.32715711 -0.062500931 1.807 63 67 59 255
0.33208606 -0.06249607 1.807 65 70 59 255
0.33701399 -0.062491156 1.807 67 72 61 255
0.34156248 -0.062417056 1.8050001 67 72 61 255
0.34648305 -0.062412087 1.8050001 68 73 62 255
0.35140267 -0.062407076 1.8050001 71 76 65 255
0.35651866 -0.062436614 1.8060001 71 77 69 255
0.36163911 -0.062466107 1.807 72 78 70 255
0.3665612 -0.062461 1.807 71 77 69 255
0.37168792 -0.062490433 1.8080001 73 77 69 255
0.3768191 -0.062519841 1.8090001 71 75 67 255
0.38216579 -0.062583759 1.8110001 73 77 69 255
0.38709486 -0.062578544 1.8110001 74 78 70 255
0.392023 -0.062573299 1.8110001 71 78 67 255
0.39695019 -0.062568046 1.8110001 72 79 68 255
0.4014326 -0.062493678 1.8090001 70 77 66 255
0.40612781 -0.06245384 1.8080001 72 79 68 255
0.41036192 -0.06234492 1.8050001 72 79 68 255
0.415039 -0.062305082 1.8040001 74 78 70 255
0.41994247 -0.062299766 1.8040001 73 79 71 255
0.42484501 -0.062294442 1.8040001 77 83 75 255
0.42927021 -0.062220052 1.802 76 82 74 255
0.43344274 -0.062111143 1.7990001 76 82 74 255
0.43808538 -0.06207129 1.7980001 77 83 75 255
0.4437072 -0.062169518 1.8010001 77 83 75 255
0.45009172 -0.062371287 1.807 77 84 73 255
0.45625615 -0.062538497 1.812 72 79 68 255
0.46117431 -0.062533133 1.812 73 78 67 255
0.46506283 -0.062389728 1.8080001 72 79 68 255
0.46944872 -0.062315378 1.8060001 74 80 72 255
0.47382286 -0.062241048 1.8040001 79 83 75 255
0.4784508 -0.062201224 1.8030001 81 85 77 255
0.48253641 -0.062092438 1.8000001 80 84 76 255
0.48687586 -0.062018175 1.7980001 82 86 78 255
0.49147716 -0.061978418 1.7970001 80 84 76 255
0.49634859 -0.061973184 1.7970001 80 84 77 255
0.50177723 -0.062036935 1.7990001 77 81 74 255
0.50693434 -0.062066205 1.8000001 79 83 76 255
0.51209623 -0.062095497 1.8010001 80 84 77 255
0.51697588 -0.06209033 1.8010001 76 80 73 255
0.52214462 -0.062119659 1.802 67 71 64 255
0.52644092 -0.062045604 1.8000001 73 77 70 255
0.53072584 -0.061971597 1.7980001 75 79 71 255
0.53529721 -0.061932094 1.7970001 73 77 69 255
0.53986275 -0.061892636 1.7960001 73 77 69 255
0.5447256 -0.06188767 1.7960001 71 77 69 255
0.55081207 -0.062020566 1.8000001 71 77 69 255
0.55753726 -0.062222388 1.8060001 66 72 64 255
0.56398296 -0.062389761 1.8110001 66 73 62 255
0.56888485 -0.062384922 1.8110001 64 69 58 255
0.57188541 -0.06217346 1.8050001 41 46 34 255
0.57581168 -0.0620654 1.802 68 75 63 255
0.57939923 -0.061922964 1.7980001 66 73 62 255
0.58361483 -0.061849479 1.7960001 66 73 62 255
0.58749169 -0.061741624 1.7930001 69 75 67 255
0.59201294 -0.061702702 1.7920001 72 79 68 255
0.5961954 -0.061629418 1.7900001 63 70 59 255
0.60036713 -0.061556201 1.7880001 71 78 67 255
0.6052047 -0.061551906 1.7880001 83 90 79 255
0.61004239 -0.061547678 1.7880001 60 67 56 255
0.61487997 -0.061543502 1.7880001 60 66 58 255
0.61867779 -0.06143615 1.7850001 77 83 75 255
0.62315804 -0.061397716 1.784 76 82 74 255
0.6269291 -0.061290532 1.7810001 77 81 73 255
0.63139337 -0.061252251 1.7800001 80 84 76 255
0.63478011 -0.061110828 1.7760001 13 15 7 255
0.63850552 -0.061003901 1.7730001 20 22 12 255
0.64148939 -0.060828261 1.7680001 20 23 11 255
0.644081 -0.060618319 1.7620001 20 23 11 255
0.64774507 -0.06051169 1.7590001 21 24 12 255
0.65139341 -0.060405154 1.756 22 25 13 255
0.6550259 -0.060298726 1.7530001 22 25 13 255
0.65788984 -0.060123604 1.748 21 24 10 255
0.66110635 -0.059982982 1.7440001 19 22 8 255
0.66506529 -0.059911255 1.7420001 20 23 9 255
0.67016745 -0.059942793 1.743 20 25 11 255
0.67488855 -0.059940048 1.743 20 25 11 255
0.68039012 -0.060006179 1.7450001 23 26 12 255
0.68394023 -0.05990047 1.7420001 23 26 12 255
0.68945146 -0.059966799 1.7440001 24 27 13 255
0.69497448 -0.060033232 1.7460001 26 29 15 255
0.70010847 -0.060065392 1.7470001 24 28 11 255
0.70847642 -0.060372695 1.756 28 32 15 255
0.71323872 -0.06037068 1.756 33 37 20 255
0.71881992 -0.060437541 1.7580001 28 34 17 255
0.72358984 -0.060435768 1.7580001 27 32 18 255
0.72918952 -0.060502857 1.7600001 26 31 17 255
0.73646939 -0.060707577 1.766 25 30 18 255
0.73748714 -0.060396787 1.7570001 21 26 14 255
0.7380349 -0.060051769 1.7470001 19 24 12 255
0.7359786 -0.059500646 1.7310001 31 38 26 255
0.73725998 -0.059224661 1.723 36 45 33 255
0.73720753 -0.058845706 1.7120001 109 118 106 255
0.73839688 -0.058570016 1.7040001 109 118 107 255
0.73954433 -0.058294464 1.6960001 132 140 132 255
0.7432825 -0.058225278 1.6940001 160 169 162 255
0.74612856 -0.058087494 1.6900001 164 172 165 255
0.74673343 -0.057777997 1.6810001 170 177 174 255
0.74684435 -0.057434279 1.6710001 172 179 176 255
0.7478019 -0.057159446 1.6630001 180 187 184 255
0.74871773 -0.056884754 1.6550001 180 187 184 255
0.74913692 -0.056575838 1.646 184 189 186 255
0.75042468 -0.056335811 1.6390001 183 190 187 255
0.75167644 -0.056095935 1.6320001 184 191 188 255
0.7528922 -0.055856209 1.6250001 184 191 188 255
0.75313967 -0.055547871 1.6160001 185 192 189 255
0.75427794 -0.055308439 1.6090001 187 194 191 255
0.75679481 -0.055172272 1.605 186 193 190 255
0.7583437 -0.054967511 1.5990001 188 195 191 255
0.75843126 -0.054659769 1.59 188 195 191 255
0.75799233 -0.054317798 1.58 188 195 191 255
0.75846612 -0.054044727 1.572 190 197 194 255
0.75792819 -0.05370304 1.562 191 198 195 255
0.75782615 -0.053395886 1.5530001 193 200 197 255
0.75767744 -0.053088859 1.544 192 199 198 255
0.75896251 -0.052885149 1.5380001 191 198 197 255
0.75773627 -0.052509639 1.5270001 192 199 198 255
0.75695157 -0.052168664 1.5170001 193 200 199 255
0.75611484 -0.051827826 1.5070001 196 203 202 255
-0.78133261 -0.070458293 1.899 170 174 167 255
-0.7700491 -0.069903813 1.8840001 219 223 215 255
-0.76331437 -0.069757581 1.8800001 225 232 221 255
-0.7557959 -0.06953726 1.8740001 236 243 232 255
-0.74630797 -0.069131516 1.863 238 245 233 255
-0.7368809 -0.068725884 1.8520001 224 233 221 255
-0.72751433 -0.068320341 1.8410001 222 229 217 255
-0.72056305 -0.068137564 1.8360001 224 231 219 255
-0.71363968 -0.067954876 1.8310001 228 235 223 255
-0.70635706 -0.067735173 1.825 235 242 230 255
-0.700261 -0.067626938 1.8220001 221 230 218 255
-0.69341838 -0.067444541 1.817 212 221 209 255
-0.68698233 -0.067299366 1.8130001 219 226 214 255
-0.67868769 -0.066968672 1.8040001 224 231 219 255
-0.67193621 -0.066786528 1.7990001 229 237 222 255
-0.66447061 -0.06653022 1.7920001 211 219 204 255
-0.65888399 -0.066459633 1.7900001 200 208 193 255
-0.65257764 -0.066314861 1.7860001 190 198 183 255
-0.6466561 -0.066207297 1.7830001 215 223 208 255
-0.63895118 -0.065914132 1.7750001 219 225 208 255
-0.63200426 -0.065695301 1.7690001 198 204 187 255
-0.62615383 -0.06558793 1.766 204 210 192 255
-0.62137538 -0.065592065 1.766 203 209 191 255
-0.616597 -0.065596268 1.766 202 209 188 255
-0.61216521 -0.065637708 1.7670001 196 203 182 255
-0.60669684 -0.065567777 1.7650001 216 224 199 255
-0.60192144 -0.06557221 1.7650001 195 203 177 255
-0.59646934 -0.065502405 1.7630001 176 183 152 255
-0.59169924 -0.065506965 1.7630001 132 139 108 255
-0.58659619 -0.065474443 1.7620001 140 145 113 255
-0.58116806 -0.06540481 1.7600001 150 154 119 255
-0.57640582 -0.065409563 1.7600001 161 163 127 255
-0.57164329 -0.065414369 1.7600001 156 160 124 255
-0.56752473 -0.065493561 1.7620001 158 162 126 255
-0.56339514 -0.065572828 1.7640001 154 158 120 255
-0.55893773 -0.065614991 1.7650001 156 160 122 255
-0.55510259 -0.065731563 1.7680001 152 154 118 255
-0.5506283 -0.065773837 1.7690001 152 154 116 255
-0.54614824 -0.065816164 1.7700001 155 157 119 255
-0.5416624 -0.065858535 1.771 150 153 113 255
-0.53686762 -0.065863781 1.771 151 154 114 255
-0.53237283 -0.065906242 1.7720001 149 152 112 255
-0.52816981 -0.065985948 1.774 152 155 115 255
-0.52395552 -0.066065714 1.7760001 151 154 114 255
-0.51943761 -0.066108316 1.7770001 148 151 111 255
-0.51491362 -0.066150956 1.7780001 148 151 109 255
-0.51067054 -0.066230834 1.7800001 148 151 109 255
-0.50670034 -0.066347972 1.7830001 152 155 115 255
-0.50243163 -0.066427931 1.7850001 143 147 109 255
-0.49787289 -0.06647072 1.7860001 140 144 106 255
-0.49330792 -0.066513538 1.7870001 135 139 103 255
-0.48846352 -0.066519149 1.7870001 134 138 102 255
-0.48415971 -0.066599235 1.789 135 139 103 255
-0.47957647 -0.06664212 1.7900001 133 139 103 255
-0.47445664 -0.066610552 1.789 135 141 105 255
-0.46907893 -0.066541761 1.7870001 140 146 111 255
-0.46319178 -0.066398494 1.7830001 136 140 104 255
-0.45783976 -0.066329688 1.7810001 136 140 104 255
-0.45198902 -0.066186391 1.7770001 144 148 112 255
-0.44615915 -0.066043064 1.7730001 170 176 140 255
-0.43985242 -0.065825202 1.7670001 175 181 146 255
-0.43406984 -0.06568183 1.7630001 172 177 145 255
-0.42855161 -0.065575674 1.7600001 161 166 134 255
-0.42328963 -0.065506771 1.7580001 157 162 131 255
-0.41803765 -0.065437846 1.756 154 159 128 255
-0.4130311 -0.065406181 1.7550001 154 159 128 255
-0.40849426 -0.065449022 1.756 150 157 126 255
-0.40372121 -0.065454595 1.756 142 149 118 255
-0.3989473 -0.06546016 1.756 141 148 117 255
-0.39417249 -0.065465704 1.756 140 147 118 255
-0.38939673 -0.065471239 1.756 137 144 115 255
-0.38462007 -0.065476745 1.756 135 142 113 255
-0.37984252 -0.065482244 1.756 140 147 118 255
-0.37485045 -0.065450422 1.7550001 156 164 138 255
-0.36965197 -0.065381289 1.7530001 161 170 141 255
-0.36487979 -0.065386698 1.7530001 160 169 140 255
-0.36031204 -0.065429397 1.7540001 173 180 149 255
-0.35573798 -0.065472074 1.7550001 143 150 119 255
-0.35135749 -0.065552033 1.7570001 144 151 120 255
-0.34775409 -0.065781213 1.7630001 149 156 124 255
-0.34470063 -0.066122353 1.7720001 120 125 93 255
-0.34102184 -0.066351555 1.7780001 104 109 77 255
-0.33617485 -0.066356838 1.7780001 107 115 80 255
-0.33114055 -0.066324748 1.7770001 110 117 85 255
-0.32611078 -0.066292621 1.7760001 111 118 89 255
-0.32072368 -0.066185787 1.7730001 59 65 40 255
-0.31499574 -0.066004232 1.7680001 28 32 14 255
-0.30929404 -0.065822594 1.7630001 28 30 12 255
-0.3037914 -0.065678224 1.7590001 30 29 13 255
-0.29830968 -0.065533787 1.7550001 31 30 14 255
-0.29335061 -0.065501317 1.7540001 31 29 11 255
-0.28856057 -0.065506123 1.7540001 32 30 12 255
-0.2839314 -0.065548249 1.7550001 33 31 13 255
-0.27945492 -0.065627679 1.7570001 34 32 14 255
-0.27465391 -0.065632343 1.7570001 34 32 14 255
-0.27031279 -0.065749027 1.7600001 29 31 14 255
-0.26504919 -0.065641515 1.7570001 14 15 1 255
-0.25980115 -0.065533929 1.7540001 95 100 88 255
-0.25485939 -0.065501004 1.7530001 56 62 54 255
-0.24992223 -0.065468006 1.7520001 110 116 109 255
-0.24484971 -0.065397575 1.7500001 101 109 102 255
-0.23951297 -0.065252334 1.7460001 104 110 103 255
-0.23433165 -0.065144375 1.743 89 95 88 255
-0.22942938 -0.065111093 1.7420001 60 66 58 255
-0.22453171 -0.065077744 1.7410001 75 82 71 255
-0.21976493 -0.065081708 1.7410001 89 96 85 255
-0.21462692 -0.064973451 1.738 78 85 74 255
-0.20974602 -0.064939879 1.7370001 72 78 70 255
-0.20498784 -0.064943634 1.7370001 66 70 62 255
-0.2002289 -0.064947307 1.7370001 83 89 82 255
-0.19546919 -0.064950913 1.7370001 89 93 86 255
-0.19070871 -0.064954437 1.7370001 91 97 90 255
-0.18594752 -0.064957894 1.7370001 92 98 90 255
-0.18128994 -0.064998679 1.738 94 100 92 255
-0.17682928 -0.065114185 1.7410001 72 77 66 255
-0.17215388 -0.065154836 1.7420001 69 74 63 255
-0.16718403 -0.065083183 1.7400001 76 81 70 255
-0.16203779 -0.06493663 1.7360001 88 93 82 255
-0.15718469 -0.064902224 1.7350001 92 96 88 255
-0.15233642 -0.064867727 1.7340001 93 97 89 255
-0.14766327 -0.064907968 1.7350001 97 101 93 255
-0.14306636 -0.064985536 1.7370001 94 98 90 255
-0.13829868 -0.064988203 1.7370001 84 88 80 255
-0.13345355 -0.064953379 1.7360001 79 84 73 255
-0.12853923 -0.064881042 1.7340001 98 103 92 255
-0.12370677 -0.064846039 1.733 88 91 79 255
-0.11915383 -0.064960621 1.7360001 85 88 76 255
-0.11458391 -0.065075129 1.7390001 81 83 73 255
-0.10987076 -0.065114707 1.7400001 86 88 78 255
-0.10503085 -0.065079354 1.7390001 86 90 82 255
-0.10013834 -0.065006495 1.7370001 84 88 80 255
-0.095311321 -0.064970963 1.7360001 85 89 81 255
-0.09048938 -0.064935334 1.7350001 92 94 84 255
-0.085771374 -0.064974479 1.7360001 85 87 77 255
-0.081047498 -0.065013528 1.7370001 82 87 75 255
-0.076273881 -0.065015063 1.7370001 83 86 74 255
-0.071458772 -0.064979076 1.7360001 79 84 72 255
