ply
format ascii 1.0
comment PCL generated
element vertex 994
property float x
property float y
property float z
property uchar red
property uchar green
property uchar blue
property uchar alpha
element camera 0
property float view_px
property float view_py
property float view_pz
property float x_axisx
property float x_axisy
property float x_axisz
property float y_axisx
property float y_axisy
property float y_axisz
property float z_axisx
property float z_axisy
property float z_axisz
property float focal
property float scalex
property float scaley
property float centerx
property float centery
property int viewportx
property int viewporty
property float k1
property float k2
end_header
0.67107338 -0.041880991 1.7830001 23 27 10 255
0.65656751 -0.040680971 1.7320001 21 25 8 255
0.64484024 -0.039669018 1.6890001 20 23 9 255
0.65249014 -0.039854996 1.697 19 22 8 255
0.66328156 -0.0402289 1.7130001 19 22 10 255
0.66831166 -0.040250581 1.7140001 19 22 10 255
0.67138469 -0.040154912 1.71 19 24 12 255
0.62133515 -0.036157321 1.5400001 133 140 129 255
0.61576313 -0.035592623 1.516 0 3 0 255
0.61742169 -0.035450619 1.5100001 16 18 8 255
0.62069523 -0.0354026 1.508 19 21 11 255
0.62395895 -0.035354655 1.506 18 21 9 255
0.62596154 -0.035236359 1.501 19 22 10 255
-0.97469008 -0.042991169 1.6330001 23 25 8 255
-1.0079179 -0.045500491 1.7300001 27 29 12 255
-0.98387277 -0.044624552 1.697 26 28 11 255
-1.0009842 -0.045615852 1.7350001 25 27 10 255
-0.99607074 -0.045608122 1.7350001 23 25 8 255
-0.99516267 -0.0457846 1.7420001 24 23 9 255
-0.98057848 -0.045330539 1.725 26 25 9 255
-0.97062165 -0.045087047 1.7160001 29 26 10 255
-0.9562189 -0.044633672 1.6990001 30 27 11 255
-0.94583786 -0.044364501 1.6890001 27 24 8 255
-0.93886179 -0.044253185 1.6850001 26 23 7 255
-0.9407838 -0.04456225 1.697 22 21 7 255
-0.92719972 -0.044136263 1.6810001 26 25 11 255
-0.93853474 -0.045122653 1.7190001 21 20 6 255
-0.93861878 -0.045353487 1.728 25 22 6 255
-0.93001133 -0.045164574 1.7210001 29 25 8 255
-0.92521107 -0.045159567 1.7210001 34 26 9 255
-0.91720676 -0.04499732 1.715 41 30 9 255
-0.91136873 -0.044940233 1.7130001 58 42 16 255
-0.90660483 -0.044935796 1.7130001 77 60 31 255
-0.90500426 -0.045088917 1.7190001 88 69 40 255
-0.90180385 -0.045163505 1.7220001 95 74 44 255
-0.89859086 -0.045238249 1.725 97 74 42 255
-0.89381111 -0.045234483 1.725 94 74 40 255
-0.88748932 -0.045152225 1.7220001 89 68 36 255
-0.88221335 -0.045122582 1.7210001 83 65 32 255
-0.87694675 -0.045093104 1.72 84 66 33 255
-0.87168968 -0.045063801 1.7190001 81 65 32 255
-0.86795473 -0.045113292 1.7210001 76 59 29 255
-0.86471391 -0.045189153 1.7240001 74 58 25 255
-0.86096114 -0.045238938 1.7260001 71 55 22 255
-0.85620886 -0.045236465 1.7260001 67 52 22 255
-0.85195327 -0.045260347 1.7270001 63 48 18 255
-0.84769529 -0.045284368 1.728 61 49 18 255
-0.84002048 -0.045125108 1.7220001 55 42 13 255
-0.8309263 -0.04488739 1.7130001 55 42 18 255
-0.75438595 -0.041215781 1.5730001 235 229 213 255
-0.73863047 -0.040585618 1.549 216 214 203 255
-0.73012054 -0.040348623 1.5400001 209 212 200 255
-0.72260499 -0.040164158 1.5330001 189 199 182 255
-0.7155987 -0.040006015 1.5270001 181 192 173 255
-0.70862758 -0.039848004 1.521 169 180 161 255
-0.70400715 -0.039821096 1.5200001 177 187 164 255
-0.69939435 -0.0397943 1.5190001 170 180 157 255
-0.69478893 -0.039767615 1.5180001 170 180 157 255
-0.68882614 -0.039662443 1.5140001 168 178 155 255
-0.68288708 -0.039557386 1.5100001 167 177 154 255
-0.67787063 -0.039504822 1.508 164 174 151 255
-0.67376041 -0.039504752 1.508 160 170 147 255
-0.66965199 -0.039504785 1.508 154 164 141 255
-0.66510385 -0.039478719 1.5070001 147 155 130 255
-0.65968555 -0.039400358 1.5040001 145 153 128 255
-0.65559268 -0.039400678 1.5040001 150 158 132 255
-0.65150148 -0.039401095 1.5040001 143 151 126 255
-0.64784199 -0.039427798 1.5050001 151 159 134 255
-0.64375079 -0.039428398 1.5050001 165 171 146 255
-0.63923579 -0.039402883 1.5040001 155 161 135 255
-0.63472748 -0.039377455 1.503 148 155 126 255
-0.63064545 -0.039378311 1.503 151 158 129 255
-0.62656468 -0.039379258 1.503 150 157 128 255
-0.62207073 -0.039354082 1.5020001 148 155 126 255
-0.14854403 -0.039701421 1.503 144 150 124 255
-0.14519033 -0.039914683 1.511 147 153 128 255
-0.14179216 -0.040127918 1.5190001 109 114 92 255
-0.13816832 -0.040288284 1.5250001 35 40 19 255
-0.13433526 -0.040395778 1.529 38 43 22 255
-0.13047977 -0.040503234 1.5330001 39 43 25 255
-0.12643701 -0.040557802 1.5350001 44 48 30 255
-0.12230314 -0.04058589 1.536 46 50 32 255
-0.11816327 -0.040613934 1.5370001 47 49 31 255
-0.11394332 -0.04061551 1.5370001 43 47 30 255
-0.10972287 -0.040617026 1.5370001 43 47 30 255
-0.10550198 -0.040618487 1.5370001 43 46 32 255
-0.10128064 -0.040619895 1.5370001 47 50 36 255
-0.096995741 -0.04059482 1.536 45 50 36 255
-0.092715934 -0.040569693 1.5350001 47 50 36 255
-0.088556513 -0.040597357 1.536 47 50 36 255
-0.08433634 -0.040598549 1.536 47 50 36 255
-0.080115803 -0.040599681 1.536 45 48 34 255
-0.075796105 -0.040547889 1.534 46 49 37 255
-0.071627066 -0.040575344 1.5350001 48 51 39 255
-0.067408301 -0.040576302 1.5350001 41 44 32 255
-0.063230418 -0.040603638 1.536 53 56 44 255
-0.058969937 -0.040578056 1.5350001 50 53 41 255
-0.054786026 -0.040605281 1.536 51 54 42 255
-0.050497629 -0.040553138 1.534 53 56 44 255
-0.046280354 -0.040553816 1.534 52 55 41 255
-0.042062871 -0.04055443 1.534 51 54 40 255
-0.037869882 -0.040581424 1.5350001 51 54 40 255
-0.033671226 -0.040608358 1.536 51 54 40 255
-0.029428585 -0.040582363 1.5350001 49 53 36 255
-0.025207734 -0.040582743 1.5350001 50 53 39 255
-0.021000445 -0.040609505 1.536 48 51 37 255
-0.016765723 -0.040583335 1.5350001 49 52 38 255
-0.012528252 -0.040530663 1.5330001 52 55 41 255
-0.0083071506 -0.040504366 1.5320001 55 58 46 255
-0.0040941844 -0.040504452 1.5320001 55 58 46 255
0.00011879882 -0.040504482 1.5320001 56 59 47 255
0.0043317825 -0.040504452 1.5320001 58 61 47 255
0.0085447459 -0.040504362 1.5320001 56 57 43 255
0.012749346 -0.040477771 1.531 58 60 43 255
0.016959468 -0.040477566 1.531 60 61 47 255
0.021183344 -0.04050374 1.5320001 59 60 46 255
0.025396045 -0.040503412 1.5320001 56 59 45 255
0.029589314 -0.04047659 1.531 57 60 46 255
0.03379903 -0.040476143 1.531 58 61 47 255
0.038008597 -0.040475644 1.531 60 63 49 255
0.042218 -0.040475085 1.531 55 60 46 255
0.0463969 -0.040448032 1.5300001 61 66 52 255
0.05060317 -0.040447358 1.5300001 58 63 49 255
0.054773394 -0.040420189 1.529 59 64 50 255
0.05897646 -0.040419396 1.529 60 65 51 255
0.063137956 -0.040392119 1.5280001 63 68 56 255
0.067337759 -0.040391214 1.5280001 65 68 56 255
0.071490437 -0.040363818 1.5270001 63 66 52 255
0.075686887 -0.040362805 1.5270001 64 67 53 255
0.079935335 -0.040388163 1.5280001 61 66 52 255
0.084133863 -0.040387034 1.5280001 66 71 57 255
0.088389851 -0.040412281 1.529 67 72 58 255
0.092711523 -0.040463898 1.531 65 70 58 255
0.096917182 -0.040462602 1.531 68 73 61 255
0.10112242 -0.040461246 1.531 70 75 64 255
0.10546486 -0.0405127 1.5330001 64 69 58 255
0.10988937 -0.040590513 1.536 68 73 61 255
0.11425561 -0.040641848 1.5380001 66 71 59 255
0.11840127 -0.040613849 1.5370001 67 74 62 255
0.12262072 -0.040612224 1.5370001 68 73 61 255
0.12683965 -0.040610544 1.5370001 72 77 65 255
0.13097283 -0.040582396 1.536 70 77 65 255
0.135276 -0.040607035 1.5370001 71 78 66 255
0.13940261 -0.040578786 1.536 73 80 69 255
0.14352317 -0.040550489 1.5350001 81 88 77 255
0.14754143 -0.040495727 1.5330001 82 91 80 255
0.15144913 -0.040414505 1.5300001 83 92 81 255
0.15554325 -0.04038607 1.529 82 89 78 255
0.15963128 -0.040357593 1.5280001 77 84 73 255
0.16392763 -0.04038189 1.529 76 82 74 255
0.16822881 -0.040406138 1.5300001 74 81 70 255
0.17264752 -0.040456742 1.5320001 73 80 69 255
0.17673023 -0.040428076 1.531 71 78 67 255
0.18068862 -0.040372968 1.529 73 79 71 255
0.1846354 -0.040317822 1.5270001 74 80 72 255
0.18881778 -0.040315434 1.5270001 78 84 76 255
0.19287312 -0.040286612 1.526 86 92 85 255
0.19705139 -0.040284146 1.526 94 100 93 255
0.20109706 -0.040255245 1.5250001 85 93 85 255
0.20554034 -0.040305488 1.5270001 81 89 81 255
0.21081789 -0.040514044 1.5350001 81 88 77 255
0.21697889 -0.040880885 1.549 77 84 72 255
0.22178768 -0.040983744 1.5530001 60 67 55 255
0.22545312 -0.040875435 1.549 54 59 48 255
0.22894765 -0.040740721 1.544 54 61 50 255
0.23271611 -0.040658765 1.5410001 74 80 72 255
0.23585233 -0.040471241 1.534 100 106 98 255
0.23910598 -0.040310096 1.5280001 104 110 102 255
0.24264449 -0.040201694 1.524 87 93 85 255
0.24648425 -0.040146034 1.5220001 75 81 73 255
0.25014755 -0.040063966 1.5190001 72 78 70 255
0.25446334 -0.040087383 1.5200001 77 83 75 255
0.25929418 -0.04018987 1.524 79 85 77 255
0.26622051 -0.040608749 1.5400001 79 85 77 255
0.27305773 -0.041001163 1.5550001 72 77 66 255
0.27854934 -0.04118257 1.562 50 55 44 255
0.28244886 -0.041126654 1.5600001 51 58 47 255
0.28615281 -0.041044354 1.557 94 101 90 255
0.28909349 -0.040856611 1.5500001 85 93 85 255
0.29218438 -0.040695228 1.544 86 94 87 255
0.54946285 -0.04062691 1.549 21 25 18 255
0.55365413 -0.040624384 1.549 27 31 24 255
0.65511906 -0.046645395 1.779 22 27 15 255
0.66698235 -0.04714096 1.7980001 23 28 14 255
0.67072821 -0.047059756 1.7950001 23 27 10 255
0.6714474 -0.046768904 1.784 23 27 10 255
0.66490507 -0.045980085 1.7540001 22 25 11 255
0.65018332 -0.04464094 1.7030001 22 25 11 255
0.64941221 -0.04427183 1.6890001 19 22 10 255
0.65630996 -0.044427045 1.6950001 17 20 8 255
0.62253702 -0.04098656 1.5640001 122 131 120 255
0.61675769 -0.040329881 1.539 122 128 120 255
0.61286104 -0.039804354 1.5190001 103 107 99 255
0.61210632 -0.039488569 1.5070001 16 21 10 255
0.6145584 -0.039382499 1.503 14 16 6 255
0.6182245 -0.039355118 1.5020001 16 18 8 255
-1.0160831 -0.050640069 1.7440001 27 29 12 255
-1.0186676 -0.051008385 1.7570001 23 25 8 255
-0.99233812 -0.049925499 1.72 23 25 8 255
-0.99550456 -0.050323334 1.7340001 24 23 7 255
-0.99002886 -0.050286029 1.733 24 23 7 255
-0.97717541 -0.049871817 1.7190001 26 25 9 255
-0.9666695 -0.049574003 1.7090001 26 25 9 255
-0.96860784 -0.049914576 1.7210001 27 26 10 255
-0.94752455 -0.049066324 1.692 25 24 10 255
-0.93775392 -0.048798431 1.6830001 25 24 10 255
-0.94079006 -0.049197633 1.697 21 22 10 255
-0.93768573 -0.049278077 1.7 21 22 10 255
-0.94673014 -0.050250992 1.7340001 21 18 4 255
-0.9315629 -0.049694441 1.715 30 24 7 255
-0.92569351 -0.049630772 1.7130001 31 23 6 255
-0.92145306 -0.04965423 1.7140001 54 41 18 255
-0.91828126 -0.049735822 1.7170001 75 59 33 255
-0.91403359 -0.049759671 1.7180001 78 61 32 255
-0.90978497 -0.049783714 1.7190001 88 66 38 255
-0.90500867 -0.049778983 1.7190001 98 75 45 255
-0.90180796 -0.049861319 1.7220001 97 74 42 255
-0.89755315 -0.049885925 1.723 97 74 42 255
-0.89329678 -0.049910717 1.7240001 96 74 40 255
-0.88697755 -0.04981989 1.7210001 94 72 38 255
-0.88170421 -0.049787156 1.72 93 71 37 255
-0.87695003 -0.049783558 1.72 86 66 32 255
-0.87219977 -0.04978013 1.72 83 62 30 255
-0.86745334 -0.049776882 1.72 78 60 27 255
-0.8622089 -0.049744878 1.7190001 78 60 27 255
-0.85846978 -0.049799845 1.7210001 74 57 27 255
-0.8552193 -0.049883913 1.7240001 68 51 21 255
-0.85047567 -0.049881339 1.7240001 62 47 17 255
-0.84573531 -0.049878929 1.7240001 60 47 18 255
-0.83904684 -0.049760956 1.72 56 43 14 255
-0.82898796 -0.049440648 1.7090001 56 43 19 255
-0.78522944 -0.047095526 1.628 36 26 7 255
-0.74815291 -0.045126788 1.5600001 216 212 196 255
-0.7362476 -0.04466249 1.544 211 214 202 255
-0.72964764 -0.044516545 1.539 207 215 200 255
-0.72260606 -0.044341814 1.5330001 191 201 184 255
-0.71513098 -0.04413829 1.526 183 194 175 255
-0.70816243 -0.043963835 1.5200001 162 173 152 255
-0.70308149 -0.043905199 1.5180001 161 173 148 255
-0.6980136 -0.043846685 1.516 165 175 150 255
-0.69295859 -0.043788299 1.5140001 168 178 153 255
-0.68746161 -0.043701109 1.511 168 178 153 255
-0.68198276 -0.043614034 1.508 168 175 154 255
-0.67697167 -0.043555994 1.506 166 173 152 255
-0.67286682 -0.043555912 1.506 161 168 147 255
-0.66787565 -0.043498099 1.5040001 163 170 148 255
-0.66422105 -0.043527164 1.5050001 151 161 138 255
-0.65968525 -0.043498483 1.5040001 148 158 133 255
-0.65602827 -0.043527752 1.5050001 151 161 135 255
-0.65106779 -0.04347036 1.503 147 155 129 255
-0.64655006 -0.043441992 1.5020001 146 154 128 255
-0.64203912 -0.043413721 1.501 155 161 135 255
-0.63795996 -0.04341447 1.501 154 161 132 255
-0.63345981 -0.043386392 1.5000001 147 154 125 255
-0.62938583 -0.043387331 1.5000001 158 165 136 255
-0.62531298 -0.043388359 1.5000001 153 160 131 255
-0.62124133 -0.043389481 1.5000001 151 158 129 255
-0.16144079 -0.043969344 1.508 146 153 124 255
-0.15814103 -0.044204906 1.516 146 152 126 255
-0.15469521 -0.04441129 1.5230001 100 106 81 255
-0.15111156 -0.044588476 1.529 36 41 19 255
-0.14730224 -0.044707302 1.5330001 35 40 19 255
-0.14328369 -0.044767756 1.5350001 46 50 32 255
-0.1392536 -0.044828158 1.5370001 50 54 36 255
-0.13503626 -0.044830177 1.5370001 50 54 36 255
-0.13081838 -0.044832133 1.5370001 48 52 34 255
-0.12651758 -0.044804864 1.536 46 50 33 255
-0.12222179 -0.044777542 1.5350001 48 52 35 255
-0.11800785 -0.04477933 1.5350001 42 46 29 255
-0.11379343 -0.044781059 1.5350001 48 52 35 255
-0.10957853 -0.044782728 1.5350001 48 51 37 255
-0.10543182 -0.044813514 1.536 48 51 37 255
-0.1012792 -0.044844244 1.5370001 50 53 39 255
-0.097057506 -0.044845741 1.5370001 48 51 37 255
-0.0927146 -0.044788819 1.5350001 50 53 39 255
-0.088497587 -0.044790182 1.5350001 48 51 37 255
-0.084280223 -0.044791497 1.5350001 49 52 38 255
-0.080062479 -0.044792742 1.5350001 49 52 38 255
-0.07574559 -0.044735562 1.5330001 48 51 39 255
-0.071579359 -0.044765867 1.534 50 53 41 255
-0.067363404 -0.044766925 1.534 46 49 37 255
-0.063188329 -0.044797108 1.5350001 53 56 44 255
-0.058969077 -0.044798043 1.5350001 52 55 43 255
-0.05474956 -0.044798911 1.5350001 54 57 43 255
-0.050496899 -0.044770535 1.534 57 60 46 255
-0.046279673 -0.044771276 1.534 53 57 40 255
-0.042034835 -0.04474277 1.5330001 54 58 41 255
-0.037819985 -0.044743385 1.5330001 54 57 43 255
-0.033604968 -0.044743933 1.5330001 56 59 45 255
-0.02938981 -0.044744417 1.5330001 56 60 43 255
-0.025190942 -0.044774026 1.534 58 61 47 255
-0.020972794 -0.044774383 1.534 58 61 47 255
-0.016754553 -0.044774674 1.534 59 62 48 255
-0.012519897 -0.044716526 1.5320001 58 62 45 255
-0.0083070286 -0.044716686 1.5320001 59 62 48 255
-0.0040914519 -0.044687591 1.531 60 63 51 255
0.00011871953 -0.044687625 1.531 61 64 50 255
0.0043260632 -0.0446584 1.5300001 61 64 50 255
0.0085334647 -0.044658296 1.5300001 55 58 44 255
0.012740832 -0.044658139 1.5300001 54 55 41 255
0.016948143 -0.044657908 1.5300001 55 56 42 255
0.021155376 -0.04465761 1.5300001 50 51 39 255
0.025345942 -0.044628065 1.529 50 53 39 255
0.029550223 -0.04462764 1.529 51 54 40 255
0.033754382 -0.044627156 1.529 52 57 43 255
0.037958391 -0.044626605 1.529 52 55 41 255
0.042189807 -0.044655174 1.5300001 56 61 47 255
0.046365894 -0.044625305 1.529 55 60 46 255
0.050602425 -0.044653747 1.5300001 61 66 54 255
0.054700948 -0.044565383 1.5270001 59 64 52 255
0.058937032 -0.044593703 1.5280001 59 64 52 255
0.063054398 -0.0445344 1.526 60 65 53 255
0.067292698 -0.044562586 1.5270001 63 66 54 255
0.071442582 -0.044532344 1.526 61 66 52 255
0.075636223 -0.044531222 1.526 63 68 54 255
0.079777226 -0.044500861 1.5250001 63 68 54 255
0.084022529 -0.044528801 1.526 64 69 55 255
0.088272966 -0.044556674 1.5270001 63 68 56 255
0.092589073 -0.044613667 1.529 65 70 59 255
0.096789174 -0.044612236 1.529 64 69 58 255
0.10105494 -0.044639926 1.5300001 64 69 58 255
0.10539456 -0.044696726 1.5320001 65 70 59 255
0.10967318 -0.044724289 1.5330001 66 71 59 255
0.11395683 -0.044751789 1.534 69 74 62 255
0.11809146 -0.044720888 1.5330001 68 73 61 255
0.12229986 -0.0447191 1.5330001 69 74 62 255
0.12650779 -0.044717256 1.5330001 70 75 63 255
0.13062991 -0.04468618 1.5320001 69 76 64 255
0.13483405 -0.044684228 1.5320001 72 79 67 255
0.13894688 -0.044653039 1.531 75 82 71 255
0.14305367 -0.04462181 1.5300001 80 87 76 255
0.14696193 -0.044532202 1.5270001 81 90 79 255
0.15095212 -0.044471707 1.5250001 76 85 74 255
0.15503247 -0.044440322 1.524 76 85 74 255
0.15931568 -0.044467214 1.5250001 76 85 74 255
0.16371095 -0.044523194 1.5270001 72 79 68 255
0.16811655 -0.04457913 1.529 68 75 64 255
0.17219442 -0.044547543 1.5280001 71 78 67 255
0.1762661 -0.044515904 1.5270001 73 80 69 255
0.18033168 -0.04448422 1.526 74 80 72 255
0.1843911 -0.044452496 1.5250001 80 86 78 255
0.18856798 -0.044449873 1.5250001 81 87 80 255
0.19261777 -0.044418056 1.524 86 92 85 255
0.19666138 -0.044386193 1.5230001 94 100 93 255
0.20043507 -0.044296011 1.5200001 90 98 91 255
0.20459546 -0.044293214 1.5200001 84 92 84 255
0.20957907 -0.044465192 1.526 82 89 78 255
0.21529521 -0.044782802 1.5370001 72 79 68 255
0.22049947 -0.044983778 1.544 66 73 61 255
0.22428589 -0.044893369 1.5410001 51 58 47 255
0.22790678 -0.044773791 1.5370001 53 60 49 255
0.23135401 -0.044625066 1.5320001 83 89 81 255
0.23446561 -0.044418063 1.5250001 102 108 100 255
0.23816407 -0.044327553 1.5220001 98 104 96 255
0.24216382 -0.044295266 1.521 75 81 73 255
0.2463192 -0.044292063 1.521 68 74 66 255
0.24981511 -0.044172354 1.5170001 68 74 66 255
0.25362316 -0.044110861 1.5150001 71 77 70 255
0.25792989 -0.044136681 1.516 81 87 80 255
0.26414287 -0.044482697 1.5280001 85 89 81 255
0.27112287 -0.044945065 1.544 67 72 61 255
0.2771194 -0.045232683 1.554 39 44 33 255
0.28081605 -0.045141872 1.5510001 30 35 24 255
0.28394404 -0.044963732 1.5450001 35 40 29 255
0.28591943 -0.044610988 1.5330001 85 91 83 255
0.28839621 -0.044345565 1.524 93 101 94 255
0.29216689 -0.04428383 1.5220001 86 94 87 255
0.29650992 -0.04430937 1.5230001 80 88 81 255
0.30164716 -0.044451233 1.5280001 74 82 75 255
0.30701098 -0.044622146 1.534 74 82 75 255
0.31220379 -0.044763923 1.539 69 77 69 255
0.3178342 -0.044963822 1.5460001 70 76 69 255
0.53234535 -0.04413417 1.524 89 93 86 255
0.53259659 -0.043812789 1.5130001 84 88 81 255
0.53633559 -0.043781053 1.5120001 89 93 86 255
0.54078424 -0.04380729 1.5130001 83 87 80 255
0.54775929 -0.044036236 1.521 88 92 84 255
0.56022048 -0.044699475 1.544 78 83 72 255
0.66104436 -0.051580887 1.7820001 17 22 10 255
0.66624165 -0.051607043 1.7830001 24 27 13 255
0.66843396 -0.051401742 1.7760001 20 23 9 255
0.60514206 -0.044907909 1.552 13 18 6 255
0.606206 -0.044674516 1.544 11 18 6 255
0.60683185 -0.044412281 1.5350001 8 17 5 255
0.60820585 -0.044208016 1.5280001 103 112 100 255
0.60914189 -0.043974914 1.5200001 82 91 80 255
0.6096319 -0.043712977 1.511 76 83 71 255
0.61048019 -0.043480076 1.503 83 90 78 255
0.61333048 -0.043391913 1.5000001 97 102 90 255
-0.9769327 -0.053527351 1.6850001 24 26 9 255
-0.97446191 -0.053645048 1.6890001 26 27 13 255
-0.99780989 -0.055191979 1.738 26 25 11 255
-0.98603851 -0.054801866 1.7260001 28 27 11 255
-0.97036207 -0.054189924 1.7070001 28 27 11 255
-0.96780872 -0.054308467 1.7110001 28 27 11 255
-0.97368097 -0.054903261 1.7300001 28 27 11 255
-0.96265215 -0.054546196 1.7190001 26 25 9 255
-0.94834763 -0.053999115 1.702 23 22 8 255
-0.93802512 -0.053674493 1.692 20 21 9 255
-0.93493462 -0.053762529 1.6950001 25 23 12 255
-0.94335723 -0.054516785 1.7190001 20 18 7 255
-0.94073069 -0.05463687 1.723 24 21 7 255
-0.93591446 -0.054630328 1.723 28 22 6 255
-0.92678016 -0.054370403 1.715 58 44 25 255
-0.92199624 -0.054364357 1.715 73 55 29 255
-0.91775203 -0.054390237 1.7160001 89 70 41 255
-0.91350681 -0.054416321 1.7170001 94 70 42 255
-0.9097901 -0.054474309 1.7190001 95 72 42 255
-0.90501344 -0.054469127 1.7190001 94 69 37 255
-0.90181267 -0.054559212 1.7220001 96 71 39 255
-0.89651573 -0.05452276 1.7210001 96 71 38 255
-0.89278293 -0.05458156 1.723 95 70 37 255
-0.88595092 -0.054450501 1.7190001 91 67 31 255
-0.8817082 -0.054478019 1.72 91 69 35 255
-0.87695384 -0.054474067 1.72 88 66 32 255
-0.87372458 -0.054565314 1.723 83 62 30 255
-0.86796105 -0.054498419 1.7210001 78 57 25 255
-0.86371672 -0.054526698 1.7220001 74 56 23 255
-0.85947031 -0.05455517 1.723 71 54 24 255
-0.85522211 -0.054583829 1.7240001 69 52 22 255
-0.84949166 -0.054517679 1.7220001 63 48 18 255
-0.84377551 -0.054451726 1.72 59 46 17 255
-0.83758575 -0.054354291 1.7170001 58 45 16 255
-0.82607961 -0.053908832 1.7030001 58 45 21 255
-0.74431777 -0.049125217 1.552 187 189 172 255
-0.73529536 -0.048807092 1.5420001 211 214 202 255
-0.72964889 -0.048710685 1.539 207 215 200 255
-0.72213578 -0.048487831 1.5320001 201 211 194 255
-0.71372622 -0.04820184 1.5230001 173 184 165 255
-0.70676571 -0.04801093 1.5170001 162 173 152 255
-0.70261914 -0.048010066 1.5170001 162 174 149 255
-0.69755381 -0.047946032 1.5150001 161 171 146 255
-0.69341683 -0.047945429 1.5150001 172 180 155 255
-0.68700701 -0.04778672 1.5100001 162 170 145 255
-0.68198305 -0.047723077 1.508 169 176 154 255
-0.67652237 -0.047627922 1.5050001 165 172 151 255
-0.6724202 -0.047627825 1.5050001 165 172 151 255
-0.66743147 -0.047564551 1.503 169 176 155 255
-0.66333812 -0.047564693 1.503 158 168 145 255
-0.65924627 -0.04756495 1.503 152 162 137 255
-0.65559191 -0.04759698 1.5040001 149 159 134 255
-0.65063405 -0.047534168 1.5020001 145 155 129 255
-0.64611894 -0.047503117 1.501 140 148 122 255
-0.64161062 -0.047472175 1.5000001 142 149 120 255
-0.62531191 -0.047476042 1.5000001 157 161 133 255
-0.62124008 -0.04747726 1.5000001 157 164 135 255
-0.17383727 -0.048103258 1.508 152 158 133 255
-0.17083031 -0.048424941 1.5180001 95 101 76 255
-0.16743851 -0.048650894 1.5250001 40 45 24 255
-0.16368651 -0.048781101 1.529 32 36 18 255
-0.15970333 -0.048847456 1.531 41 45 27 255
-0.15591173 -0.048977584 1.5350001 41 45 27 255
-0.15189989 -0.049043838 1.5370001 45 49 31 255
-0.14768434 -0.049046226 1.5370001 46 50 33 255
-0.14337483 -0.049016636 1.536 47 51 34 255
-0.13916086 -0.049018901 1.536 50 56 39 255
-0.13485846 -0.048989192 1.5350001 50 56 39 255
-0.13073124 -0.049023245 1.536 51 57 39 255
-0.12659799 -0.049057249 1.5370001 52 58 41 255
-0.12237913 -0.049059268 1.5370001 51 57 40 255
-0.11808287 -0.049029298 1.536 54 58 41 255
-0.11371751 -0.04896735 1.534 57 61 44 255
-0.10950543 -0.048969176 1.534 54 57 43 255
-0.10529289 -0.04897093 1.534 54 57 43 255
-0.10114581 -0.049004551 1.5350001 55 58 44 255
-0.096992821 -0.049038105 1.536 53 56 42 255
-0.092652723 -0.048975822 1.534 52 55 41 255
-0.088380881 -0.048945386 1.5330001 49 52 38 255
-0.084223963 -0.048978746 1.534 50 53 39 255
-0.080009058 -0.048980113 1.534 50 53 39 255
-0.07574439 -0.048949476 1.5330001 51 54 40 255
-0.071531557 -0.048950702 1.5330001 50 53 39 255
-0.067318425 -0.048951857 1.5330001 51 54 40 255
-0.063146159 -0.048984878 1.534 55 58 46 255
-0.0588913 -0.048953969 1.5330001 50 53 41 255
-0.054713018 -0.048986856 1.534 57 60 48 255
-0.050463166 -0.048955802 1.5330001 58 61 49 255
-0.046248764 -0.048956614 1.5330001 55 59 42 255
-0.04197932 -0.048893481 1.531 52 56 39 255
-0.037794705 -0.048926085 1.5320001 55 59 42 255
-0.033582509 -0.048926685 1.5320001 56 60 43 255
-0.029389339 -0.048959155 1.5330001 56 60 43 255
-0.025174117 -0.048959617 1.5330001 56 59 45 255
-0.020958783 -0.048960008 1.5330001 57 60 48 255
-0.016732439 -0.048928387 1.5320001 60 63 49 255
-0.012511522 -0.048896693 1.531 58 61 47 255
-0.0082960501 -0.048864927 1.5300001 57 60 48 255
-0.0040887138 -0.048865035 1.5300001 60 63 51 255
0.00011864006 -0.048865072 1.5300001 59 62 48 255
0.0043259934 -0.048865031 1.5300001 60 63 49 255
0.0085221734 -0.04880105 1.5280001 58 61 49 255
0.012723971 -0.048800871 1.5280001 56 59 47 255
0.016914636 -0.048768681 1.5270001 63 66 54 255
0.02112738 -0.048800297 1.5280001 62 64 54 255
0.025295803 -0.048736032 1.526 59 64 52 255
0.029511096 -0.048767503 1.5270001 58 63 51 255
0.033687606 -0.04873503 1.526 64 69 57 255
0.0378833 -0.048734434 1.526 59 64 50 255
0.04207883 -0.04873376 1.526 61 66 52 255
0.046274178 -0.048733018 1.526 65 70 58 255
0.050502401 -0.048764147 1.5270001 60 65 53 255
0.054628428 -0.048699394 1.5250001 60 65 54 255
0.058781803 -0.048666511 1.524 58 63 52 255
0.062929437 -0.048633564 1.5230001 63 68 57 255
0.067115359 -0.048632473 1.5230001 61 66 54 255
0.071254171 -0.048599388 1.5220001 62 67 53 255
0.075486325 -0.048630096 1.5230001 62 67 55 255
0.079671346 -0.048628807 1.5230001 57 64 52 255
0.083966143 -0.04869131 1.5250001 58 65 53 255
0.088213757 -0.048721809 1.526 59 66 55 255
0.092466503 -0.048752248 1.5270001 61 68 57 255
0.096661046 -0.048750691 1.5270001 60 65 54 255
0.1008552 -0.048749063 1.5270001 66 71 60 255
0.10518651 -0.04881122 1.529 63 70 59 255
0.1093853 -0.048809465 1.529 65 70 59 255
0.11358362 -0.048807636 1.529 69 74 62 255
0.11770446 -0.048773833 1.5280001 70 77 65 255
0.12205864 -0.048835725 1.5300001 70 78 63 255
0.12625825 -0.048833705 1.5300001 68 75 63 255
0.13028684 -0.048767805 1.5280001 70 77 65 255
0.13447994 -0.048765667 1.5280001 75 82 71 255
0.13858174 -0.048731558 1.5270001 76 82 74 255
0.1426775 -0.048697393 1.526 77 83 75 255
0.14667095 -0.048631258 1.524 71 80 69 255
0.15055388 -0.048533164 1.521 71 80 69 255
0.15482667 -0.04856265 1.5220001 76 83 72 255
0.1592088 -0.048623983 1.524 77 84 72 255
0.16370849 -0.048717149 1.5270001 72 79 67 255
0.16800408 -0.048746448 1.5280001 72 77 65 255
0.17219184 -0.048743788 1.5280001 71 76 65 255
0.17603263 -0.048645377 1.5250001 72 79 68 255
0.18009265 -0.048610717 1.524 76 82 74 255
0.18414655 -0.048576016 1.5230001 78 84 76 255
0.18844154 -0.048605036 1.524 80 86 79 255
0.19236217 -0.048538335 1.5220001 85 91 84 255
0.19614203 -0.048439708 1.5190001 90 96 89 255
0.19990471 -0.048341036 1.516 89 97 90 255
0.20405407 -0.048337981 1.516 87 95 87 255
0.20875205 -0.048462413 1.5200001 87 94 83 255
0.21403144 -0.04871431 1.5280001 77 84 73 255
0.21921107 -0.048934244 1.5350001 57 64 53 255
0.22326389 -0.048899092 1.534 54 61 50 255
0.22656904 -0.048704524 1.5280001 56 63 52 255
0.22999166 -0.04854181 1.5230001 102 108 100 255
0.23353985 -0.048410945 1.5190001 92 99 88 255
0.23784782 -0.048439402 1.5200001 78 85 74 255
0.2420013 -0.048435941 1.5200001 75 80 69 255
0.24631585 -0.048464309 1.521 69 74 63 255
0.24964704 -0.048301462 1.516 64 69 58 255
0.25345233 -0.048234183 1.5140001 64 70 62 255
0.25741604 -0.04819873 1.5130001 76 82 74 255
0.26310211 -0.048481788 1.5220001 86 90 82 255
0.26953891 -0.048892174 1.5350001 70 74 66 255
0.27551085 -0.04920692 1.5450001 33 38 27 255
0.27918288 -0.049107578 1.5420001 33 38 27 255
0.28228635 -0.048912685 1.536 36 41 30 255
0.28442368 -0.048558578 1.5250001 63 69 61 255
0.28706792 -0.048300024 1.5170001 94 102 94 255
0.29062748 -0.048200652 1.5140001 84 92 84 255
0.2945593 -0.048164953 1.5130001 76 84 76 255
0.29907706 -0.048224725 1.5150001 76 84 76 255
0.30340472 -0.048252624 1.516 80 86 78 255
0.30793989 -0.048312332 1.5180001 75 83 75 255
0.31248516 -0.048372 1.5200001 75 83 75 255
0.31745708 -0.048495285 1.524 75 83 75 255
0.32245001 -0.048618533 1.5280001 77 83 75 255
0.32746384 -0.048741736 1.5320001 73 79 71 255
0.33228222 -0.048833087 1.5350001 71 77 69 255
0.33711606 -0.048924409 1.5380001 71 77 69 255
0.52475297 -0.0479782 1.5140001 120 124 117 255
0.52570558 -0.047689866 1.5050001 86 90 83 255
0.52801758 -0.047528367 1.5000001 80 84 77 255
0.54163432 -0.047646243 1.5040001 79 86 75 255
0.54933262 -0.047960192 1.5140001 80 85 74 255
0.56622392 -0.049066063 1.549 87 92 80 255
0.59788561 -0.049238104 1.5550001 18 23 11 255
0.59357899 -0.048539259 1.5330001 14 19 7 255
0.59461242 -0.048283812 1.5250001 96 103 91 255
0.59638852 -0.048091788 1.5190001 89 96 84 255
0.59931874 -0.047994848 1.516 93 100 89 255
0.60223347 -0.047897998 1.5130001 73 82 70 255
0.60473198 -0.047769587 1.5090001 75 84 73 255
0.6068061 -0.04760962 1.5040001 75 82 70 255
-1.006204 -0.060161855 1.7440001 22 23 9 255
-0.97605568 -0.059201099 1.7170001 25 24 8 255
-0.96322042 -0.059277672 1.72 21 22 8 255
-0.94389802 -0.058373339 1.6940001 21 22 10 255
-0.93415183 -0.058055237 1.6850001 23 21 11 255
-0.93880308 -0.058633167 1.702 21 17 6 255
-0.94665694 -0.059417874 1.725 20 16 5 255
-0.9423756 -0.059444945 1.7260001 29 19 2 255
-0.93646443 -0.059368949 1.7240001 49 35 18 255
-0.9294886 -0.059224356 1.72 73 53 27 255
-0.92307776 -0.059114475 1.7170001 84 61 31 255
-0.91936243 -0.059176978 1.7190001 89 64 32 255
-0.91351265 -0.059102025 1.7170001 92 67 35 255
-0.90979552 -0.05916499 1.7190001 94 67 38 255
-0.90449232 -0.059124932 1.7180001 94 67 38 255
-0.90077037 -0.059188355 1.72 91 65 36 255
-0.89652067 -0.059217572 1.7210001 91 65 36 255
-0.89226943 -0.059247021 1.7220001 82 56 24 255
-0.88750148 -0.059242271 1.7220001 84 58 29 255
-0.88325018 -0.059272148 1.723 83 60 28 255
-0.87848741 -0.059267834 1.723 82 59 27 255
-0.87474263 -0.059332523 1.725 81 58 28 255
-0.868469 -0.059225451 1.7220001 79 58 28 255
-0.86321861 -0.059187375 1.7210001 74 55 25 255
-0.85847598 -0.059183903 1.7210001 71 52 22 255
-0.85472906 -0.059249405 1.723 66 49 19 255
-0.85048115 -0.059280712 1.7240001 64 47 18 255
-0.84475923 -0.059209049 1.7220001 60 45 16 255
-0.8385638 -0.059103221 1.7190001 60 45 16 255
-0.82220131 -0.058275573 1.6950001 65 49 26 255
-0.76786953 -0.054732207 1.5920001 61 43 27 255
-0.74479914 -0.053389482 1.5530001 187 190 176 255
-0.73529696 -0.053009573 1.5420001 188 193 179 255
-0.72870219 -0.052836109 1.5370001 204 214 199 255
-0.72119445 -0.052594054 1.5300001 200 210 193 255
-0.71325868 -0.052317794 1.5220001 172 183 164 255
-0.70630074 -0.052110445 1.516 159 170 149 255
-0.70215678 -0.052109491 1.516 159 171 148 255
-0.69755453 -0.052074309 1.5150001 148 158 133 255
-0.69295973 -0.052039269 1.5140001 166 174 149 255
-0.68700749 -0.051901266 1.5100001 162 170 145 255
-0.68198335 -0.051832132 1.508 167 173 148 255
-0.67697203 -0.051763143 1.506 170 176 151 255
-0.6724202 -0.051728655 1.5050001 171 177 152 255
-0.66743141 -0.051659927 1.503 165 173 148 255
-0.66333795 -0.051660072 1.503 160 168 143 255
-0.6596846 -0.051694714 1.5040001 153 163 138 255
-0.65515554 -0.051660739 1.503 152 162 137 255
-0.65063351 -0.051626891 1.5020001 148 158 135 255
-0.64568788 -0.051558785 1.5000001 148 156 131 255
-0.64160991 -0.051559538 1.5000001 144 152 127 255
-0.63753325 -0.051560409 1.5000001 140 148 123 255
-0.19371192 -0.052021008 1.5020001 134 141 112 255
-0.19048308 -0.052266628 1.5090001 139 145 119 255
-0.18709172 -0.052477594 1.5150001 79 85 59 255
-0.1836668 -0.052688517 1.521 42 48 23 255
-0.17997232 -0.052830137 1.5250001 39 45 20 255
-0.17637052 -0.053006355 1.5300001 43 48 26 255
-0.17251556 -0.053113248 1.5330001 49 54 33 255
-0.1687533 -0.053254731 1.5370001 47 51 33 255
-0.16454025 -0.053257566 1.5370001 45 49 31 255
-0.16032659 -0.053260341 1.5370001 47 51 34 255
-0.15611227 -0.053263057 1.5370001 46 50 33 255
-0.15209502 -0.053335018 1.539 47 51 34 255
-0.14787404 -0.053337608 1.539 49 53 36 255
-0.14346579 -0.053270821 1.5370001 53 57 40 255
-0.13915852 -0.053238615 1.536 54 60 43 255
-0.13485619 -0.053206339 1.5350001 55 61 44 255
-0.13072905 -0.053243328 1.536 56 62 45 255
-0.12659587 -0.053280257 1.5370001 62 68 51 255
-0.12237706 -0.053282443 1.5370001 58 63 49 255
-0.11808087 -0.053249892 1.536 57 62 48 255
-0.11364146 -0.053147942 1.5330001 57 62 48 255
-0.10943219 -0.053149924 1.5330001 61 64 50 255
-0.10515383 -0.053117152 1.5320001 59 62 48 255
-0.10107819 -0.053188335 1.534 58 61 47 255
-0.096801721 -0.05315543 1.5330001 56 59 45 255
-0.092590742 -0.053157132 1.5330001 56 59 45 255
-0.088321708 -0.053124074 1.5320001 54 57 43 255
-0.084112704 -0.053125616 1.5320001 52 55 41 255
-0.079955518 -0.053161778 1.5330001 56 59 45 255
-0.075743072 -0.053163178 1.5330001 56 57 43 255
-0.071530312 -0.053164508 1.5330001 53 54 40 255
-0.067317247 -0.053165764 1.5330001 57 58 44 255
-0.063103899 -0.053166948 1.5330001 55 56 42 255
-0.058890268 -0.053168051 1.5330001 53 54 40 255
-0.054676395 -0.053169083 1.5330001 54 57 45 255
-0.050462283 -0.053170037 1.5330001 54 57 45 255
-0.046217784 -0.053136237 1.5320001 56 59 45 255
-0.042006005 -0.053137042 1.5320001 55 59 42 255
-0.037794042 -0.053137764 1.5320001 55 59 42 255
-0.03360384 -0.05317311 1.5330001 58 62 45 255
-0.029407991 -0.05320837 1.534 58 62 45 255
-0.025173672 -0.053174179 1.5330001 57 60 46 255
-0.020958416 -0.053174607 1.5330001 56 59 45 255
-0.016721223 -0.053105567 1.531 57 60 46 255
-0.012494957 -0.053036459 1.529 60 63 49 255
-0.0082904818 -0.053036653 1.529 61 64 50 255
-0.0040886421 -0.053071458 1.5300001 61 64 50 255
0.00011848289 -0.053002119 1.5280001 64 67 53 255
0.0043202629 -0.053002078 1.5280001 65 68 54 255
0.0085164458 -0.052967269 1.5270001 59 62 48 255
0.012715419 -0.052967075 1.5270001 60 63 49 255
0.016903261 -0.052932113 1.526 71 74 62 255
0.0210717 -0.052862395 1.524 62 67 55 255
0.025245629 -0.052827291 1.5230001 59 64 52 255
0.0294526 -0.052861474 1.524 63 68 56 255
0.033642866 -0.052860897 1.524 63 68 56 255
0.03783299 -0.052860249 1.524 62 67 55 255
0.042050522 -0.052894205 1.5250001 62 67 55 255
0.046212722 -0.05285871 1.524 63 68 56 255
0.050435368 -0.052892521 1.5250001 57 62 51 255
0.054555833 -0.052822195 1.5230001 61 66 55 255
0.058742214 -0.052821171 1.5230001 62 67 56 255
0.06288702 -0.052785385 1.5220001 68 73 62 255
0.067070119 -0.052784201 1.5220001 62 69 57 255
0.07120613 -0.052748278 1.521 67 75 60 255
0.075385891 -0.052746952 1.521 65 72 60 255
0.079617649 -0.052780233 1.5220001 62 69 57 255
0.083799511 -0.052778762 1.5220001 61 68 57 255
0.088038832 -0.052811898 1.5230001 66 71 60 255
0.092283256 -0.052844957 1.524 64 71 60 255
0.096469499 -0.052843269 1.524 65 70 59 255
0.10065533 -0.052841503 1.524 64 71 60 255
0.10490953 -0.052874349 1.5250001 64 71 60 255
0.10902573 -0.052837774 1.524 63 70 59 255
0.11321025 -0.052835803 1.524 65 72 60 255
0.11747137 -0.05286843 1.5250001 65 72 60 255
0.12173746 -0.052900985 1.526 67 75 60 255
0.12600857 -0.052933481 1.5270001 70 77 65 255
0.13011411 -0.052896563 1.526 71 78 66 255
0.13430165 -0.05289425 1.526 70 77 66 255
0.13839792 -0.052857213 1.5250001 71 77 69 255
0.14248812 -0.052820109 1.524 69 75 67 255
0.1463798 -0.052713629 1.521 66 75 64 255
0.15035342 -0.052641757 1.5190001 67 76 65 255
0.15472238 -0.05270844 1.521 73 82 71 255
0.15910172 -0.052775059 1.5230001 77 84 73 255
0.1635986 -0.052876249 1.526 71 78 67 255
0.16778144 -0.052873429 1.526 64 71 60 255
0.17196365 -0.052870549 1.526 67 74 63 255
0.17591435 -0.05279832 1.524 69 76 65 255
0.17985342 -0.052726045 1.5220001 75 83 75 255
0.18390176 -0.052688353 1.521 77 85 77 255
0.18806759 -0.052685246 1.521 84 90 83 255
0.19197996 -0.052612815 1.5190001 86 92 85 255
0.19588065 -0.052540332 1.5170001 85 91 84 255
0.19950598 -0.052398548 1.5130001 83 89 82 255
0.20351249 -0.052360613 1.5120001 83 91 83 255
0.20806211 -0.05246114 1.5150001 105 111 103 255
0.21318771 -0.052700117 1.5220001 79 85 77 255
0.21806522 -0.052869752 1.5270001 58 65 54 255
0.22209613 -0.05283159 1.526 53 60 49 255
0.22537941 -0.052620299 1.5200001 70 77 66 255
0.22893107 -0.052478213 1.516 100 107 96 255
0.2330751 -0.052474566 1.516 73 80 69 255
0.23768777 -0.052574698 1.5190001 72 79 68 255
0.24215686 -0.052640174 1.521 69 74 63 255
0.24615024 -0.052601766 1.5200001 66 71 60 255
0.24947867 -0.052424915 1.5150001 64 69 58 255
0.25311381 -0.052317251 1.5120001 64 70 62 255
0.25707203 -0.052278757 1.511 71 77 69 255
0.26257971 -0.05255159 1.5190001 87 92 81 255
0.26848146 -0.052893542 1.529 55 60 49 255
0.27408034 -0.053166222 1.5370001 38 43 32 255
0.27791157 -0.053092934 1.5350001 34 39 28 255
0.28099591 -0.052881289 1.529 40 45 34 255
0.28311414 -0.052496724 1.5180001 70 76 68 255
0.28573927 -0.052215934 1.5100001 89 97 89 255
0.28947172 -0.052142616 1.508 80 88 80 255
0.29377651 -0.052173007 1.5090001 76 84 76 255
0.29828334 -0.052237943 1.511 74 82 74 255
0.30219984 -0.052199129 1.5100001 74 83 72 255
0.30631292 -0.05219486 1.5100001 74 83 72 255
0.31063077 -0.052225135 1.511 77 86 75 255
0.31516159 -0.052289948 1.5130001 74 82 74 255
0.31949145 -0.052320164 1.5140001 75 84 73 255
0.3238259 -0.052350361 1.5150001 75 84 73 255
0.32773209 -0.052311417 1.5140001 76 83 72 255
0.33207041 -0.052341573 1.5150001 74 80 72 255
0.33641338 -0.052371703 1.516 78 83 72 255
0.34121025 -0.0524709 1.5190001 78 82 74 255
0.34670466 -0.052673686 1.5250001 74 80 72 255
0.35223097 -0.052876424 1.531 71 77 69 255
0.35802189 -0.053113658 1.5380001 73 79 71 255
0.51147491 -0.05375275 1.5610001 173 181 174 255
0.51569879 -0.053748842 1.5610001 169 177 170 255
0.52025539 -0.053779412 1.562 163 171 164 255
0.5234744 -0.053672325 1.559 128 136 129 255
0.52464616 -0.053358756 1.5500001 109 117 110 255
0.52338088 -0.052804325 1.534 76 82 75 255
0.52065337 -0.052112337 1.5140001 96 100 93 255
0.52163029 -0.051799107 1.5050001 71 75 67 255
0.52395582 -0.051623642 1.5000001 66 70 62 255
0.54461288 -0.05164209 1.501 76 80 72 255
0.5534271 -0.052086342 1.5140001 81 86 75 255
0.56820393 -0.053081032 1.5430001 70 75 64 255
0.58926171 -0.054244772 1.577 25 30 18 255
0.5897674 -0.053897992 1.567 48 53 41 255
0.58642864 -0.053207383 1.5470001 49 54 42 255
0.58603632 -0.052792065 1.5350001 18 25 13 255
0.58711743 -0.05251443 1.5270001 55 63 48 255
0.5893175 -0.052340079 1.5220001 89 99 84 255
0.59110105 -0.052131437 1.516 76 86 71 255
0.59285289 -0.05192291 1.5100001 83 92 80 255
0.59496814 -0.051748872 1.5050001 83 90 78 255
0.59825122 -0.051678091 1.503 85 92 81 255
0.60112351 -0.051573034 1.5000001 69 76 65 255
-0.9863475 -0.063953005 1.7180001 24 23 9 255
-0.95120877 -0.061969817 1.6650001 21 23 6 255
-0.96895808 -0.063736156 1.7130001 25 27 10 255
-0.97032177 -0.06413573 1.7240001 28 29 15 255
-0.95090878 -0.063159227 1.6980001 21 22 8 255
-0.94112045 -0.06281554 1.6890001 20 18 7 255
-0.93970406 -0.063030019 1.6950001 22 18 7 255
-0.94267219 -0.063542172 1.7090001 22 18 4 255
-0.94337219 -0.063905753 1.7190001 25 19 3 255
-0.93801522 -0.063860632 1.7180001 43 29 12 255
-0.93375576 -0.063890137 1.7190001 70 55 35 255
-0.92841488 -0.063845567 1.7180001 80 58 30 255
-0.92362207 -0.063838437 1.7180001 82 58 30 255
-0.91883403 -0.063831568 1.7180001 95 72 42 255
-0.9129867 -0.063750662 1.7160001 82 56 28 255
-0.90874302 -0.06378147 1.7170001 66 39 11 255
-0.90397167 -0.063775375 1.7170001 87 60 31 255
-0.90077579 -0.063880935 1.72 97 71 42 255
-0.89548403 -0.063838199 1.7190001 101 75 46 255
-0.89175636 -0.063907102 1.7210001 70 44 15 255
-0.88750631 -0.063939095 1.7220001 75 49 20 255
-0.88376749 -0.064008452 1.7240001 76 53 23 255
-0.87900162 -0.06400378 1.7240001 77 54 22 255
-0.87576109 -0.064110711 1.7270001 78 55 25 255
-0.86897719 -0.063957997 1.723 73 52 22 255
-0.8632223 -0.06387978 1.7210001 71 52 22 255
-0.85798067 -0.063838899 1.72 67 48 18 255
-0.85473239 -0.063946694 1.723 64 47 18 255
-0.8499909 -0.063943356 1.723 63 46 17 255
-0.84329051 -0.063791789 1.7190001 65 48 19 255
-0.83563954 -0.063566223 1.7130001 68 51 22 255
-0.81686789 -0.062487431 1.6840001 76 60 37 255
-0.76690698 -0.058997102 1.59 120 110 93 255
-0.7448011 -0.05762212 1.5530001 209 214 200 255
-0.73529869 -0.057212085 1.5420001 180 188 173 255
-0.72822958 -0.056987751 1.536 197 207 192 255
-0.7207244 -0.056726497 1.529 185 196 177 255
-0.71325994 -0.056465428 1.5220001 170 181 162 255
-0.70676774 -0.056278728 1.5170001 156 167 146 255
-0.70262086 -0.056277681 1.5170001 169 181 158 255
-0.69801575 -0.056239702 1.516 162 174 151 255
-0.69250268 -0.056127686 1.5130001 149 159 134 255
-0.68655288 -0.055978712 1.5090001 155 165 140 255
-0.68198365 -0.055941191 1.508 139 147 121 255
-0.67742175 -0.055903818 1.5070001 136 142 116 255
-0.67331386 -0.055903684 1.5070001 155 163 137 255
-0.66831952 -0.055829499 1.5050001 160 168 142 255
-0.66422045 -0.055829644 1.5050001 162 170 144 255
-0.66012293 -0.055829924 1.5050001 158 166 140 255
-0.65471923 -0.055719048 1.5020001 159 167 142 255
-0.65019971 -0.055682499 1.501 159 166 144 255
-0.6456871 -0.055646081 1.5000001 164 171 149 255
-0.64160901 -0.055646889 1.5000001 162 169 147 255
-0.63753223 -0.055647817 1.5000001 143 150 128 255
-0.20631586 -0.056208197 1.5040001 129 136 105 255
-0.20394787 -0.056697663 1.5170001 126 134 108 255
-0.20058608 -0.056925487 1.5230001 61 69 44 255
-0.19719069 -0.057153285 1.529 41 48 26 255
-0.19325681 -0.057231527 1.531 44 50 32 255
-0.1895583 -0.057384495 1.5350001 46 52 34 255
-0.18535413 -0.057387862 1.5350001 49 53 35 255
-0.18114929 -0.057391178 1.5350001 51 55 37 255
-0.17694379 -0.057394426 1.5350001 46 50 32 255
-0.17273758 -0.057397611 1.5350001 48 52 34 255
-0.16875032 -0.057475518 1.5370001 48 52 35 255
-0.16453733 -0.057478573 1.5370001 49 53 36 255
-0.16032372 -0.057481576 1.5370001 48 51 37 255
-0.15621105 -0.057521898 1.5380001 48 52 35 255
-0.15209231 -0.057562161 1.539 49 53 36 255
-0.14787139 -0.057564955 1.539 48 54 37 255
-0.14336984 -0.057455454 1.536 54 60 43 255
-0.13897482 -0.057383288 1.534 56 64 47 255
-0.13476589 -0.057385866 1.534 56 64 47 255
-0.13064156 -0.057425782 1.5350001 55 63 46 255
-0.12651117 -0.05746562 1.536 61 69 54 255
-0.12229519 -0.057467978 1.536 59 67 52 255
-0.11800184 -0.057432853 1.5350001 59 64 50 255
-0.11356524 -0.057322811 1.5320001 63 68 56 255
-0.10935878 -0.057324942 1.5320001 59 64 50 255
-0.10508325 -0.057289578 1.531 64 67 53 255
-0.10087864 -0.057291556 1.531 62 65 53 255
-0.096610494 -0.057256036 1.5300001 59 64 50 255
-0.092347421 -0.057220429 1.529 58 61 49 255
-0.088204764 -0.057259604 1.5300001 59 62 50 255
-0.083946437 -0.057223845 1.529 59 62 48 255
-0.079849698 -0.057300281 1.531 58 59 45 255
-0.075642839 -0.057301801 1.531 57 59 42 255
-0.071482308 -0.057340655 1.5320001 55 57 40 255
-0.067272067 -0.057342008 1.5320001 57 59 42 255
-0.063061543 -0.057343286 1.5320001 54 56 39 255
-0.058889158 -0.057381906 1.5330001 53 54 40 255
-0.054711029 -0.057420451 1.534 53 56 44 255
-0.050461326 -0.057384048 1.5330001 53 56 44 255
-0.046247076 -0.057384998 1.5330001 51 54 42 255
-0.042005207 -0.05734843 1.5320001 53 56 44 255
-0.037818 -0.057386652 1.5330001 56 59 45 255
-0.033625118 -0.057424791 1.534 55 58 44 255
-0.02940743 -0.057425406 1.534 53 56 42 255
-0.025173195 -0.057388514 1.5330001 56 59 45 255
-0.020958016 -0.057388965 1.5330001 55 58 44 255
-0.016709983 -0.057277035 1.5300001 55 58 44 255
-0.012494719 -0.057239879 1.529 58 61 47 255
-0.0082903234 -0.057240088 1.529 59 62 48 255
-0.0040885638 -0.05727765 1.5300001 60 63 49 255
0.00011848065 -0.057202816 1.5280001 59 65 48 255
0.0043230075 -0.057240207 1.529 60 65 51 255
0.0085274382 -0.05724008 1.529 62 67 53 255
0.012731832 -0.057239868 1.529 59 64 50 255
0.016891865 -0.057089832 1.5250001 65 70 59 255
0.021071302 -0.05705202 1.524 60 65 54 255
0.025228577 -0.056976695 1.5220001 60 65 54 255
0.029432716 -0.057013586 1.5230001 63 68 57 255
0.03359808 -0.056975532 1.5220001 65 70 59 255
0.037782624 -0.056974836 1.5220001 66 71 60 255
0.041939426 -0.05693661 1.521 64 69 58 255
0.046151202 -0.056973185 1.5220001 65 70 59 255
0.050368272 -0.057009667 1.5230001 58 63 52 255
0.054518983 -0.056971211 1.5220001 61 66 55 255
0.058663964 -0.056932669 1.521 68 73 61 255
0.062803201 -0.056894056 1.5200001 67 74 62 255
0.066936657 -0.056855358 1.5190001 64 71 59 255
0.07115797 -0.056891441 1.5200001 67 74 62 255
0.075334921 -0.056890015 1.5200001 65 72 60 255
0.079563856 -0.05692593 1.521 60 65 54 255
0.083632767 -0.056849495 1.5190001 68 73 62 255
0.087863758 -0.056885261 1.5200001 68 73 62 255
0.092039339 -0.056883529 1.5200001 70 75 64 255
0.096341103 -0.056956556 1.5220001 69 74 63 255
0.10045532 -0.056917232 1.521 64 71 60 255
0.10463243 -0.056915268 1.521 63 70 59 255
0.10873757 -0.056875799 1.5200001 68 75 64 255
0.11298532 -0.056911103 1.521 70 77 66 255
0.11716109 -0.056908906 1.521 66 73 62 255
0.12141614 -0.056944057 1.5220001 67 74 62 255
0.12551114 -0.056904297 1.521 73 80 69 255
0.12977068 -0.056939296 1.5220001 72 79 68 255
0.13394719 -0.056936812 1.5220001 73 80 69 255
0.13821392 -0.056971665 1.5230001 69 76 65 255
0.14220506 -0.056894217 1.521 68 74 66 255
0.14628093 -0.056854118 1.5200001 67 73 65 255
0.15025175 -0.056776553 1.5180001 66 72 64 255
0.15451618 -0.056811128 1.5190001 72 78 70 255
0.15878549 -0.056845631 1.5200001 68 75 64 255
0.16316687 -0.056917455 1.5220001 64 70 62 255
0.16744865 -0.056951825 1.5230001 64 70 62 255
0.17162259 -0.056948725 1.5230001 68 74 66 255
0.17556499 -0.056870777 1.521 74 80 72 255
0.1797321 -0.056867551 1.521 73 81 73 255
0.18377768 -0.05682689 1.5200001 73 81 73 255
0.18781705 -0.056786161 1.5190001 79 85 77 255
0.19159751 -0.05667061 1.516 78 84 76 255
0.19536082 -0.056555018 1.5130001 78 86 78 255
0.19910701 -0.056439385 1.5100001 82 90 82 255
0.20323984 -0.056435838 1.5100001 84 92 84 255
0.20764659 -0.056506969 1.5120001 109 117 109 255
0.21248376 -0.056690145 1.5170001 75 83 75 255
0.21706198 -0.056798518 1.5200001 54 63 52 255
0.22121921 -0.056794722 1.5200001 50 57 46 255
0.22433773 -0.056529332 1.5130001 90 97 86 255
0.22802125 -0.056413375 1.5100001 89 96 85 255
0.23261006 -0.056521527 1.5130001 73 80 69 255
0.23737095 -0.056666963 1.5170001 72 79 68 255
0.24199376 -0.056774992 1.5200001 69 74 63 255
0.24566045 -0.056658849 1.5170001 62 67 56 255
0.24914536 -0.056505345 1.5130001 63 68 57 255
0.25277495 -0.056389153 1.5100001 62 69 58 255
0.2567277 -0.05634762 1.5090001 67 74 63 255
0.26188415 -0.056567419 1.5150001 87 92 81 255
0.26759934 -0.056899149 1.524 52 57 45 255
0.27282783 -0.057118792 1.5300001 38 43 31 255
0.27682099 -0.057077054 1.529 35 40 29 255
0.27952138 -0.056774005 1.521 40 45 34 255
0.28161782 -0.056358989 1.5100001 88 95 84 255
0.2845996 -0.056130622 1.5040001 81 89 81 255
0.28850761 -0.056088831 1.503 77 85 77 255
0.29279876 -0.056121655 1.5040001 76 84 76 255
0.2972919 -0.05619175 1.506 74 82 74 255
0.30119479 -0.056149885 1.5050001 74 82 74 255
0.30529422 -0.056145303 1.5050001 73 82 71 255
0.30939287 -0.056140695 1.5050001 74 83 72 255
0.31390727 -0.056210663 1.5070001 75 84 73 255
0.31822076 -0.056243304 1.508 74 83 72 255
0.32232511 -0.056238618 1.508 75 82 71 255
0.32621229 -0.056196626 1.5070001 72 79 68 255
0.33031234 -0.05619191 1.5070001 71 77 69 255
0.33463353 -0.056224462 1.508 74 79 68 255
0.33895937 -0.056256991 1.5090001 75 79 71 255
0.34328988 -0.056289501 1.5100001 77 81 73 255
0.34739497 -0.056284722 1.5100001 74 80 72 255
0.35219765 -0.056391746 1.5130001 77 83 75 255
0.35630938 -0.056386933 1.5130001 72 81 70 255
0.36137319 -0.056531169 1.5170001 72 81 70 255
0.36645803 -0.056675386 1.521 70 79 68 255
0.37229481 -0.056931343 1.5280001 73 82 71 255
0.37792245 -0.057149988 1.534 68 77 66 255
0.49393994 -0.057956561 1.559 174 182 175 255
0.49656144 -0.057766296 1.554 104 112 105 255
0.49915573 -0.057576105 1.549 59 67 60 255
0.50237256 -0.057460327 1.5460001 60 68 61 255
0.50655603 -0.05745611 1.5460001 61 69 62 255
0.51040894 -0.057414785 1.5450001 66 74 67 255
0.51392317 -0.057336356 1.5430001 66 74 67 255
0.51675504 -0.057183675 1.539 64 72 65 255
