ply
format ascii 1.0
comment PCL generated
element vertex 995
property float x
property float y
property float z
property uchar red
property uchar green
property uchar blue
property uchar alpha
element camera 0
property float view_px
property float view_py
property float view_pz
property float x_axisx
property float x_axisy
property float x_axisz
property float y_axisx
property float y_axisy
property float y_axisz
property float z_axisx
property float z_axisy
property float z_axisz
property float focal
property float scalex
property float scaley
property float centerx
property float centery
property int viewportx
property int viewporty
property float k1
property float k2
end_header
0.24336518 0.050522365 1.7720001 62 68 61 255
0.24779333 0.050433539 1.7690001 57 63 56 255
0.2520614 0.050316181 1.7650001 54 60 53 255
0.25717998 0.050369818 1.7670001 59 65 58 255
0.2621603 0.050394893 1.7680001 65 71 64 255
0.26729622 0.050448425 1.7700001 47 51 44 255
0.27198088 0.050416403 1.7690001 57 61 54 255
0.27681574 0.050412849 1.7690001 66 70 63 255
0.28149045 0.050380748 1.7680001 57 61 54 255
0.28583482 0.050291624 1.7650001 52 56 49 255
0.29049119 0.050259452 1.7640001 67 71 64 255
0.29530862 0.050255742 1.7640001 67 71 63 255
0.30080569 0.050365943 1.7680001 72 76 68 255
0.30597788 0.050419115 1.7700001 52 56 48 255
0.31098443 0.050443761 1.771 56 60 52 255
0.3154605 0.050382927 1.7690001 62 66 58 255
0.31992474 0.050322063 1.7670001 48 52 44 255
0.32400951 0.050204229 1.7630001 49 53 46 255
0.32825804 0.050114859 1.7600001 54 58 51 255
0.3326785 0.050053943 1.7580001 67 68 62 255
0.33689508 0.049964529 1.7550001 71 72 66 255
0.34148374 0.04993204 1.7540001 64 68 61 255
0.34567121 0.049842607 1.751 63 67 60 255
0.35064188 0.049867008 1.7520001 66 69 65 255
0.35460275 0.049749076 1.748 71 74 70 255
0.35977444 0.049801894 1.7500001 74 77 73 255
0.36474773 0.049826227 1.751 71 75 68 255
0.37014759 0.049907438 1.7540001 67 71 64 255
0.37470788 0.04987482 1.7530001 66 70 63 255
0.37926176 0.049842183 1.7520001 67 71 64 255
0.38380924 0.04980953 1.751 59 63 56 255
0.38835037 0.049776874 1.7500001 61 65 58 255
0.39378369 0.049857978 1.7530001 70 73 69 255
0.39923239 0.049939048 1.756 69 72 68 255
0.40423641 0.049963221 1.7570001 71 75 68 255
0.40924492 0.049987383 1.7580001 64 68 61 255
0.41425797 0.050011531 1.7590001 74 78 71 255
0.41975203 0.050092522 1.7620001 78 82 75 255
0.42477971 0.050116651 1.7630001 74 78 71 255
0.42981187 0.050140761 1.7640001 75 79 72 255
0.43509501 0.050193287 1.766 75 81 74 255
0.44088635 0.050302643 1.7700001 77 83 76 255
0.44695038 0.05044039 1.7750001 73 79 72 255
0.45202264 0.050464466 1.7760001 70 76 69 255
0.45658511 0.05043171 1.7750001 75 79 72 255
0.46114135 0.050398964 1.774 70 74 67 255
0.46621665 0.050423048 1.7750001 68 72 65 255
0.4712967 0.050447136 1.7760001 69 73 66 255
0.48174149 0.050523713 1.779 85 84 78 255
0.48847935 0.050718203 1.7860001 82 82 74 255
0.49359706 0.050742291 1.7870001 81 83 75 255
0.49760386 0.050652817 1.784 33 35 27 255
0.49962237 0.050364655 1.774 168 172 164 255
0.60013604 0.050253861 1.7730001 192 197 194 255
0.60561544 0.050307073 1.7750001 169 172 169 255
0.61144942 0.050388671 1.7780001 166 169 165 255
0.61625981 0.050385296 1.7780001 164 167 163 255
0.62037176 0.050325312 1.7760001 174 177 173 255
0.62623292 0.050407056 1.779 201 204 200 255
0.63565773 0.05077219 1.7920001 190 194 187 255
0.64336592 0.050995678 1.8000001 13 17 10 255
0.64931697 0.051077563 1.8030001 22 26 19 255
0.6545589 0.051102843 1.8040001 12 14 4 255
0.65688211 0.050901584 1.7970001 18 20 10 255
0.65769476 0.050587125 1.7860001 19 22 10 255
0.6606741 0.050442707 1.7810001 20 23 11 255
0.66586864 0.050468303 1.7820001 24 27 13 255
0.67144549 0.050522294 1.784 25 28 14 255
0.67438012 0.050378121 1.779 24 27 13 255
0.67996085 0.050432269 1.7810001 24 27 13 255
0.68555295 0.050486486 1.7830001 26 27 13 255
0.69270539 0.050654035 1.789 25 26 12 255
0.69911116 0.05076503 1.7930001 22 23 9 255
0.70082808 0.050536368 1.7850001 23 24 10 255
0.70092094 0.050194561 1.7730001 21 22 8 255
0.70453203 0.050107658 1.7700001 21 22 10 255
0.71293688 0.050360557 1.779 18 21 9 255
0.72421569 0.050811686 1.7950001 20 23 11 255
0.73152059 0.050979808 1.8010001 13 18 6 255
0.73804128 0.051091406 1.8050001 48 53 41 255
0.74129218 0.050976671 1.8010001 70 76 68 255
0.74410808 0.050833728 1.7960001 91 97 90 255
0.74523002 0.050577693 1.7870001 104 110 103 255
0.74672431 0.050350077 1.779 113 118 114 255
0.74606413 0.049981069 1.766 124 129 125 255
0.74661022 0.04969709 1.756 121 128 124 255
0.74753135 0.049441524 1.7470001 130 137 133 255
0.74754387 0.049129486 1.7360001 135 140 137 255
0.74879819 0.048902463 1.728 139 146 143 255
0.74739432 0.048505764 1.7140001 146 153 152 255
0.74854851 0.048278984 1.7060001 153 160 159 255
0.74789494 0.047939125 1.6940001 161 167 169 255
0.75028741 0.047797479 1.6890001 164 170 172 255
0.74997282 0.047486164 1.6780001 168 174 176 255
0.75004977 0.047203261 1.6680001 171 178 177 255
0.75052661 0.046948783 1.659 175 182 181 255
0.75232184 0.046779323 1.6530001 182 186 186 255
0.75179702 0.046468485 1.6420001 183 187 187 255
0.74983251 0.046072859 1.628 184 188 188 255
0.75011033 0.045818858 1.6190001 183 187 187 255
0.75173926 0.045649879 1.613 185 189 189 255
0.75286901 0.045452718 1.6060001 184 188 188 255
0.75301987 0.045199085 1.5970001 188 192 192 255
0.75264949 0.044917256 1.5870001 186 190 190 255
0.75222677 0.044635545 1.577 187 194 193 255
0.7522316 0.044382263 1.5680001 185 191 193 255
0.75363714 0.044214014 1.562 188 194 196 255
0.75307155 0.043932661 1.552 192 196 198 255
0.75196576 0.04362312 1.5410001 191 195 197 255
0.75080222 0.043313682 1.5300001 193 196 200 255
0.75204843 0.043145914 1.524 193 196 200 255
0.7507835 0.042836715 1.5130001 187 193 196 255
0.74995983 0.042555936 1.503 171 177 180 255
-0.96523345 0.045531534 1.7770001 22 23 9 255
-0.93325251 0.04424531 1.7270001 23 24 10 255
-0.93542445 0.04457343 1.7400001 23 24 10 255
-0.8932786 0.043001797 1.6790001 24 25 11 255
-0.88172925 0.042664636 1.6660001 22 23 9 255
-0.87811172 0.043845851 1.7130001 22 23 9 255
-0.88714314 0.04453373 1.7400001 23 24 10 255
-0.91935545 0.046398915 1.8130001 23 24 12 255
-0.89216197 0.04526991 1.7690001 23 24 12 255
-0.88226837 0.04501123 1.7590001 22 23 11 255
-0.88141221 0.045213316 1.7670001 23 21 10 255
-0.87605095 0.045185253 1.766 24 22 11 255
-0.86823213 0.04502942 1.7600001 23 21 10 255
-0.8624118 0.044976085 1.7580001 23 21 10 255
-0.87953317 0.046125282 1.8030001 24 22 11 255
-0.87894791 0.04635359 1.812 24 22 11 255
-0.83683652 0.04438211 1.7350001 24 22 11 255
-0.83831286 0.044713072 1.748 22 20 9 255
-0.85259581 0.045734774 1.7880001 22 20 9 255
-0.8533873 0.046040364 1.8000001 22 21 7 255
-0.85270196 0.04626935 1.8090001 27 24 10 255
-0.84915823 0.046344992 1.812 29 26 10 255
-0.85212332 0.046778835 1.8290001 33 29 15 255
-0.80280298 0.04652014 1.8190001 174 175 161 255
-0.79171044 0.046162359 1.8050001 182 186 169 255
-0.78374726 0.045983713 1.7980001 189 193 176 255
-0.77625716 0.045830749 1.7920001 193 197 180 255
-0.7692318 0.045703463 1.7870001 192 196 179 255
-0.76095206 0.045499552 1.779 195 200 186 255
-0.75314236 0.045321304 1.7720001 183 189 172 255
-0.74663919 0.045219894 1.7680001 178 184 167 255
-0.74141783 0.0451953 1.7670001 159 164 150 255
-0.73662025 0.045196384 1.7670001 203 211 196 255
-0.72933877 0.045044087 1.761 201 206 192 255
-0.72209138 0.044891875 1.7550001 170 178 163 255
-0.71610373 0.044816483 1.7520001 159 167 152 255
-0.71135157 0.044817917 1.7520001 154 160 142 255
-0.70579398 0.044768278 1.7500001 156 160 142 255
-0.70024806 0.04471872 1.748 160 164 146 255
-0.69511193 0.044694822 1.7470001 184 188 170 255
-0.6903773 0.044696592 1.7470001 192 196 179 255
-0.68525094 0.044672847 1.7460001 202 208 191 255
-0.67857188 0.044546839 1.7410001 190 196 179 255
-0.67346883 0.04452325 1.7400001 178 184 166 255
-0.66760308 0.044448543 1.7370001 197 203 185 255
-0.66251761 0.044425089 1.7360001 183 189 171 255
-0.65705919 0.044376113 1.7340001 173 179 161 255
-0.651236 0.04430161 1.7310001 180 187 166 255
-0.64617652 0.04427835 1.7300001 152 159 138 255
-0.64112294 0.04425516 1.7290001 179 186 165 255
-0.6364432 0.044257622 1.7290001 181 186 165 255
-0.63176388 0.044260148 1.7290001 178 183 162 255
-0.62635952 0.044211533 1.7270001 178 183 161 255
-0.62096626 0.04416297 1.725 189 194 172 255
-0.61629862 0.044165675 1.725 195 200 178 255
-0.61092204 0.044117216 1.723 194 199 178 255
-0.60590833 0.044094417 1.7220001 162 169 148 255
-0.60055107 0.044046059 1.72 164 170 152 255
-0.59589756 0.044048969 1.72 163 169 151 255
-0.59124404 0.044051923 1.72 159 166 145 255
-0.58693171 0.044080544 1.7210001 156 163 142 255
-0.58227545 0.044083595 1.7210001 161 168 147 255
-0.57694805 0.044035465 1.7190001 162 169 148 255
-0.5712983 0.043961745 1.7160001 165 172 150 255
-0.5666554 0.043964922 1.7160001 171 178 156 255
-0.5623399 0.043993767 1.7170001 167 173 148 255
-0.55834353 0.044048272 1.7190001 175 181 155 255
-0.55272561 0.043974694 1.7160001 171 175 147 255
-0.54808193 0.043978032 1.7160001 163 167 139 255
-0.54312128 0.043955766 1.715 177 183 157 255
-0.53942168 0.044036061 1.7180001 178 184 159 255
-0.5338378 0.043962594 1.715 171 179 154 255
-0.5285784 0.043914791 1.7130001 170 177 156 255
-0.52363533 0.043892641 1.7120001 175 182 161 255
-0.51839405 0.043844871 1.71 177 184 162 255
-0.51376408 0.043848407 1.71 173 180 158 255
-0.50853819 0.043800682 1.7080001 174 182 157 255
-0.50391275 0.043804269 1.7080001 172 180 154 255
-0.49870208 0.043756571 1.7060001 172 180 154 255
-0.49408099 0.043760195 1.7060001 169 177 151 255
-0.48888546 0.04371253 1.7040001 170 178 143 255
-0.48455286 0.043741837 1.705 169 177 151 255
-0.47965127 0.043719858 1.7040001 170 178 153 255
-0.47503331 0.043723546 1.7040001 173 181 155 255
-0.46986246 0.043675922 1.702 162 170 144 255
-0.46497521 0.043653972 1.7010001 179 187 161 255
-0.46009275 0.043632023 1.7 178 186 160 255
-0.45467913 0.04355875 1.697 176 184 159 255
-0.44981161 0.043536808 1.6960001 177 184 162 255
-0.44521117 0.043540545 1.6960001 179 186 164 255
-0.44035029 0.043518614 1.6950001 179 186 164 255
-0.43523699 0.043471009 1.6930001 178 185 164 255
-0.43038815 0.043449074 1.692 156 163 142 255
-0.42579558 0.043452814 1.692 189 196 175 255
-0.4214513 0.043482251 1.6930001 159 166 144 255
-0.41685444 0.043486003 1.6930001 159 167 142 255
-0.41250029 0.043515436 1.6940001 144 152 126 255
-0.40862149 0.043596253 1.697 134 141 112 255
-0.4049637 0.043702781 1.7010001 128 135 104 255
-0.40175396 0.043860704 1.7070001 136 141 109 255
-0.39967394 0.044147126 1.7180001 129 132 100 255
-0.3966136 0.044330798 1.725 105 107 71 255
-0.39260551 0.044411693 1.728 82 84 46 255
-0.3865599 0.044261258 1.7220001 99 101 61 255
-0.38143304 0.044213608 1.72 127 130 88 255
-0.37653524 0.044191644 1.7190001 121 124 82 255
-0.37337247 0.044375338 1.7260001 106 109 69 255
-0.36910275 0.044430491 1.728 89 91 55 255
-0.36271238 0.044228498 1.72 79 82 51 255
-0.35532391 0.043897871 1.7070001 174 179 148 255
-0.34923789 0.043721478 1.7 140 144 116 255
-0.34460807 0.043725088 1.7 138 143 112 255
-0.34057724 0.043805841 1.7030001 129 134 103 255
-0.3363319 0.04386086 1.705 127 132 101 255
-0.33246383 0.043967322 1.7090001 114 117 93 255
-0.32818943 0.044022322 1.7110001 108 110 90 255
-0.32352498 0.044025842 1.7110001 13 15 0 255
-0.31830049 0.043952134 1.7080001 23 23 13 255
-0.31345874 0.04392986 1.7070001 26 26 18 255
-0.30844057 0.043881815 1.705 58 57 51 255
-0.30289793 0.043756522 1.7 92 93 87 255
-0.29738158 0.043631177 1.6950001 114 118 111 255
-0.2922371 0.043557271 1.692 106 110 103 255
-0.28744805 0.043534812 1.6910001 94 97 93 255
-0.28299803 0.043563806 1.692 128 134 127 255
-0.27837721 0.043567032 1.692 51 55 48 255
-0.2735936 0.043544468 1.6910001 87 91 84 255
-0.26881459 0.043521862 1.6900001 85 89 82 255
-0.26404017 0.04349922 1.6890001 80 81 75 255
-0.25957751 0.04352805 1.6900001 86 87 81 255
-0.25495765 0.043531086 1.6900001 74 78 71 255
-0.2501888 0.043508328 1.6890001 88 92 85 255
-0.24527918 0.043459766 1.687 79 83 76 255
-0.2405223 0.043436918 1.6860001 83 87 80 255
-0.23604986 0.043465555 1.687 90 96 89 255
-0.23170833 0.043519922 1.6890001 92 98 91 255
-0.22722059 0.043548487 1.6900001 80 86 79 255
-0.22259483 0.043551236 1.6900001 74 82 74 255
-0.21771035 0.043502405 1.6880001 78 86 78 255
-0.21308845 0.043505065 1.6880001 87 95 87 255
-0.20846578 0.04350768 1.6880001 90 98 91 255
-0.20372158 0.043484472 1.687 90 98 91 255
-0.19921814 0.043512773 1.6880001 85 91 84 255
-0.19470845 0.043541022 1.6890001 88 94 87 255
-0.19019257 0.043569233 1.6900001 84 90 83 255
-0.18545087 0.043545831 1.6890001 80 86 79 255
-0.18071392 0.043522373 1.6880001 86 92 85 255
-0.17619044 0.043550439 1.6890001 74 80 73 255
-0.1717623 0.043604236 1.6910001 82 88 81 255
-0.16732256 0.043657992 1.6930001 75 79 72 255
-0.16287117 0.043711692 1.6950001 74 80 73 255
-0.15831482 0.043739561 1.6960001 77 81 74 255
-0.15384297 0.043793172 1.6980001 72 76 69 255
-0.14971094 0.043949895 1.7040001 71 75 67 255
-0.14554536 0.044106577 1.71 69 74 63 255
-0.14142866 0.044289015 1.7170001 70 72 62 255
-0.13711372 0.044419825 1.7220001 66 71 60 255
-0.13284761 0.044576373 1.728 71 74 62 255
-0.12839974 0.044681285 1.7320001 69 71 61 255
-0.12414357 0.044863548 1.7390001 66 69 57 255
-0.11998571 0.045097355 1.748 68 71 59 255
-0.115712 0.045305319 1.756 52 55 43 255
-0.11095186 0.045332633 1.7570001 44 47 33 255
-0.10612532 0.045334082 1.7570001 42 43 29 255
-0.1012407 0.045309667 1.756 42 43 29 255
-0.096416064 0.045310993 1.756 42 43 29 255
-0.091591001 0.045312256 1.756 47 48 36 255
-0.08666674 0.045261849 1.7540001 50 53 41 255
-0.081799768 0.04523718 1.7530001 57 59 51 255
-0.076894015 0.045186639 1.751 60 62 54 255
-0.071998924 0.045136034 1.7490001 63 64 58 255
-0.067114532 0.045085363 1.7470001 66 67 61 255
-0.062205166 0.045008816 1.7440001 73 74 68 255
-0.057344954 0.044958014 1.7420001 72 76 69 255
-0.052555822 0.044958755 1.7420001 73 77 70 255
-0.047903564 0.045088485 1.7470001 69 73 65 255
-0.043198939 0.045192346 1.751 60 64 56 255
-0.038428284 0.045244522 1.7530001 64 68 60 255
-0.033588953 0.045219202 1.7520001 65 67 59 255
-0.028738551 0.045168009 1.7500001 65 67 59 255
-0.023912694 0.045142554 1.7490001 67 68 62 255
-0.019114077 0.045168657 1.7500001 69 71 63 255
-0.014301705 0.045168888 1.7500001 69 73 65 255
-0.0094946912 0.045194861 1.751 68 72 64 255
-0.0046767928 0.045169149 1.7500001 69 73 65 255
0.00013570405 0.045169182 1.7500001 68 72 64 255
0.0049510277 0.04519495 1.751 68 70 62 255
0.0097718285 0.045220662 1.7520001 71 73 65 255
0.01459809 0.045246311 1.7530001 66 70 62 255
0.019418707 0.045246072 1.7530001 67 71 63 255
0.02423924 0.045245778 1.7530001 68 72 65 255
0.029092822 0.045297038 1.7550001 67 71 63 255
0.033937946 0.045322414 1.756 66 70 62 255
0.038810503 0.045373537 1.7580001 66 70 62 255
0.043644235 0.045372974 1.7580001 66 67 61 255
0.048560504 0.045449771 1.761 66 67 61 255
0.053371761 0.045423273 1.7600001 65 66 60 255
0.058210358 0.045422513 1.7600001 61 65 58 255
0.062977068 0.045370076 1.7580001 63 64 58 255
0.067732498 0.045317572 1.756 66 70 63 255
0.072517969 0.045290817 1.7550001 67 71 64 255
0.077341706 0.045289807 1.7550001 68 72 65 255
0.08211828 0.045262918 1.7540001 66 70 63 255
0.087037712 0.045313392 1.756 65 69 62 255
0.091967769 0.045363799 1.7580001 62 66 59 255
0.096853353 0.04538833 1.7590001 61 63 55 255
0.10168622 0.045387 1.7590001 63 65 57 255
0.10645811 0.045359809 1.7580001 64 66 56 255
0.11122405 0.045332555 1.7570001 65 67 57 255
0.11598402 0.045305233 1.756 64 66 58 255
0.12073801 0.04527786 1.7550001 66 68 60 255
0.12555759 0.045276232 1.7550001 64 65 59 255
0.1303023 0.045248736 1.7540001 64 68 61 255
0.13496399 0.045195386 1.7520001 65 69 62 255
0.13977368 0.045193579 1.7520001 66 70 63 255
0.14458282 0.045191716 1.7520001 66 72 65 255
0.14947662 0.045215584 1.7530001 62 68 60 255
0.15419929 0.045187809 1.7520001 64 70 63 255
0.1590066 0.045185771 1.7520001 63 69 62 255
0.16381326 0.045183674 1.7520001 63 69 62 255
0.16871552 0.045207314 1.7530001 66 70 63 255
0.17342462 0.045179319 1.7520001 65 69 62 255
0.17822929 0.045177057 1.7520001 64 68 61 255
0.18292877 0.045148958 1.751 67 68 62 255
0.18794374 0.045198161 1.7530001 66 67 61 255
0.19296892 0.045247309 1.7550001 64 68 61 255
0.19777891 0.045244832 1.7550001 64 68 61 255
0.20270361 0.045268089 1.756 61 65 58 255
0.20798752 0.045368616 1.7600001 70 74 67 255
0.21329257 0.04546909 1.7640001 68 72 65 255
0.21824779 0.045492176 1.7650001 64 68 61 255
0.22257572 0.045386348 1.761 59 63 56 255
0.22713919 0.045332029 1.7590001 62 66 58 255
0.23287764 0.045509588 1.766 66 70 62 255
0.23851903 0.045661326 1.7720001 69 75 68 255
0.24391767 0.045761459 1.7760001 60 66 59 255
0.24835679 0.045681175 1.7730001 60 64 57 255
0.25320709 0.04567815 1.7730001 57 61 54 255
0.25820205 0.045700844 1.774 62 68 61 255
0.2630533 0.045697737 1.774 58 62 55 255
0.26775262 0.045668829 1.7730001 54 58 51 255
0.27244553 0.04563988 1.7720001 57 61 54 255
0.2769756 0.045585144 1.7700001 67 71 64 255
0.28213075 0.045633391 1.7720001 58 62 55 255
0.28664801 0.045578584 1.7700001 57 61 54 255
0.29197684 0.045652498 1.7730001 69 73 65 255
0.29698628 0.045674868 1.774 73 77 69 255
0.30251068 0.045774434 1.7780001 65 69 61 255
0.30736449 0.04577098 1.7780001 54 58 50 255
0.31239289 0.045793232 1.779 59 63 55 255
0.31671256 0.045712505 1.7760001 64 68 60 255
0.32083374 0.045606002 1.7720001 54 58 51 255
0.32456464 0.045448031 1.766 59 63 56 255
0.32863486 0.045341522 1.7620001 53 57 50 255
0.33306077 0.045286458 1.7600001 67 68 62 255
0.33747482 0.04523138 1.7580001 66 67 61 255
0.34168231 0.045150559 1.7550001 61 65 58 255
0.34567508 0.045044001 1.751 61 65 58 255
0.35044563 0.045040324 1.751 64 67 63 255
0.35521528 0.045036633 1.751 65 68 64 255
0.36039513 0.045084354 1.7530001 59 62 58 255
0.36537659 0.045106329 1.7540001 49 52 48 255
0.37057361 0.045153994 1.756 55 58 54 255
0.38946396 0.045113087 1.7550001 60 63 59 255
0.39423701 0.045109253 1.7550001 65 68 64 255
0.39969116 0.045182515 1.7580001 66 69 65 255
0.40493068 0.04523005 1.7600001 77 80 76 255
0.40994737 0.045251872 1.761 78 82 75 255
0.41520411 0.045299381 1.7630001 74 78 71 255
0.42070907 0.045372564 1.766 67 71 64 255
0.42647037 0.045471415 1.7700001 67 71 64 255
0.43176526 0.045518879 1.7720001 69 75 68 255
0.43707013 0.045566328 1.774 62 68 61 255
0.64944512 0.046521012 1.817 13 14 10 255
0.6529212 0.046415765 1.8130001 22 21 15 255
0.65964144 0.046540998 1.8180001 14 16 8 255
0.66236806 0.046384685 1.812 36 38 28 255
0.66395777 0.046151668 1.8030001 24 27 15 255
0.66364437 0.045790762 1.789 25 28 16 255
0.67035508 0.045916252 1.794 19 22 8 255
0.67596442 0.045965023 1.7960001 22 25 11 255
0.67931056 0.045860302 1.7920001 23 26 12 255
0.68378103 0.045832444 1.7910001 25 28 14 255
0.68863124 0.045830242 1.7910001 22 25 11 255
0.69541806 0.04595606 1.7960001 22 25 11 255
0.69989318 0.045928419 1.7950001 20 23 9 255
0.70436358 0.045900855 1.794 20 23 9 255
0.70408553 0.045566365 1.7810001 18 21 9 255
0.70811623 0.045513399 1.779 20 23 11 255
0.71534318 0.045665186 1.7850001 21 24 10 255
0.72623467 0.046047278 1.8000001 20 25 11 255
0.73355311 0.04619921 1.8060001 14 19 7 255
0.73886055 0.046223309 1.807 73 80 68 255
0.74170512 0.04609403 1.802 86 92 84 255
0.74410945 0.04593927 1.7960001 102 108 101 255
0.74648237 0.045784611 1.7900001 107 113 106 255
0.74714512 0.045527749 1.7800001 118 124 117 255
0.74691004 0.045219842 1.7680001 125 130 126 255
0.74703622 0.044937614 1.7570001 126 133 129 255
0.74796003 0.044706654 1.748 133 140 136 255
0.74883634 0.044475801 1.7390001 132 137 133 255
0.74966538 0.044245057 1.7300001 141 146 143 255
0.74913895 0.043937694 1.7180001 149 153 153 255
0.74898767 0.043656025 1.7070001 156 160 160 255
0.74789524 0.043323308 1.6940001 160 166 168 255
0.75028747 0.043195292 1.6890001 163 170 169 255
0.75086659 0.042965088 1.6800001 170 177 176 255
0.75139868 0.042735003 1.6710001 175 182 181 255
0.75052637 0.042428292 1.659 178 185 184 255
0.750956 0.042198416 1.6500001 179 186 185 255
0.7513386 0.041968647 1.641 180 186 188 255
0.75075305 0.041687839 1.6300001 183 187 189 255
0.75149953 0.041483864 1.6220001 183 187 187 255
0.75173849 0.04125442 1.613 185 189 189 255
0.75239933 0.041050665 1.605 188 192 192 255
0.75207573 0.040795863 1.595 186 190 190 255
0.75217396 0.040566739 1.5860001 188 192 192 255
0.75127143 0.040286571 1.575 191 195 197 255
0.75175041 0.040083248 1.567 188 195 194 255
0.75218815 0.039880026 1.559 189 195 197 255
0.75112897 0.039600179 1.5480001 190 194 196 255
0.75049996 0.039346009 1.5380001 193 197 199 255
0.74981892 0.039091948 1.5280001 194 198 200 255
0.75007254 0.038889155 1.5200001 196 199 203 255
0.74978888 0.038660884 1.511 190 196 199 255
-0.97182196 0.040150937 1.7530001 23 24 10 255
-0.96580315 0.040099833 1.751 27 28 14 255
-0.93757087 0.039714161 1.7350001 21 22 8 255
-0.93972051 0.040007301 1.748 20 21 7 255
-0.92950201 0.039774194 1.738 22 23 9 255
-0.89487052 0.038488682 1.682 23 24 10 255
-0.89072251 0.038507778 1.6830001 24 25 11 255
-0.93163174 0.041124422 1.7980001 23 24 10 255
-0.90243131 0.040046245 1.751 20 21 7 255
-0.89451236 0.039906006 1.7450001 21 22 8 255
-0.88815981 0.039834533 1.7420001 22 23 11 255
-0.91326749 0.041180871 1.8010001 20 21 9 255
-0.89115059 0.040400822 1.7670001 18 19 7 255
-0.87524384 0.039895363 1.7450001 18 19 7 255
-0.86893934 0.039824467 1.7420001 22 20 9 255
-0.87208021 0.040188055 1.7580001 24 22 11 255
-0.86625665 0.040140275 1.756 24 22 11 255
-0.87222105 0.040641226 1.7780001 25 23 12 255
-0.86245763 0.040410835 1.7680001 23 21 10 255
-0.85905826 0.040477723 1.771 23 22 8 255
-0.86239815 0.040864706 1.7880001 24 22 11 255
-0.85845393 0.040908974 1.7900001 23 21 10 255
-0.85354805 0.040907651 1.7900001 22 20 9 255
-0.84627455 0.040792193 1.7850001 20 21 9 255
-0.84138805 0.040791124 1.7850001 21 22 10 255
-0.84212774 0.041064393 1.7970001 21 22 8 255
-0.8469975 0.041543428 1.8180001 24 23 9 255
-0.84804976 0.041839756 1.8310001 25 24 10 255
-0.80820078 0.041586414 1.8200001 173 172 156 255
-0.79706573 0.041266665 1.8060001 184 186 169 255
-0.78776318 0.041038409 1.7960001 187 191 173 255
-0.78113228 0.040947352 1.7920001 193 197 180 255
-0.77409172 0.040833537 1.7870001 193 197 180 255
-0.76751059 0.040742669 1.7830001 194 198 181 255
-0.7596696 0.040583339 1.7760001 190 195 181 255
-0.75186807 0.040424086 1.7690001 178 184 167 255
-0.74537313 0.040333483 1.7650001 187 193 175 255
-0.74057966 0.040334363 1.7650001 153 159 142 255
-0.73453683 0.040266778 1.7620001 186 192 175 255
-0.72768331 0.040153559 1.7570001 203 209 192 255
-0.72044677 0.040017568 1.751 185 193 178 255
-0.71528763 0.039995924 1.7500001 158 166 149 255
-0.7097289 0.0399515 1.748 152 158 140 255
-0.70458549 0.039930008 1.7470001 148 154 136 255
-0.69944841 0.03990858 1.7460001 159 163 145 255
-0.69431782 0.039887242 1.7450001 176 180 162 255
-0.68919349 0.039865963 1.7440001 187 191 173 255
-0.68368286 0.039821897 1.7420001 208 214 196 255
-0.67779422 0.039755031 1.7390001 186 192 174 255
-0.67230958 0.039711092 1.7370001 157 163 145 255
-0.6668365 0.039667219 1.7350001 194 200 182 255
-0.66175646 0.039646268 1.7340001 187 194 173 255
-0.65630352 0.039602511 1.7320001 181 188 167 255
-0.65048575 0.03953594 1.7290001 170 177 156 255
-0.64543164 0.03951516 1.728 153 160 139 255
-0.6407544 0.039517313 1.728 151 158 137 255
-0.6368137 0.039565258 1.7300001 157 164 142 255
-0.63140088 0.039521776 1.728 164 171 149 255
-0.62563664 0.039455473 1.725 169 175 150 255
-0.62024879 0.039412089 1.723 166 172 147 255
-0.61558658 0.039414503 1.723 167 173 148 255
-0.61092472 0.039416965 1.723 177 183 158 255
-0.60591108 0.039396603 1.7220001 188 192 164 255
-0.60090292 0.039376281 1.7210001 181 185 157 255
-0.59590024 0.039356001 1.72 177 181 153 255
-0.59159058 0.03938153 1.7210001 180 184 156 255
-0.58659345 0.039361335 1.72 173 180 151 255
-0.58194005 0.03936407 1.72 173 179 153 255
-0.57661533 0.039321065 1.7180001 172 178 152 255
-0.57130128 0.039278097 1.7160001 169 177 151 255
-0.56665838 0.03928094 1.7160001 173 181 155 255
-0.56201541 0.039283819 1.7160001 174 183 154 255
-0.557697 0.039309628 1.7170001 171 178 149 255
-0.55240667 0.039266784 1.715 175 182 151 255
-0.54776579 0.039269768 1.715 178 183 152 255
-0.54249108 0.039226979 1.7130001 177 182 151 255
-0.53879696 0.039298724 1.7160001 179 184 153 255
-0.5332185 0.039233085 1.7130001 174 178 150 255
-0.52858168 0.039236177 1.7130001 172 178 152 255
-0.52333277 0.039193489 1.7110001 170 176 151 255
-0.51839739 0.039173719 1.71 171 177 152 255
-0.51346701 0.039153975 1.7090001 164 171 149 255
-0.5082438 0.039111335 1.7070001 164 171 149 255
-0.50391608 0.039137453 1.7080001 163 171 146 255
-0.49899784 0.039117761 1.7070001 163 171 145 255
-0.49437404 0.039121006 1.7070001 161 170 141 255
-0.48946273 0.039101344 1.7060001 164 173 144 255
-0.48455632 0.039081689 1.705 162 170 144 255
-0.47965473 0.039062057 1.7040001 163 171 145 255
-0.47475803 0.039042428 1.7030001 166 174 149 255
-0.46986598 0.039022811 1.702 170 178 153 255
-0.46497875 0.039003205 1.7010001 161 169 143 255
-0.45982566 0.038960669 1.6990001 163 171 145 255
-0.45495063 0.038941063 1.6980001 165 173 147 255
-0.45008034 0.038921468 1.697 153 161 135 255
-0.44521472 0.038901873 1.6960001 168 175 146 255
-0.44035381 0.038882282 1.6950001 168 175 144 255
-0.43524057 0.038839754 1.6930001 176 183 154 255
-0.43064606 0.038843103 1.6930001 175 181 155 255
-0.42579919 0.038823511 1.692 192 198 172 255
-0.42070803 0.038780969 1.6900001 184 192 167 255
-0.41562682 0.038738415 1.6880001 183 191 166 255
-0.41128635 0.038764711 1.6890001 147 158 121 255
-0.40693954 0.038791008 1.6900001 148 157 126 255
-0.40353879 0.038909126 1.6950001 130 135 104 255
-0.40058073 0.039073169 1.702 131 136 104 255
-0.3985143 0.039329078 1.7130001 126 130 95 255
-0.39523771 0.039470222 1.7190001 106 108 70 255
-0.39079148 0.039496552 1.72 85 88 48 255
-0.38499209 0.039385099 1.715 104 107 65 255
-0.380106 0.039365482 1.7140001 124 127 85 255
-0.37566254 0.03939179 1.715 118 121 81 255
-0.37251073 0.039555911 1.7220001 102 104 68 255
-0.36739746 0.039513294 1.72 80 84 49 255
-0.36102885 0.039332807 1.7120001 140 145 114 255
-0.35407841 0.039083339 1.7010001 152 157 126 255
-0.348625 0.03899467 1.697 138 145 116 255
-0.34400332 0.038997889 1.697 135 140 109 255
-0.33998069 0.039070036 1.7 130 135 104 255
-0.33574349 0.039119191 1.702 131 138 109 255
-0.33149451 0.039168343 1.7040001 119 124 102 255
-0.32704186 0.039194487 1.705 55 59 41 255
-0.32220468 0.039174631 1.7040001 9 13 0 255
-0.31718558 0.039131757 1.702 63 65 55 255
-0.31217656 0.039088856 1.7 109 111 103 255
-0.30699658 0.039022926 1.697 112 113 107 255
-0.30201024 0.038979959 1.6950001 111 115 108 255
-0.2968584 0.038913961 1.692 107 111 104 255
-0.29172209 0.038847927 1.6890001 95 99 92 255
-0.28694117 0.038827855 1.6880001 97 100 96 255
-0.28249934 0.038853761 1.6890001 110 113 109 255
-0.27788663 0.038856637 1.6890001 56 59 55 255
-0.2729494 0.038813468 1.687 79 82 79 255
-0.26802221 0.038770255 1.6850001 76 79 75 255
-0.26357409 0.038796041 1.6860001 70 73 69 255
-0.25911963 0.038821798 1.687 70 74 67 255
-0.25435707 0.038801495 1.6860001 73 77 70 255
-0.249451 0.038758144 1.6840001 72 76 69 255
-0.24470037 0.038737763 1.6830001 73 77 69 255
-0.24009706 0.038740363 1.6830001 72 76 68 255
-0.23549287 0.03874293 1.6830001 60 64 57 255
-0.23102507 0.038768481 1.6840001 54 58 50 255
-0.2266854 0.038817015 1.6860001 56 62 55 255
-0.22207057 0.038819473 1.6860001 68 76 68 255
-0.21745494 0.038821891 1.6860001 68 76 68 255
-0.21245974 0.038755186 1.6830001 69 77 69 255
-0.20785074 0.038757518 1.6830001 73 81 74 255
-0.20312019 0.038736776 1.682 76 84 77 255
-0.19863038 0.038762052 1.6830001 75 83 76 255
-0.1941344 0.038787298 1.6840001 76 82 75 255
-0.18963213 0.038812492 1.6850001 73 79 72 255
-0.18501389 0.038814612 1.6850001 71 77 70 255
-0.18018082 0.03877062 1.6830001 69 75 68 255
-0.17556664 0.038772646 1.6830001 69 75 68 255
-0.17115493 0.03882071 1.6850001 64 70 63 255
-0.1667316 0.038868729 1.687 68 72 65 255
-0.16239272 0.038939752 1.6900001 71 75 68 255
-0.15785004 0.038964648 1.6910001 71 75 68 255
-0.15348244 0.039035581 1.6940001 70 74 66 255
-0.14936133 0.039175607 1.7 69 73 65 255
-0.14520672 0.039315596 1.7060001 71 76 65 255
-0.14101858 0.039455555 1.7120001 68 73 62 255
-0.13695616 0.039641559 1.72 67 72 61 255
-0.13277239 0.039804485 1.7270001 67 70 58 255
-0.12840137 0.039921273 1.7320001 66 69 57 255
-0.12385957 0.039991912 1.7350001 64 67 55 255
-0.11978129 0.040223863 1.7450001 65 68 56 255
-0.11538398 0.040363565 1.751 56 59 47 255
-0.11082695 0.040457126 1.7550001 46 49 35 255
-0.10588508 0.040412318 1.7530001 40 43 29 255
-0.10118435 0.040459663 1.7550001 42 43 29 255
-0.09636239 0.040460847 1.7550001 44 45 31 255
-0.091540016 0.040461976 1.7550001 47 48 36 255
-0.086667843 0.040439989 1.7540001 51 52 40 255
-0.081847459 0.040441006 1.7540001 58 59 47 255
-0.076938912 0.040395852 1.7520001 62 62 52 255
-0.071999848 0.040327579 1.7490001 63 63 55 255
-0.067115396 0.040282309 1.7470001 67 67 59 255
-0.062170293 0.040190857 1.743 69 71 63 255
-0.057345688 0.040168528 1.7420001 71 73 65 255
-0.052616838 0.040215313 1.7440001 66 70 62 255
-0.047986444 0.040354278 1.7500001 64 69 58 255
-0.04324884 0.040424015 1.7530001 60 65 54 255
-0.038450703 0.04044757 1.7540001 60 65 54 255
-0.033570215 0.040378831 1.751 63 68 57 255
-0.028738922 0.040356148 1.7500001 63 68 57 255
-0.023913002 0.040333409 1.7490001 63 67 59 255
-0.019114325 0.040356737 1.7500001 63 67 59 255
-0.014310061 0.040379997 1.751 64 68 60 255
-0.0094948132 0.040380143 1.751 63 67 59 255
-0.0046821977 0.040403292 1.7520001 64 68 60 255
0.00013578332 0.040380258 1.751 63 65 57 255
0.0049539194 0.040403292 1.7520001 62 66 58 255
0.0097775338 0.040426262 1.7530001 62 63 57 255
0.014606605 0.040449172 1.7540001 63 67 59 255
0.019430036 0.040448967 1.7540001 61 65 57 255
0.024281036 0.040494822 1.756 62 66 58 255
0.029142927 0.040540617 1.7580001 62 66 58 255
0.033996366 0.040563289 1.7590001 62 66 58 255
0.038833082 0.040562849 1.7590001 63 65 57 255
0.04366963 0.040562343 1.7590001 62 64 56 255
0.048588712 0.040630963 1.7620001 64 65 59 255
0.053433098 0.040630341 1.7620001 66 67 61 255
0.05824418 0.040606599 1.761 66 67 61 255
0.063013703 0.04055975 1.7590001 64 65 59 255
0.067771941 0.040512841 1.7570001 63 67 60 255
0.072560221 0.040488932 1.756 63 67 60 255
0.077342689 0.040464971 1.7550001 64 68 61 255
0.082306601 0.040533174 1.7580001 63 67 60 255
0.087286651 0.040601324 1.761 62 66 59 255
0.092230514 0.040646356 1.7630001 59 63 56 255
0.097019777 0.04062216 1.7620001 58 62 54 255
0.10180313 0.040597916 1.761 61 63 55 255
0.10658057 0.040573616 1.7600001 62 64 54 255
0.11147866 0.040595368 1.761 61 63 53 255
0.11618365 0.040547904 1.7590001 62 64 56 255
0.12101473 0.040546492 1.7590001 63 65 57 255
0.12563069 0.040475879 1.756 64 65 59 255
0.13045253 0.040474363 1.756 62 66 59 255
0.13504271 0.040403649 1.7530001 63 67 60 255
0.13993499 0.040425081 1.7540001 67 71 64 255
0.14474966 0.040423408 1.7540001 66 70 62 255
0.14964901 0.040444728 1.7550001 61 67 59 255
0.15428919 0.040396865 1.7530001 60 66 58 255
0.15919006 0.040418081 1.7540001 62 68 60 255
0.16409579 0.040439252 1.7550001 61 67 60 255
0.16910258 0.040483411 1.7570001 63 67 60 255
0.17382269 0.040458392 1.756 61 65 58 255
0.17874011 0.040479399 1.7570001 64 65 59 255
0.18345337 0.040454291 1.756 62 63 57 255
0.18848209 0.040498246 1.7580001 66 68 60 255
0.1933011 0.040496074 1.7580001 60 64 56 255
0.19834478 0.040539924 1.7600001 63 67 59 255
0.20339864 0.040583726 1.7620001 61 65 57 255
0.20881721 0.040696569 1.7670001 66 70 62 255
0.21389967 0.040740266 1.7690001 65 69 61 255
0.21862131 0.04071483 1.7680001 60 64 57 255
0.22295751 0.040620264 1.7640001 58 62 55 255
0.22791663 0.040640809 1.7650001 57 61 53 255
0.23380344 0.040822469 1.7730001 65 69 61 255
0.239464 0.040958021 1.779 70 76 68 255
0.2446072 0.041001428 1.7810001 57 63 55 255
0.24920014 0.040952712 1.779 62 66 58 255
0.25406685 0.040949997 1.779 59 63 56 255
0.25907829 0.040970266 1.7800001 67 71 64 255
0.26350111 0.040898424 1.7770001 46 50 43 255
0.26805764 0.040849578 1.7750001 53 57 50 255
0.27260232 0.040800698 1.7730001 57 61 54 255
0.27713513 0.040751785 1.771 60 64 57 255
0.28229305 0.040794887 1.7730001 56 60 52 255
0.28729892 0.040814936 1.774 56 60 52 255
0.29313275 0.040949982 1.7800001 67 71 63 255
0.29816139 0.04096996 1.7810001 70 74 66 255
0.30353478 0.041035898 1.784 80 84 76 255
0.30857787 0.041055802 1.7850001 58 62 54 255
0.31309867 0.041006677 1.7830001 41 45 38 255
0.31725085 0.040911529 1.779 46 50 43 255
0.32101822 0.040770389 1.7730001 56 60 53 255
0.32493559 0.04065223 1.7680001 60 64 57 255
0.32863826 0.040511075 1.7620001 68 72 65 255
0.33306417 0.040461875 1.7600001 64 65 59 255
0.33709425 0.040366687 1.756 61 62 56 255
0.34528369 0.040199269 1.7490001 54 58 51 255
0.6512351 0.041679036 1.8220001 27 26 22 255
0.65436441 0.041562114 1.817 38 37 31 255
0.66036969 0.041628242 1.8200001 30 32 24 255
0.66419828 0.041557193 1.817 15 18 6 255
0.66764271 0.041463342 1.8130001 20 23 11 255
0.67032397 0.041323818 1.807 23 26 14 255
0.67484146 0.041298714 1.8060001 20 23 11 255
0.68010676 0.041319393 1.807 17 20 8 255
0.68424088 0.041271549 1.8050001 20 23 11 255
0.68912816 0.041269496 1.8050001 19 22 10 255
0.69401616 0.041267514 1.8050001 20 23 11 255
0.70006645 0.041334182 1.8080001 21 24 10 255
0.70574373 0.041378051 1.8100001 22 25 13 255
0.71104002 0.041399129 1.8110001 18 21 7 255
0.71238923 0.041191682 1.802 18 21 9 255
0.7128945 0.040938616 1.7910001 17 20 8 255
0.71895158 0.041005645 1.794 18 23 9 255
0.72986746 0.041347016 1.8090001 14 19 5 255
0.73761624 0.041505601 1.8160001 11 18 6 255
0.74213308 0.041481417 1.8150001 78 85 73 255
0.7454108 0.04138875 1.8110001 93 99 91 255
0.74618214 0.041159052 1.8010001 107 113 106 255
0.7469005 0.040929452 1.7910001 117 123 116 255
0.74672633 0.040654242 1.779 122 127 123 255
0.74691093 0.040401988 1.7680001 128 133 129 255
0.74618667 0.040104125 1.7550001 129 136 132 255
0.74710494 0.03989777 1.7460001 134 139 135 255
0.74754506 0.039668653 1.7360001 137 142 138 255
0.74879926 0.039485343 1.728 143 148 145 255
0.74913931 0.03925642 1.7180001 149 153 153 255
0.75030422 0.039073303 1.71 153 157 157 255
0.74966139 0.03879888 1.6980001 163 167 167 255
0.751176 0.0386388 1.6910001 167 174 173 255
0.75086659 0.038387422 1.6800001 171 178 177 255
0.75184822 0.038204685 1.6720001 176 183 182 255
0.75052607 0.037907802 1.659 179 186 185 255
0.75141084 0.037725266 1.651 181 187 189 255
0.75225395 0.037542824 1.6430001 182 188 190 255
0.75213432 0.037314784 1.6330001 183 187 189 255
0.75057232 0.03701828 1.6200001 182 186 188 255
0.75033957 0.036790423 1.6100001 185 189 189 255
0.74911696 0.036516961 1.598 183 187 187 255
0.75018871 0.036357857 1.5910001 169 173 173 255
0.75075012 0.036175992 1.5830001 174 178 178 255
0.75127035 0.035994228 1.575 183 187 189 255
0.74983013 0.035721142 1.5630001 189 195 197 255
0.74880946 0.035471004 1.552 190 196 198 255
0.74676043 0.035175245 1.539 191 195 197 255
0.74659461 0.034971002 1.5300001 194 198 200 255
0.74736357 0.03481257 1.5230001 194 198 200 255
0.74760348 0.034631371 1.5150001 196 200 202 255
0.74730587 0.034427412 1.506 193 197 199 255
-0.93966323 0.034192767 1.6950001 27 28 14 255
-0.94243014 0.035159569 1.7440001 24 23 9 255
-0.92950219 0.034853313 1.7290001 24 23 9 255
-0.94126379 0.035474438 1.7600001 23 24 10 255
-0.91987216 0.034846038 1.7290001 24 25 11 255
-0.90924245 0.034620937 1.7180001 24 25 11 255
-0.9250018 0.03540352 1.7570001 22 23 9 255
-0.94002539 0.036165945 1.7950001 24 25 11 255
-0.91264808 0.035296515 1.7520001 24 25 11 255
-0.90675753 0.035253298 1.7500001 21 22 8 255
-0.91015905 0.035572797 1.766 21 22 8 255
-0.89758515 0.035267986 1.751 22 23 11 255
-0.89733452 0.035446715 1.7600001 22 23 11 255
-0.89805222 0.035665818 1.771 21 22 10 255
-0.8881222 0.035462134 1.761 23 24 12 255
-0.86621338 0.034775332 1.7270001 22 23 11 255
-0.84848577 0.034249805 1.7010001 22 20 9 255
-0.8646372 0.035093565 1.743 22 20 9 255
-0.86378831 0.035252843 1.751 23 21 10 255
-0.8575024 0.035190754 1.748 22 20 9 255
-0.85757786 0.0353905 1.7580001 22 23 11 255
-0.85372102 0.035429295 1.7600001 21 22 10 255
-0.86046743 0.035911046 1.784 22 23 11 255
-0.85797298 0.036010426 1.789 21 22 10 255
-0.85688484 0.0361703 1.7970001 20 21 9 255
-0.84911823 0.036048483 1.7910001 19 20 8 255
-0.8465721 0.036148172 1.7960001 21 22 10 255
-0.84072101 0.036107082 1.794 19 20 8 255
-0.84513324 0.036508873 1.8140001 24 22 11 255
-0.84249127 0.036608864 1.8190001 24 22 11 255
-0.84304744 0.036849827 1.8310001 26 22 11 255
-0.8302564 0.037170656 1.8470001 161 157 146 255
-0.81807387 0.036848608 1.8310001 172 171 157 255
-0.80464834 0.036466271 1.812 180 182 165 255
-0.79530048 0.036265157 1.802 186 188 170 255
-0.78600895 0.036064126 1.7920001 191 193 175 255
-0.77851731 0.035943683 1.7860001 193 197 179 255
-0.77235949 0.035883691 1.7830001 194 198 180 255
-0.76535887 0.035783537 1.7780001 201 205 188 255
-0.75924248 0.035723712 1.7750001 188 196 181 255
-0.75059372 0.0355432 1.766 187 193 176 255
-0.74410701 0.035463404 1.7620001 177 183 165 255
-0.73806292 0.035403799 1.7590001 161 167 149 255
-0.73287034 0.035384532 1.7580001 178 184 166 255
-0.72561347 0.035264689 1.7520001 203 207 189 255
-0.71880209 0.035165049 1.7470001 186 192 174 255
-0.71365386 0.035145983 1.7460001 170 179 160 255
-0.70851213 0.035126988 1.7450001 134 140 122 255
-0.70378023 0.035128195 1.7450001 128 134 116 255
-0.69864857 0.035109326 1.7440001 149 153 135 255
-0.69352347 0.035090528 1.743 171 175 157 255
-0.68840456 0.03507179 1.7420001 168 174 156 255
-0.68211454 0.03499271 1.738 208 214 196 255
-0.6766265 0.034953956 1.7360001 180 186 168 255
-0.67115009 0.034915257 1.7340001 151 160 141 255
-0.66530079 0.03485648 1.7310001 162 168 150 255
-0.66023171 0.034838025 1.7300001 154 160 142 255
-0.65516859 0.034819625 1.7290001 151 157 139 255
-0.64973521 0.034781136 1.7270001 149 156 135 255
-0.64506018 0.034782983 1.7270001 153 160 139 255
-0.64001483 0.034764729 1.7260001 162 169 147 255
-0.63571149 0.03478682 1.7270001 170 177 155 255
-0.63067228 0.034768667 1.7260001 168 176 151 255
-0.62455082 0.034690127 1.7220001 167 173 147 255
-0.61989111 0.034692213 1.7220001 167 173 147 255
-0.61523169 0.03469434 1.7220001 158 162 134 255
-0.61092705 0.034716658 1.723 159 163 135 255
-0.60626525 0.034718875 1.723 137 142 111 255
-0.60160363 0.034721136 1.723 195 200 169 255
-0.59694213 0.034723431 1.723 168 173 142 255
-0.59228063 0.03472577 1.723 177 182 151 255
-0.58693707 0.034687836 1.7210001 177 182 151 255
-0.58194256 0.034670088 1.72 174 181 152 255
-0.5766179 0.034632217 1.7180001 167 174 145 255
-0.57196981 0.034634698 1.7180001 169 177 151 255
-0.56699139 0.034617048 1.7170001 166 174 148 255
-0.56234568 0.034619588 1.7170001 165 173 147 255
-0.5576998 0.034622159 1.7170001 163 171 145 255
-0.55273157 0.034604598 1.7160001 161 170 141 255
-0.54808795 0.034607228 1.7160001 163 171 135 255
-0.54312736 0.034589712 1.715 162 169 138 255
-0.53817189 0.034572229 1.7140001 162 169 138 255
-0.53353268 0.03457493 1.7140001 169 174 143 255
-0.52889317 0.03457766 1.7140001 160 167 138 255
-0.52394748 0.034560245 1.7130001 156 160 142 255
-0.51900673 0.03454284 1.7120001 158 165 136 255
-0.51377046 0.034505274 1.71 151 158 129 255
-0.50854456 0.034467723 1.7080001 149 157 131 255
-0.50391906 0.034470551 1.7080001 145 153 127 255
-0.49929318 0.034473393 1.7080001 153 162 133 255
-0.49466667 0.034476254 1.7080001 153 161 135 255
-0.48975277 0.034458943 1.7070001 151 159 133 255
-0.48512784 0.03446183 1.7070001 160 170 145 255
-0.48022085 0.034444544 1.7060001 160 170 145 255
-0.47559747 0.034447454 1.7060001 170 180 157 255
-0.47069728 0.03443018 1.705 176 185 164 255
-0.46552861 0.034392722 1.7030001 175 185 162 255
-0.45982882 0.034314875 1.6990001 158 168 145 255
-0.45468578 0.034277409 1.697 171 181 158 255
-0.44955298 0.034239952 1.6950001 161 171 146 255
-0.44495538 0.034242898 1.6950001 161 169 143 255
-0.44009718 0.034225646 1.6940001 163 172 143 255
-0.4352437 0.034208391 1.6930001 163 172 143 255
-0.43039486 0.034191139 1.692 160 166 140 255
-0.42555067 0.03417388 1.6910001 163 169 143 255
-0.42096013 0.034176838 1.6910001 172 180 154 255
-0.41563001 0.034119152 1.6880001 191 197 171 255
-0.41104594 0.034122098 1.6880001 133 142 113 255
-0.40670192 0.034145258 1.6890001 172 179 148 255
-0.40258959 0.034188636 1.6910001 180 185 154 255
-0.39917171 0.034292679 1.6960001 150 155 123 255
-0.39665636 0.034477621 1.705 124 128 93 255
-0.39409122 0.034662589 1.7140001 115 117 79 255
-0.38965863 0.034685783 1.715 93 96 56 255
-0.38409728 0.034607839 1.7110001 116 119 77 255
-0.37922207 0.034590553 1.71 124 127 85 255
-0.37544665 0.03467441 1.7140001 117 120 80 255
-0.37229753 0.034818962 1.7210001 92 96 60 255
-0.36654615 0.034720726 1.7160001 66 72 37 255
-0.35976663 0.034521285 1.7060001 173 178 147 255
-0.35345697 0.034362271 1.6980001 142 147 116 255
-0.34821716 0.034304406 1.6950001 134 141 110 255
-0.34400633 0.034347724 1.697 128 135 104 255
-0.3397837 0.034391031 1.6990001 130 135 104 255
-0.33554924 0.034434326 1.7010001 140 147 116 255
-0.33091387 0.034437124 1.7010001 131 137 112 255
-0.32627755 0.034439899 1.7010001 72 77 56 255
-0.32164034 0.034442656 1.7010001 83 86 72 255
-0.31644309 0.034384646 1.6980001 93 95 87 255
-0.31162852 0.034367103 1.697 103 104 98 255
-0.30663761 0.034329288 1.6950001 103 104 98 255
-0.30183488 0.034311701 1.6940001 87 91 84 255
-0.2968612 0.034273826 1.692 32 38 31 255
-0.29172486 0.03421567 1.6890001 66 72 65 255
-0.28677392 0.034177732 1.687 35 40 36 255
-0.28200027 0.034160029 1.6860001 36 41 37 255
-0.27756026 0.03418282 1.687 125 128 125 255
-0.27246669 0.034124535 1.6840001 96 99 96 255
-0.26754764 0.034086473 1.682 83 86 82 255
-0.26295137 0.034088913 1.682 81 84 80 255
-0.25866139 0.034131866 1.6840001 77 81 74 255
-0.25405785 0.03413425 1.6840001 73 77 70 255
-0.24930534 0.034116335 1.6830001 86 90 83 255
-0.24470285 0.03411866 1.6830001 87 91 83 255
-0.24024212 0.034141228 1.6840001 83 87 79 255
-0.23535532 0.034102935 1.682 76 80 72 255
-0.23075303 0.034105163 1.682 80 84 76 255
-0.22614993 0.034107357 1.682 74 80 72 255
-0.22167774 0.034129798 1.6830001 77 83 75 255
-0.21707027 0.034131926 1.6830001 82 90 82 255
-0.21233571 0.034113735 1.682 84 92 85 255
-0.20748241 0.034075223 1.6800001 89 97 90 255
-0.20288078 0.034077235 1.6800001 87 95 88 255
-0.1981604 0.034058932 1.6790001 91 97 90 255
-0.19379058 0.034101445 1.6810001 88 94 87 255
-0.18929653 0.034123637 1.682 79 85 78 255
-0.18479627 0.034145791 1.6830001 79 85 78 255
-0.18007569 0.034127329 1.682 80 86 78 255
-0.17546423 0.03412912 1.682 81 87 80 255
-0.17075048 0.034110576 1.6810001 82 88 81 255
-0.16643691 0.034173161 1.6840001 80 84 77 255
-0.16201012 0.034215417 1.6860001 79 83 76 255
-0.15757172 0.034257639 1.6880001 77 81 74 255
-0.15321232 0.034320112 1.6910001 68 72 64 255
-0.14901155 0.034423143 1.6960001 65 69 61 255
-0.14486785 0.034546435 1.702 61 66 55 255
-0.14077301 0.034689996 1.7090001 67 72 60 255
-0.13663918 0.034833524 1.7160001 66 69 57 255
-0.13269699 0.03503792 1.7260001 67 70 58 255
-0.1284028 0.035161082 1.7320001 65 68 56 255
-0.12400373 0.035263907 1.7370001 64 67 55 255
-0.11978263 0.0354276 1.7450001 60 65 53 255
-0.11545118 0.035570949 1.7520001 60 65 53 255
-0.11076505 0.03561274 1.7540001 33 36 22 255
-0.10594667 0.035613883 1.7540001 41 44 30 255
-0.10112783 0.035614979 1.7540001 41 42 28 255
-0.096418373 0.035656627 1.756 42 43 29 255
-0.091541052 0.035637319 1.7550001 44 45 31 255
-0.086718239 0.035638265 1.7550001 48 49 35 255
-0.081801727 0.035598546 1.7530001 55 56 44 255
-0.076939784 0.035579082 1.7520001 58 59 47 255
-0.072041839 0.035539266 1.7500001 59 59 49 255
-0.067154564 0.035499386 1.748 63 63 55 255
-0.062242348 0.035439156 1.7450001 66 68 60 255
-0.057412177 0.035419483 1.7440001 64 66 58 255
-0.052738119 0.035501309 1.748 63 68 57 255
-0.048096683 0.035623714 1.7540001 61 66 54 255
-0.04329868 0.035644513 1.7550001 59 64 52 255
-0.038473066 0.035644952 1.7550001 60 65 53 255
-0.033570603 0.035564099 1.751 59 64 53 255
-0.028755676 0.03556443 1.751 65 69 61 255
-0.023940623 0.035564717 1.751 61 65 57 255
-0.019136388 0.035585258 1.7520001 64 68 60 255
-0.014326571 0.035605755 1.7530001 63 67 59 255
-0.0095057692 0.035605881 1.7530001 63 65 57 255
-0.0046902695 0.03564658 1.7550001 65 67 59 255
0.00013617265 0.035666913 1.756 62 64 56 255
0.0049681142 0.035687197 1.7570001 59 63 55 255
0.009805535 0.035707433 1.7580001 59 61 53 255
0.014648412 0.035727609 1.7590001 59 63 55 255
0.019485647 0.035727423 1.7590001 59 63 55 255
0.024336627 0.035747498 1.7600001 60 64 57 255
0.029209575 0.035787836 1.7620001 61 65 58 255
0.034054741 0.035787493 1.7620001 62 64 56 255
0.038877681 0.035766792 1.761 62 64 56 255
0.043694954 0.035746042 1.7600001 65 67 59 255
0.04864442 0.035826784 1.7640001 64 66 58 255
0.05349436 0.035826232 1.7640001 60 61 55 255
0.058311 0.035805326 1.7630001 62 63 57 255
0.063050248 0.035743754 1.7600001 62 63 57 255
0.067849867 0.03572274 1.7590001 60 64 56 255
0.072685018 0.035721995 1.7590001 62 66 58 255
0.077607997 0.035761807 1.761 64 68 60 255
0.082494818 0.035781264 1.7620001 60 64 56 255
0.087535478 0.035861585 1.766 60 64 56 255
0.092440814 0.035880938 1.7670001 57 61 53 255
0.097296193 0.035879936 1.7670001 58 62 54 255
0.10203552 0.035838269 1.7650001 60 65 54 255
0.10676344 0.03579656 1.7630001 57 62 51 255
0.11160652 0.035795413 1.7630001 60 64 56 255
0.1163831 0.035773911 1.7620001 62 64 56 255
0.12122247 0.035772663 1.7620001 64 65 59 255
0.12591827 0.035730768 1.7600001 63 64 58 255
0.13067684 0.035709128 1.7590001 65 66 60 255
0.1354294 0.035687443 1.7580001 62 66 59 255
0.14017588 0.035665713 1.7570001 63 67 60 255
0.14508134 0.035684537 1.7580001 62 66 58 255
0.14990647 0.035683013 1.7580001 58 62 54 255
0.15481898 0.035701744 1.7590001 61 65 57 255
0.1596456 0.035700127 1.7590001 60 64 57 255
0.16465858 0.03573906 1.761 62 66 59 255
0.16939315 0.035717063 1.7600001 59 63 56 255
0.17451751 0.035776198 1.7630001 61 65 58 255
0.17935245 0.035774406 1.7630001 61 65 58 255
0.18429112 0.035792857 1.7640001 61 63 55 255
0.18912739 0.035790984 1.7640001 62 66 58 255
0.19396289 0.035789061 1.7640001 63 68 57 255
0.19913575 0.035847962 1.7670001 62 66 58 255
0.20443973 0.035927106 1.771 63 67 59 255
0.20964667 0.035985913 1.774 66 72 64 255
0.21438561 0.035963539 1.7730001 61 65 57 255
0.21887092 0.035900559 1.7700001 59 63 56 255
