ply
format ascii 1.0
comment PCL generated
element vertex 1029
property float x
property float y
property float z
property uchar red
property uchar green
property uchar blue
property uchar alpha
element camera 0
property float view_px
property float view_py
property float view_pz
property float x_axisx
property float x_axisy
property float x_axisz
property float y_axisx
property float y_axisy
property float y_axisz
property float z_axisx
property float z_axisy
property float z_axisz
property float focal
property float scalex
property float scaley
property float centerx
property float centery
property int viewportx
property int viewporty
property float k1
property float k2
end_header
-0.47927758 0.13487996 1.6250001 127 139 116 255
-0.4734143 0.13447537 1.6200001 107 117 94 255
-0.46757764 0.13407077 1.6150001 121 130 109 255
-0.46205434 0.13374919 1.6110001 120 129 110 255
-0.45740473 0.13367672 1.6100001 119 128 109 255
-0.45275986 0.13360427 1.6090001 125 134 115 255
-0.44839874 0.13361493 1.6090001 125 135 112 255
-0.44486484 0.13387476 1.6120001 115 125 100 255
-0.4410409 0.13405162 1.6140001 109 117 91 255
-0.43774664 0.13439468 1.618 108 116 90 255
-0.43389446 0.13457169 1.6200001 107 114 85 255
-0.43029585 0.13483182 1.623 105 114 85 255
-0.42615563 0.13492587 1.6240001 113 121 95 255
-0.42252856 0.13518614 1.6270001 124 132 107 255
-0.41862771 0.13536336 1.6290001 126 136 113 255
-0.41496962 0.13562375 1.6320001 128 139 120 255
-0.41053978 0.13563484 1.6320001 110 121 102 255
-0.406607 0.13581219 1.6340001 124 135 116 255
-0.40192422 0.13574019 1.6330001 119 130 111 255
-0.39554229 0.13508627 1.6250001 151 162 143 255
-0.38920307 0.13443226 1.6170001 147 157 134 255
-0.38385847 0.13411067 1.613 107 115 89 255
-0.37971118 0.1342048 1.6140001 97 105 79 255
-0.37555766 0.13429892 1.6150001 112 120 94 255
-0.37093836 0.13422671 1.6140001 163 171 145 255
-0.36723208 0.13448715 1.6170001 134 142 116 255
-0.36373308 0.13483077 1.6210001 76 83 54 255
-0.36065492 0.13534081 1.6270001 68 75 44 255
-0.35644853 0.13543491 1.628 85 90 59 255
-0.35158721 0.13527942 1.626 88 93 62 255
-0.34652248 0.13504067 1.623 97 104 73 255
-0.34168401 0.13488503 1.6210001 109 117 92 255
-0.33727178 0.13489576 1.6210001 115 125 102 255
-0.33265337 0.13482323 1.6200001 119 130 111 255
-0.32864746 0.1350003 1.6220001 120 131 112 255
-0.32482967 0.13526061 1.6250001 114 125 106 255
-0.32138902 0.13568735 1.6300001 99 105 88 255
-0.31694809 0.13569786 1.6300001 12 18 1 255
-0.31173941 0.13537528 1.626 25 26 12 255
-0.3067407 0.13513584 1.623 34 33 19 255
-0.30194378 0.13497956 1.6210001 38 39 27 255
-0.29752398 0.13498972 1.6210001 38 40 30 255
-0.29328424 0.13508311 1.6220001 22 28 21 255
-0.28886005 0.13509314 1.6220001 95 101 94 255
-0.28390893 0.13485318 1.6190001 84 91 87 255
-0.27845547 0.1343632 1.613 82 89 85 255
-0.27354369 0.134123 1.6100001 83 90 87 255
-0.26898175 0.13404928 1.6090001 76 83 79 255
-0.2640956 0.13380881 1.6060001 77 84 80 255
-0.25922495 0.13356821 1.603 63 68 64 255
-0.25452891 0.13341081 1.6010001 72 77 73 255
-0.25031179 0.1335033 1.6020001 73 78 75 255
-0.24562779 0.13334566 1.6 91 96 93 255
-0.24080317 0.13310455 1.5970001 79 86 82 255
-0.23614214 0.13294663 1.595 78 85 81 255
-0.23163669 0.13287196 1.5940001 81 88 84 255
-0.22713591 0.13279714 1.5930001 70 78 71 255
-0.22263983 0.1327222 1.5920001 53 59 52 255
-0.21842268 0.13281387 1.5930001 52 58 51 255
-0.21393061 0.13273869 1.5920001 34 40 33 255
-0.20957486 0.13274674 1.5920001 74 79 75 255
-0.20496058 0.13258788 1.59 66 73 69 255
-0.20023036 0.13234548 1.5870001 83 90 86 255
-0.19551587 0.13210292 1.5840001 75 82 79 255
-0.1910585 0.13202702 1.5830001 71 78 75 255
-0.1866059 0.13195096 1.582 77 84 81 255
-0.18238857 0.13204157 1.5830001 92 99 95 255
-0.17794012 0.13196523 1.582 72 79 75 255
-0.17382571 0.132139 1.5840001 76 82 75 255
-0.1700207 0.13256291 1.5890001 67 73 66 255
-0.16639617 0.13315357 1.5960001 57 63 56 255
-0.16232659 0.13341041 1.5990001 57 61 54 255
-0.15794362 0.13341682 1.5990001 54 58 51 255
-0.15327194 0.13317275 1.5960001 84 90 83 255
-0.14870942 0.13301192 1.5940001 91 97 90 255
-0.14397621 0.13268405 1.59 59 67 60 255
-0.1396156 0.1326898 1.59 57 65 58 255
-0.13533953 0.13277885 1.5910001 60 68 61 255
-0.13105744 0.13286774 1.5920001 59 67 60 255
-0.1266102 0.13278954 1.5910001 61 69 62 255
-0.12209111 0.13262773 1.5890001 72 80 73 255
-0.11780478 0.1327161 1.59 85 93 86 255
-0.11351249 0.13280433 1.5910001 74 82 75 255
-0.10921427 0.13289243 1.5920001 56 64 57 255
-0.1047784 0.13281336 1.5910001 71 79 72 255
-0.10041072 0.13281763 1.5910001 86 94 87 255
-0.096042626 0.13282171 1.5910001 74 82 75 255
-0.091616534 0.13274214 1.59 81 89 82 255
-0.087140679 0.13257889 1.5880001 70 76 69 255
-0.082779706 0.13258244 1.5880001 58 64 57 255
-0.078418411 0.13258582 1.5880001 55 62 58 255
-0.074056782 0.13258903 1.5880001 62 69 65 255
-0.06978263 0.13275903 1.59 64 71 67 255
-0.06541492 0.13276188 1.59 57 64 60 255
-0.061085332 0.13284807 1.5910001 54 61 57 255
-0.056643058 0.13268355 1.5890001 45 52 48 255
-0.05211284 0.13226834 1.5840001 83 90 86 255
-0.047670182 0.13201994 1.5810001 77 84 80 255
-0.043271214 0.13185486 1.5790001 66 73 70 255
-0.038957022 0.13194008 1.58 67 72 68 255
-0.034615271 0.13194166 1.58 65 72 68 255
-0.030254217 0.13185954 1.5790001 79 84 81 255
-0.025898527 0.13177723 1.5780001 77 82 78 255
-0.021520896 0.13152769 1.575 78 85 81 255
-0.017181495 0.13144502 1.5740001 76 83 79 255
-0.012855689 0.13144565 1.5740001 75 80 76 255
-0.0085298279 0.13144611 1.5740001 69 74 71 255
-0.004206602 0.1315299 1.575 67 72 68 255
0.00012213826 0.13161349 1.5760001 67 72 68 255
0.0044563748 0.13169689 1.577 64 69 65 255
0.0087905144 0.13169661 1.577 62 70 63 255
0.013149586 0.13194668 1.58 63 69 62 255
0.017480811 0.13186254 1.5790001 62 68 61 255
0.0218341 0.13194519 1.58 61 65 58 255
0.026159661 0.13186067 1.5790001 61 65 58 255
0.030537559 0.13202648 1.5810001 63 67 60 255
0.03490426 0.1321086 1.582 61 66 62 255
0.039226692 0.13202353 1.5810001 65 71 64 255
0.043598577 0.13210526 1.582 61 67 60 255
0.047975782 0.13218683 1.5830001 61 67 60 255
0.052391332 0.13235171 1.585 65 71 64 255
0.056746051 0.13234942 1.585 63 69 62 255
0.06102344 0.13217993 1.5830001 64 70 63 255
0.06533087 0.13209374 1.582 64 70 63 255
0.0696766 0.13209091 1.582 67 73 66 255
0.074022032 0.13208789 1.582 70 76 69 255
0.078268081 0.1319177 1.58 71 77 70 255
0.082555123 0.13183084 1.5790001 69 75 68 255
0.086836323 0.13174382 1.5780001 70 76 69 255
0.091169454 0.13174009 1.5780001 70 78 71 255
0.095683776 0.13198666 1.5810001 70 78 71 255
0.10040398 0.13248347 1.5870001 66 74 67 255
0.10502471 0.13281313 1.5910001 61 69 62 255
0.10939195 0.13280869 1.5910001 63 71 64 255
0.11347275 0.13247019 1.5870001 59 67 60 255
0.11775386 0.13238195 1.5860001 70 77 73 255
0.12187507 0.13212664 1.5830001 65 72 68 255
0.12613876 0.13203806 1.582 67 74 71 255
0.13023154 0.13178246 1.5790001 66 73 72 255
0.13447779 0.13169362 1.5780001 75 82 81 255
0.13845414 0.13135426 1.5740001 96 102 104 255
0.14240798 0.13101475 1.5700001 92 98 100 255
0.14624593 0.13059168 1.5650001 87 94 93 255
0.15024827 0.13033539 1.562 69 76 75 255
0.15453036 0.13032928 1.562 80 87 84 255
0.15891355 0.13040645 1.5630001 75 82 79 255
0.16330163 0.13048346 1.5640001 69 76 73 255
0.16758743 0.13047689 1.5640001 71 78 75 255
0.17154291 0.13021994 1.5610001 76 81 78 255
0.17604449 0.13037992 1.5630001 90 95 91 255
0.18044102 0.13045634 1.5640001 70 75 71 255
0.18484235 0.13053261 1.5650001 65 71 64 255
0.18876511 0.13027513 1.562 63 69 62 255
0.19267076 0.13001753 1.559 63 69 62 255
0.19668566 0.12984325 1.557 66 74 67 255
0.20068884 0.12966883 1.5550001 66 73 70 255
0.20494401 0.1296611 1.5550001 61 68 67 255
0.20906396 0.12956984 1.554 86 93 92 255
0.21290316 0.12931174 1.5510001 94 101 100 255
0.21700524 0.12922028 1.5500001 63 70 69 255
0.22095835 0.12904535 1.5480001 65 72 71 255
0.22504526 0.12895368 1.5470001 69 76 73 255
0.22897777 0.12877855 1.5450001 79 86 83 255
0.23244578 0.12835331 1.5400001 92 99 96 255
0.23650035 0.12826137 1.539 80 87 83 255
0.24054873 0.12816934 1.5380001 89 96 92 255
0.24506833 0.12832722 1.5400001 70 77 73 255
0.24895054 0.12815166 1.5380001 60 67 63 255
0.25282106 0.12797603 1.536 63 68 64 255
0.25651258 0.12771703 1.5330001 57 64 60 255
0.26035699 0.12754129 1.531 99 106 103 255
0.26453528 0.12753206 1.531 85 92 89 255
0.26853725 0.12743948 1.5300001 70 75 71 255
0.272533 0.12734681 1.529 71 76 72 255
0.27670345 0.12733735 1.529 75 80 76 255
0.28087315 0.12732784 1.529 75 80 76 255
0.28504202 0.12731823 1.529 76 81 78 255
0.28864267 0.12705879 1.526 77 82 79 255
0.2928018 0.12704906 1.526 88 95 91 255
0.29715472 0.12712254 1.5270001 87 92 88 255
0.30151233 0.12719594 1.5280001 76 81 77 255
0.30587453 0.12726924 1.529 74 79 75 255
0.30983591 0.12717605 1.5280001 76 80 73 255
0.31358561 0.12699957 1.526 74 79 75 255
0.31711534 0.12673987 1.5230001 74 79 76 255
0.32147172 0.12681298 1.524 78 83 79 255
0.32583278 0.12688607 1.5250001 77 82 78 255
0.33041495 0.12704228 1.5270001 74 80 73 255
0.33413079 0.12686568 1.5250001 74 80 73 255
0.33827862 0.12685543 1.5250001 76 82 75 255
0.3424257 0.12684517 1.5250001 74 80 73 255
0.34702656 0.1270012 1.5270001 76 82 75 255
0.35094762 0.12690769 1.526 75 81 74 255
0.35486254 0.1268142 1.5250001 72 78 71 255
0.35900664 0.12680383 1.5250001 73 79 72 255
0.36291191 0.12671031 1.524 72 78 71 255
0.3668111 0.12661681 1.5230001 72 77 73 255
0.37094769 0.12660643 1.5230001 74 79 75 255
0.37557611 0.1267623 1.5250001 72 77 73 255
0.38021475 0.12691814 1.5270001 73 78 74 255
0.3846119 0.12699085 1.5280001 74 79 75 255
0.38850489 0.12689736 1.5270001 73 78 74 255
0.39213473 0.1267208 1.5250001 72 78 71 255
0.3960129 0.12662736 1.524 76 82 75 255
0.40067276 0.12678321 1.526 74 80 73 255
0.40454704 0.12668982 1.5250001 73 79 72 255
0.40868321 0.12667954 1.5250001 70 75 71 255
0.41281891 0.1266693 1.5250001 70 76 69 255
0.41750085 0.12682521 1.5270001 71 77 70 255
0.42219302 0.12698112 1.529 69 75 68 255
0.4263379 0.12697096 1.529 70 76 69 255
0.43076381 0.12704389 1.5300001 69 75 68 255
0.43491036 0.12703381 1.5300001 66 72 65 255
0.43934339 0.12710683 1.531 68 74 67 255
0.44378138 0.12717989 1.5320001 68 74 67 255
0.44793203 0.12716997 1.5320001 71 77 70 255
0.45119694 0.12691112 1.529 62 68 61 255
0.45474294 0.12673537 1.5270001 63 69 62 255
0.45887887 0.1267257 1.5270001 63 69 62 255
0.4627111 0.12663312 1.526 65 71 64 255
0.46653768 0.12654066 1.5250001 62 69 65 255
0.47004992 0.1263653 1.5230001 63 70 66 255
0.47386223 0.12627302 1.5220001 53 61 54 255
0.47829711 0.12634678 1.5230001 59 66 62 255
0.48210362 0.12625469 1.5220001 77 84 80 255
0.48526552 0.12599683 1.5190001 85 92 88 255
0.48808894 0.12565619 1.5150001 84 91 88 255
0.49089035 0.12531567 1.511 81 88 85 255
0.49432531 0.12514119 1.5090001 77 82 78 255
0.49807957 0.12504975 1.508 75 82 78 255
0.50316036 0.12529016 1.511 75 83 76 255
0.50859308 0.12561356 1.5150001 74 82 75 255
0.51337051 0.12577119 1.5170001 74 82 75 255
0.51849997 0.12601188 1.5200001 73 81 74 255
0.52433342 0.12641846 1.5250001 74 82 75 255
0.53054041 0.126908 1.531 73 79 72 255
0.53433543 0.12681745 1.5300001 65 71 63 255
0.53742123 0.12656128 1.5270001 53 59 51 255
0.54013634 0.12622243 1.5230001 55 61 53 255
0.54318726 0.12596664 1.5200001 57 63 55 255
0.54622233 0.12571105 1.5170001 59 65 57 255
0.55141801 0.12595284 1.5200001 73 79 72 255
0.55663025 0.12619476 1.5230001 79 83 76 255
0.56149089 0.12635399 1.5250001 36 40 32 255
0.5652501 0.12626483 1.524 29 33 25 255
0.56975144 0.12634155 1.5250001 36 42 34 255
0.57275349 0.1260871 1.5220001 48 56 48 255
0.5757398 0.12583286 1.5190001 73 81 73 255
0.57871032 0.12557884 1.516 75 83 76 255
0.58435637 0.12590486 1.5200001 76 84 77 255
0.58886319 0.1259826 1.521 66 74 67 255
0.59220654 0.12581205 1.5190001 64 72 65 255
0.59514713 0.1255589 1.516 63 71 64 255
0.59846753 0.12538883 1.5140001 63 71 64 255
0.60336995 0.12555027 1.516 71 77 70 255
0.60748261 0.12554629 1.516 74 80 73 255
0.61119264 0.12545975 1.5150001 71 77 70 255
0.61449224 0.12529063 1.5130001 75 79 72 255
0.61819053 0.12520456 1.5120001 74 78 71 255
0.62270784 0.12528439 1.5130001 81 83 75 255
0.62640291 0.12519884 1.5120001 15 17 7 255
0.62925965 0.12494796 1.5090001 19 22 10 255
0.631262 0.12453175 1.5040001 19 22 10 255
0.63450557 0.12436422 1.5020001 19 22 10 255
0.64224774 0.12427839 1.501 19 22 10 255
0.64676261 0.12436009 1.5020001 19 22 10 255
0.64998448 0.1241937 1.5000001 19 24 10 255
0.6786105 0.12419652 1.5000001 22 25 11 255
0.68270713 0.12419821 1.5000001 22 25 11 255
-0.9697684 0.13971257 1.7400001 21 22 10 255
-0.89157456 0.12971927 1.6160001 20 18 8 255
-0.89362746 0.1306649 1.628 25 23 13 255
-0.92237753 0.13554314 1.6890001 25 23 13 255
-0.93238419 0.13839778 1.725 18 18 10 255
-0.93778187 0.13990569 1.7440001 16 16 8 255
-0.93024009 0.13948871 1.7390001 17 17 7 255
-0.93018121 0.14019525 1.748 18 18 8 255
-0.91154957 0.13809541 1.7220001 18 18 8 255
-0.90833759 0.13832192 1.725 23 23 13 255
-0.91558951 0.14015253 1.748 22 22 12 255
-0.91802895 0.14126179 1.7620001 18 18 8 255
-0.8955195 0.13852352 1.728 22 20 10 255
-0.88866687 0.13819094 1.7240001 21 19 9 255
-0.88748026 0.1387406 1.7310001 19 17 7 255
-0.87402052 0.13736722 1.7140001 18 18 8 255
-0.87993097 0.13903978 1.7350001 19 19 9 255
-0.8761456 0.13919008 1.7370001 19 19 9 255
-0.87887418 0.14038251 1.7520001 20 20 10 255
-0.87753254 0.14093429 1.7590001 18 18 8 255
-0.86276072 0.13932332 1.7390001 17 17 7 255
-0.84662235 0.13747267 1.7160001 18 18 8 255
-0.77435774 0.13309285 1.6620001 198 204 197 255
-0.75637782 0.13076741 1.6330001 214 220 213 255
-0.74454486 0.12948343 1.6170001 201 209 202 255
-0.73509008 0.12860024 1.6060001 201 209 201 255
-0.72296774 0.12723698 1.5890001 177 187 172 255
-0.71184486 0.12603426 1.5740001 186 195 176 255
-0.70305336 0.12523225 1.5640001 130 139 120 255
-0.6965524 0.12483092 1.559 137 145 120 255
-0.6918568 0.12475022 1.5580001 114 122 97 255
-0.68760973 0.1247499 1.5580001 90 98 72 255
-0.68336445 0.12474988 1.5580001 94 102 77 255
-0.67912078 0.12475017 1.5580001 147 155 130 255
-0.67401242 0.12459063 1.5560001 172 180 155 255
-0.66934687 0.12451144 1.5550001 142 148 122 255
-0.66426045 0.12435245 1.5530001 131 137 112 255
-0.66046149 0.12443397 1.554 124 130 105 255
-0.65623605 0.12443569 1.554 120 127 105 255
-0.65201199 0.12443769 1.554 120 127 106 255
-0.64820611 0.12452006 1.5550001 114 121 100 255
-0.64398175 0.12452258 1.5550001 122 128 110 255
-0.64099288 0.12476561 1.5580001 171 177 159 255
-0.63635391 0.12468858 1.557 165 171 153 255
-0.63131553 0.12453171 1.5550001 157 166 147 255
-0.62588567 0.12429498 1.552 122 130 113 255
-0.62207532 0.12437885 1.5530001 119 127 110 255
-0.61905617 0.12462312 1.5560001 118 126 111 255
-0.61523122 0.12470745 1.557 129 137 122 255
-0.61061698 0.12463184 1.5560001 160 167 155 255
-0.60600883 0.12455642 1.5550001 159 166 154 255
-0.60179383 0.12456132 1.5550001 160 167 155 255
-0.59796381 0.12464654 1.5560001 161 169 154 255
-0.59336585 0.12457176 1.5550001 145 155 138 255
-0.59028947 0.12481762 1.5580001 153 163 146 255
-0.58644491 0.12490346 1.559 153 163 146 255
-0.58296895 0.12506963 1.5610001 153 164 145 255
-0.57874125 0.12507576 1.5610001 152 163 144 255
-0.57414573 0.12500192 1.5600001 155 166 147 255
-0.57028687 0.12508854 1.5610001 151 162 143 255
-0.56642294 0.12517534 1.562 153 163 146 255
-0.56255382 0.12526233 1.5630001 155 165 150 255
-0.55832231 0.12526934 1.5630001 151 161 146 255
-0.55373657 0.12519635 1.562 152 161 149 255
-0.54810113 0.12488306 1.5580001 139 148 136 255
-0.54388392 0.12489053 1.5580001 153 162 150 255
-0.53966677 0.12489813 1.5580001 149 158 146 255
-0.53613704 0.12506622 1.5600001 153 162 150 255
-0.53259665 0.12523448 1.562 147 156 144 255
-0.5290454 0.1254029 1.5640001 153 161 144 255
-0.52548337 0.12557147 1.5660001 150 160 143 255
-0.52224332 0.12582038 1.5690001 154 164 147 255
-0.51931709 0.12614965 1.5730001 152 163 144 255
-0.51669669 0.12655929 1.5780001 149 159 142 255
-0.51339948 0.12680867 1.5810001 150 161 142 255
-0.51072997 0.12721863 1.5860001 148 159 140 255
-0.50803328 0.12762877 1.5910001 142 153 134 255
-0.50530928 0.12803906 1.5960001 134 143 122 255
-0.50224411 0.12836926 1.6 136 146 123 255
-0.49977937 0.1288601 1.6060001 132 142 119 255
-0.4969734 0.12927087 1.6110001 98 108 85 255
-0.49322271 0.12944104 1.613 99 108 87 255
-0.48885468 0.1294508 1.613 106 116 93 255
-0.48358533 0.12921987 1.6100001 111 122 101 255
-0.47803402 0.12890869 1.6060001 106 118 95 255
-0.47220913 0.1285173 1.6010001 110 122 99 255
-0.46611866 0.12804562 1.595 112 121 100 255
-0.46092883 0.1278148 1.5920001 124 133 114 255
-0.45632839 0.12774457 1.5910001 116 125 106 255
-0.45201707 0.12775467 1.5910001 119 128 109 255
-0.44770518 0.12776484 1.5910001 123 132 113 255
-0.44283542 0.12761444 1.5890001 124 133 114 255
-0.43852797 0.12762471 1.5890001 109 119 96 255
-0.43312678 0.12731369 1.585 104 112 87 255
-0.42882904 0.12732401 1.585 110 118 93 255
-0.42506638 0.12749502 1.5870001 105 113 87 255
-0.42314813 0.1282285 1.5960001 104 112 87 255
-0.42170534 0.12912281 1.6070001 105 113 88 255
-0.41942304 0.12977622 1.6150001 118 128 105 255
-0.41632575 0.13018869 1.6200001 120 130 107 255
-0.41269201 0.13044047 1.623 114 125 106 255
-0.40904132 0.13069232 1.626 110 121 102 255
-0.40487599 0.13078345 1.6270001 125 136 117 255
-0.39996609 0.13063344 1.6250001 139 150 131 255
-0.39336243 0.12992062 1.6160001 155 166 147 255
-0.38752902 0.12944889 1.6100001 128 138 115 255
-0.38267937 0.1292987 1.608 103 111 85 255
-0.37878096 0.12947014 1.6100001 98 106 80 255
-0.37463826 0.12956117 1.6110001 114 122 96 255
-0.36979997 0.12941094 1.6090001 159 167 142 255
-0.36610729 0.1296628 1.6120001 139 145 120 255
-0.3626219 0.12999514 1.6160001 86 93 64 255
-0.35955733 0.13048841 1.6220001 69 74 43 255
-0.35514557 0.13049898 1.6220001 80 85 54 255
-0.3500843 0.13026811 1.6190001 90 95 64 255
-0.3452521 0.13011768 1.6170001 104 109 78 255
-0.34042987 0.12996715 1.6150001 109 117 91 255
-0.33624199 0.13005801 1.6160001 118 126 101 255
-0.33163714 0.12998787 1.6150001 120 129 108 255
-0.32764477 0.13015911 1.6170001 113 124 103 255
-0.32384053 0.13041084 1.6200001 110 119 100 255
-0.32001916 0.13066256 1.623 95 101 83 255
-0.31598616 0.13083375 1.6250001 14 18 0 255
-0.31117445 0.1306828 1.623 27 29 12 255
-0.30656186 0.1306123 1.6220001 32 31 17 255
-0.301395 0.13030012 1.618 35 36 22 255
-0.29679981 0.13022944 1.6170001 35 38 26 255
-0.29275164 0.1304003 1.6190001 23 27 19 255
-0.28851369 0.13049056 1.6200001 90 96 89 255
-0.28374329 0.13033907 1.618 84 91 87 255
-0.27829245 0.12986523 1.6120001 80 87 83 255
-0.27321336 0.12955236 1.608 78 85 81 255
-0.2684896 0.12940052 1.6060001 75 82 78 255
-0.2636115 0.12916796 1.603 70 77 73 255
-0.25891069 0.12901588 1.6010001 56 61 57 255
-0.25406101 0.12878308 1.598 70 75 71 255
-0.24985196 0.12887253 1.5990001 66 71 67 255
-0.24532957 0.12880068 1.598 86 91 87 255
-0.24066105 0.12864812 1.5960001 69 76 72 255
-0.23600273 0.12849544 1.5940001 82 89 85 255
-0.23149985 0.12842321 1.5930001 81 88 84 255
-0.22700171 0.12835088 1.5920001 65 73 66 255
-0.22264805 0.12835906 1.5920001 54 60 53 255
-0.2182937 0.12836711 1.5920001 49 55 48 255
-0.21366982 0.12821376 1.59 74 80 73 255
-0.20918778 0.12814091 1.5890001 68 74 67 255
-0.20458162 0.12798731 1.5870001 68 75 71 255
-0.19998561 0.12783353 1.585 72 79 75 255
-0.19527644 0.12759894 1.582 69 76 72 255
-0.1908244 0.12752555 1.5810001 69 76 73 255
-0.18637714 0.127452 1.58 68 75 72 255
-0.18193473 0.12737833 1.5790001 83 90 86 255
-0.17760956 0.12738515 1.5790001 78 85 81 255
-0.1733935 0.12747253 1.58 75 81 74 255
-0.16938531 0.12772116 1.5830001 69 75 68 255
-0.16546433 0.12805034 1.5870001 63 69 62 255
-0.16111471 0.12805666 1.5870001 70 74 67 255
-0.15676449 0.12806283 1.5870001 85 89 82 255
-0.15241367 0.12806883 1.5870001 73 79 72 255
-0.14815554 0.1281554 1.5880001 61 67 60 255
-0.14371029 0.12808043 1.5870001 59 65 58 255
-0.13944557 0.12816668 1.5880001 57 63 56 255
-0.13517481 0.1282528 1.5890001 62 68 61 255
-0.13081573 0.12825808 1.5890001 63 71 64 255
-0.12629698 0.12810174 1.5870001 64 72 65 255
-0.12186551 0.12802593 1.5860001 73 81 74 255
-0.11751317 0.1280307 1.5860001 83 91 84 255
-0.1132317 0.12811604 1.5870001 72 80 73 255
-0.10887569 0.12812051 1.5870001 58 66 59 255
-0.10445338 0.12804405 1.5860001 79 87 80 255
-0.10009927 0.12804817 1.5860001 80 88 81 255
-0.095684357 0.12797138 1.585 72 80 73 255
-0.091332182 0.12797515 1.585 57 63 56 255
-0.086869888 0.12781729 1.5830001 61 67 60 255
-0.082522467 0.1278207 1.5830001 56 62 55 255
-0.078174733 0.12782398 1.5830001 57 62 58 255
-0.073873296 0.12790783 1.5840001 79 86 82 255
-0.06952218 0.12791075 1.5840001 66 73 69 255
-0.06517078 0.1279135 1.5840001 59 66 62 255
-0.060780708 0.12783533 1.5830001 48 55 51 255
-0.056324571 0.12759544 1.58 42 49 45 255
-0.051851802 0.12727465 1.5760001 90 97 93 255
-0.04743094 0.1270344 1.5730001 69 76 72 255
-0.043135989 0.12711702 1.5740001 62 69 66 255
-0.038810708 0.12711871 1.5740001 68 75 72 255
-0.034463353 0.12703945 1.5730001 73 80 77 255
-0.030140514 0.12704079 1.5730001 75 82 78 255
-0.02580113 0.12696117 1.572 77 82 78 255
-0.021480804 0.12696216 1.572 73 79 72 255
-0.017149467 0.12688218 1.5710001 69 75 68 255
-0.012839891 0.12696356 1.572 62 68 61 255
-0.0085301856 0.12712555 1.5740001 65 71 64 255
-0.0042094495 0.12728734 1.5760001 63 69 62 255
0.00012222088 0.12736817 1.577 62 68 61 255
0.0044565615 0.12736809 1.577 60 66 59 255
0.0087908832 0.12736781 1.577 59 65 58 255
0.013150137 0.12760966 1.58 60 66 59 255
0.017492613 0.12760903 1.58 60 64 57 255
0.021835012 0.12760821 1.58 64 68 61 255
0.026144186 0.1274457 1.5780001 63 67 60 255
0.030519521 0.12760606 1.58 62 66 59 255
0.034883659 0.12768549 1.5810001 60 66 59 255
0.039228331 0.12768395 1.5810001 63 69 62 255
0.043545276 0.12760147 1.58 65 71 64 255
0.047886856 0.12759961 1.58 64 70 63 255
0.052261297 0.12767832 1.5810001 66 72 65 255
0.056641001 0.12775683 1.582 68 74 67 255
0.060948875 0.12767369 1.5810001 65 72 68 255
0.065250993 0.12759034 1.58 65 72 68 255
0.069591396 0.12758759 1.58 66 73 69 255
0.073884718 0.12750392 1.5790001 66 73 69 255
0.078122698 0.1273393 1.577 71 76 72 255
0.082349382 0.12717456 1.575 73 78 74 255
0.086619779 0.12709039 1.5740001 75 81 74 255
0.090942085 0.12708679 1.5740001 75 81 74 255
0.09538509 0.12724452 1.5760001 70 76 69 255
0.10002848 0.12764426 1.5810001 69 75 68 255
0.1045669 0.12788235 1.5840001 67 73 66 255
0.10898384 0.12795879 1.585 63 71 64 255
0.11311984 0.12771215 1.582 65 70 66 255
0.11731315 0.12754609 1.58 70 75 72 255
0.12149502 0.12737988 1.5780001 69 76 73 255
0.12574516 0.12729424 1.577 70 77 76 255
0.12982436 0.12704703 1.5740001 62 69 68 255
0.13405707 0.1269611 1.5730001 75 82 81 255
0.13793185 0.12655218 1.5680001 94 101 100 255
0.14186943 0.12622386 1.5640001 90 97 94 255
0.14597139 0.12605682 1.562 80 87 84 255
0.15006182 0.12588963 1.5600001 64 71 68 255
0.15423964 0.12580301 1.559 68 73 70 255
0.15830974 0.12563556 1.557 87 92 89 255
0.16278593 0.12579075 1.559 73 78 75 255
0.16716534 0.12586509 1.5600001 67 72 69 255
0.17121987 0.12569724 1.5580001 70 75 71 255
0.17571341 0.12585197 1.5600001 88 93 89 255
0.18021722 0.12600654 1.562 66 71 67 255
0.18461321 0.1260803 1.5630001 62 68 61 255
0.18853062 0.12583126 1.5600001 64 70 63 255
0.19230732 0.12550148 1.5560001 66 74 67 255
0.19656676 0.12549421 1.5560001 70 78 71 255
0.20043832 0.12524487 1.5530001 68 75 71 255
0.2045563 0.12515672 1.552 58 65 62 255
0.20853363 0.12498783 1.5500001 78 85 82 255
0.21263653 0.12489947 1.549 95 102 99 255
0.21701324 0.12497225 1.5500001 73 80 79 255
0.22096646 0.12480304 1.5480001 64 71 70 255
0.22476257 0.12455313 1.5450001 68 75 74 255
0.22839327 0.12422252 1.5410001 87 94 91 255
0.23230323 0.12405307 1.539 88 95 92 255
0.2363552 0.12396414 1.5380001 71 78 74 255
0.24055734 0.12395573 1.5380001 90 98 91 255
0.24507703 0.12410837 1.5400001 70 78 71 255
0.24912122 0.12401915 1.539 60 67 63 255
0.25299457 0.12384927 1.5370001 57 64 60 255
0.25652155 0.12351818 1.5330001 61 68 64 255
0.26002592 0.12318704 1.529 96 103 100 255
0.26419881 0.12317811 1.529 79 86 82 255
0.26819539 0.12308855 1.5280001 72 79 75 255
0.27254224 0.12316 1.529 75 80 76 255
0.27653188 0.12307031 1.5280001 76 82 75 255
0.28069887 0.12306107 1.5280001 77 83 76 255
0.28467867 0.12297122 1.5270001 74 81 77 255
0.28865218 0.12288133 1.526 76 83 79 255
0.29281139 0.12287191 1.526 90 97 93 255
0.29716438 0.12294292 1.5270001 75 80 76 255
0.3017194 0.12309438 1.529 72 77 73 255
0.30608442 0.12316526 1.5300001 76 79 75 255
0.31004855 0.12307507 1.529 72 75 71 255
0.31380099 0.12290437 1.5270001 75 80 77 255
0.31754172 0.12273365 1.5250001 77 82 79 255
0.32190356 0.12280431 1.526 80 85 82 255
0.32605648 0.12279447 1.526 78 83 79 255
0.33042502 0.12286506 1.5270001 74 79 75 255
0.33414087 0.12269422 1.5250001 76 81 77 255
0.33806688 0.12260383 1.524 75 80 76 255
0.34243584 0.1226743 1.5250001 73 78 74 255
0.34680945 0.12274473 1.526 72 77 73 255
0.35095781 0.12273472 1.526 72 77 73 255
0.3548727 0.12264425 1.5250001 72 77 73 255
0.35901687 0.12263419 1.5250001 74 79 75 255
0.36316031 0.12262414 1.5250001 73 78 74 255
0.36706215 0.12253366 1.524 75 81 74 255
0.37120146 0.12252356 1.524 73 79 72 255
0.37558636 0.12259389 1.5250001 71 77 70 255
0.37997594 0.12266418 1.526 73 79 72 255
0.38437042 0.12273447 1.5270001 75 81 74 255
0.38851511 0.12272439 1.5270001 73 79 72 255
0.39214495 0.1225536 1.5250001 67 73 66 255
0.396283 0.12254356 1.5250001 69 75 68 255
0.40042037 0.12253354 1.5250001 69 75 68 255
0.40455717 0.12252352 1.5250001 70 76 69 255
0.40842536 0.12243321 1.524 71 77 70 255
0.41282898 0.12250361 1.5250001 70 76 69 255
0.41805774 0.12281498 1.529 67 73 66 255
0.42247918 0.1228854 1.5300001 64 70 63 255
0.42662674 0.12287553 1.5300001 65 71 64 255
0.43077374 0.12286571 1.5300001 63 69 62 255
0.43492019 0.12285592 1.5300001 62 68 61 255
0.43935326 0.12292649 1.531 57 63 56 255
0.44408086 0.12307739 1.5330001 58 64 57 255
0.44794172 0.12298746 1.5320001 58 63 59 255
0.4515017 0.12281737 1.5300001 60 66 59 255
0.45505038 0.12264735 1.5280001 65 70 66 255
0.45918885 0.12263795 1.5280001 68 73 69 255
0.46302375 0.12254837 1.5270001 66 71 67 255
0.4668529 0.12245888 1.526 69 75 68 255
0.47036773 0.12228926 1.524 67 71 64 255
0.47449407 0.1222802 1.524 66 72 65 255
0.47893426 0.12235146 1.5250001 56 64 57 255
0.48274606 0.12226234 1.524 72 80 73 255
0.48623279 0.12209314 1.5220001 75 82 79 255
0.48938629 0.12184384 1.5190001 85 92 91 255
0.49187362 0.12143427 1.5140001 85 92 91 255
0.49433377 0.12102485 1.5090001 76 83 80 255
0.49775764 0.1208562 1.5070001 76 83 80 255
0.50216961 0.12092826 1.508 78 85 81 255
0.50759405 0.12124097 1.5120001 72 80 73 255
0.51270175 0.1214736 1.5150001 74 82 75 255
0.51816672 0.12178648 1.5190001 73 81 74 255
0.52434111 0.12225983 1.5250001 75 83 76 255
0.52985501 0.1225729 1.529 76 82 75 255
0.53434294 0.1226456 1.5300001 67 73 65 255
0.53672469 0.12223751 1.5250001 61 67 59 255
0.53978884 0.12198991 1.5220001 57 63 55 255
0.54247957 0.12166235 1.5180001 55 61 54 255
0.54586899 0.12149525 1.516 57 63 56 255
0.55142462 0.12180918 1.5200001 74 78 71 255
0.55663675 0.12204311 1.5230001 77 81 73 255
0.56149721 0.12219705 1.5250001 30 35 24 255
0.56488532 0.12203065 1.5230001 30 35 24 255
0.5693838 0.12210479 1.524 41 46 35 255
0.57275927 0.12193879 1.5220001 49 56 45 255
0.57536632 0.12161274 1.5180001 52 60 52 255
0.57795221 0.12128693 1.5140001 78 86 79 255
0.58243924 0.12136186 1.5150001 75 83 76 255
0.58770674 0.12159722 1.5180001 73 81 74 255
0.59182143 0.12159244 1.5180001 69 77 70 255
0.59515166 0.12142767 1.516 65 73 66 255
0.59847188 0.12126315 1.5140001 68 76 69 255
0.60297596 0.12133913 1.5150001 68 74 67 255
0.60708576 0.12133523 1.5150001 73 79 72 255
0.61119622 0.12133157 1.5150001 75 81 74 255
0.61449558 0.12116797 1.5130001 73 77 70 255
0.6177848 0.12100461 1.511 74 78 70 255
0.62229908 0.12108175 1.5120001 78 83 72 255
0.62599123 0.12099896 1.511 15 17 7 255
0.62884504 0.12075628 1.508 20 23 11 255
0.6308443 0.12035371 1.503 19 22 10 255
0.63408494 0.12019164 1.501 22 25 13 255
0.6459024 0.12010744 1.5000001 18 21 9 255
0.67860907 0.12010895 1.5000001 22 25 11 255
-0.90761566 0.12883519 1.6620001 18 18 8 255
-0.9051367 0.12912902 1.6660001 19 19 9 255
-0.90173954 0.12995057 1.677 18 18 8 255
-0.94627249 0.13706414 1.7690001 19 19 9 255
-0.90834916 0.13224588 1.7070001 17 17 7 255
-0.89406705 0.13083763 1.6890001 19 19 9 255
-0.90621781 0.13330302 1.7210001 19 19 9 255
-0.89395285 0.13357545 1.725 20 18 8 255
-0.88917089 0.13356401 1.725 21 19 9 255
-0.87772822 0.13254659 1.7120001 19 19 9 255
-0.87095052 0.13222653 1.7080001 19 19 9 255
-0.87839955 0.13407449 1.7320001 16 16 6 255
-0.87260526 0.13391015 1.7300001 19 19 9 255
-0.86532092 0.13351411 1.725 18 18 8 255
-0.87353283 0.13551779 1.751 19 19 9 255
-0.86027199 0.13419393 1.7340001 17 17 7 255
-0.85056174 0.13341239 1.7240001 20 20 10 255
-0.85366589 0.13464326 1.7400001 19 19 9 255
-0.84741575 0.1344043 1.7370001 20 21 9 255
-0.830998 0.13254093 1.7130001 24 25 13 255
-0.759911 0.12616517 1.631 212 218 211 255
-0.746185 0.12461515 1.6110001 214 220 213 255
-0.73717523 0.12383908 1.6010001 209 217 209 255
-0.72639143 0.12275396 1.5870001 155 165 150 255
-0.71477628 0.12151453 1.5710001 194 204 187 255
-0.70551187 0.12066219 1.5600001 118 127 106 255
-0.69990563 0.12042897 1.557 120 127 105 255
-0.69476449 0.12027341 1.5550001 94 100 74 255
-0.6905241 0.12027285 1.5550001 106 112 86 255
-0.68628556 0.12027259 1.5550001 126 132 107 255
-0.68204874 0.12027262 1.5550001 122 129 107 255
-0.67781353 0.12027296 1.5550001 173 178 156 255
-0.67271358 0.12011889 1.5530001 121 129 104 255
-0.66805649 0.12004245 1.552 125 131 106 255
-0.66383404 0.12004363 1.552 124 130 105 255
-0.66003805 0.12012243 1.5530001 118 123 101 255
-0.6558156 0.12012414 1.5530001 119 125 107 255
-0.65117502 0.12004878 1.552 149 155 137 255
-0.64695787 0.12005102 1.552 170 178 161 255
-0.64232785 0.11997616 1.5510001 170 178 161 255
-0.63852721 0.12005624 1.552 149 157 140 255
-0.63349617 0.11990453 1.5500001 142 150 133 255
-0.62888288 0.11983037 1.549 136 144 129 255
-0.62346965 0.11960176 1.5460001 132 140 125 255
-0.61927521 0.11960543 1.5460001 160 167 155 255
-0.61508173 0.11960933 1.5460001 152 159 148 255
-0.61167932 0.11976819 1.5480001 163 170 159 255
-0.60630465 0.1195404 1.5450001 159 166 155 255
-0.60211635 0.11954495 1.5450001 157 164 153 255
-0.59715468 0.11939496 1.5430001 151 158 147 255
-0.59335738 0.11947726 1.544 159 168 156 255
-0.58802897 0.11925028 1.5410001 149 159 144 255
-0.58347511 0.11917821 1.5400001 152 162 147 255
-0.57855111 0.11902895 1.5380001 152 162 145 255
-0.57438534 0.11903464 1.5380001 153 163 146 255
-0.56984925 0.11896311 1.5370001 153 163 146 255
-0.56605506 0.11904656 1.5380001 149 159 142 255
-0.56189054 0.11905278 1.5380001 150 160 145 255
-0.55845165 0.119214 1.5400001 145 155 140 255
-0.55464226 0.11929797 1.5410001 152 161 149 255
-0.55047059 0.11930469 1.5410001 152 161 150 255
-0.5455901 0.11915672 1.539 145 154 143 255
-0.5403688 0.11893144 1.536 153 162 151 255
-0.53516394 0.11870629 1.5330001 150 158 150 255
-0.53136098 0.11879101 1.534 148 156 148 255
-0.52755272 0.11887588 1.5350001 148 157 146 255
-0.5244211 0.11911579 1.5380001 147 156 145 255
-0.52025843 0.1191235 1.5380001 148 157 145 255
-0.51576018 0.11905386 1.5370001 149 158 146 255
-0.51193309 0.11913927 1.5380001 150 160 143 255
-0.5084306 0.11930227 1.5400001 152 162 145 255
-0.50491726 0.11946543 1.5420001 148 158 141 255
-0.50171763 0.11970618 1.5450001 141 151 134 255
-0.4988237 0.12002455 1.549 149 159 142 255
-0.49622729 0.12042057 1.554 152 162 145 255
-0.49265379 0.12058426 1.5560001 150 160 143 255
-0.48969704 0.12090307 1.5600001 143 153 136 255
-0.48578471 0.12098949 1.5610001 139 149 132 255
-0.48248369 0.12123103 1.5640001 144 154 137 255
-0.47855461 0.12131765 1.5650001 149 159 142 255
-0.47431663 0.12132685 1.5650001 152 163 144 255
-0.46947765 0.12118107 1.5630001 152 161 142 255
-0.46405369 0.12088025 1.559 145 154 135 255
-0.45835611 0.1205019 1.554 138 147 128 255
-0.45326981 0.12027869 1.5510001 132 140 123 255
-0.44935733 0.12036569 1.552 141 149 132 255
-0.44515213 0.12037519 1.552 139 147 132 255
-0.44123068 0.12046235 1.5530001 151 159 142 255
-0.43645906 0.12031684 1.5510001 143 152 133 255
-0.43141907 0.12009376 1.5480001 145 154 135 255
-0.42584276 0.11971551 1.5430001 155 164 143 255
-0.4208397 0.11949243 1.5400001 148 157 138 255
-0.41666397 0.11950214 1.5400001 136 145 126 255
-0.41329122 0.1197447 1.5430001 121 130 111 255
-0.41149238 0.12045298 1.552 166 175 156 255
-0.41069388 0.12147189 1.5650001 150 159 140 255
-0.41060328 0.12272386 1.5810001 135 144 123 255
-0.4093973 0.12366552 1.5930001 128 137 116 255
-0.40710837 0.12429681 1.6010001 115 126 107 255
-0.40427208 0.12477291 1.6070001 121 131 114 255
-0.4006561 0.12501615 1.6100001 126 136 119 255
-0.39530003 0.12471586 1.6060001 151 161 144 255
-0.38923472 0.12418251 1.5990001 141 152 133 255
-0.38416958 0.12395974 1.5960001 92 104 81 255
-0.38078588 0.12428067 1.6 94 104 79 255
-0.37737972 0.12460163 1.6040001 91 101 78 255
-0.3737185 0.12484495 1.6070001 95 105 82 255
-0.36866117 0.12462211 1.6040001 159 166 144 255
-0.36475497 0.12478773 1.6060001 134 141 119 255
-0.36106151 0.12503105 1.6090001 99 106 77 255
-0.35845932 0.12566297 1.6170001 72 79 48 255
-0.35406113 0.12567317 1.6170001 81 86 55 255
-0.34901345 0.12545019 1.6140001 91 96 65 255
-0.34419474 0.12530485 1.6120001 102 109 78 255
-0.33959693 0.1252372 1.6110001 111 119 93 255
-0.33562794 0.1254027 1.613 117 125 99 255
-0.3310312 0.12533495 1.6120001 116 126 101 255
-0.32704696 0.12550041 1.6140001 113 123 100 255
-0.32325089 0.12574358 1.6170001 111 117 99 255
-0.31943765 0.12598677 1.6200001 87 91 73 255
-0.31521827 0.12607436 1.6210001 14 18 0 255
-0.31041741 0.12592855 1.6190001 23 25 8 255
-0.30581564 0.12586047 1.618 32 31 17 255
-0.30084589 0.1256367 1.6150001 32 33 19 255
-0.29662585 0.12572402 1.6160001 35 36 24 255
-0.29258043 0.12588909 1.618 20 24 16 255
-0.2883451 0.12597631 1.6190001 92 98 91 255
-0.28322664 0.12567437 1.6150001 83 90 86 255
-0.27795649 0.12529448 1.6100001 72 79 75 255
-0.27305263 0.12507008 1.6070001 77 84 80 255
-0.26849872 0.12500125 1.6060001 78 86 79 255
-0.2636205 0.12477663 1.603 62 70 63 255
-0.25859612 0.12447406 1.5990001 57 65 58 255
-0.25359279 0.12417133 1.595 66 74 67 255
-0.24907933 0.12410204 1.5940001 61 68 64 255
-0.24472404 0.1241105 1.5940001 69 76 72 255
-0.24051869 0.12419672 1.595 61 68 64 255
-0.23601104 0.1241271 1.5940001 84 91 87 255
-0.23136275 0.12397949 1.5920001 76 84 77 255
-0.2268672 0.12390965 1.5910001 65 73 66 255
-0.2223763 0.12383965 1.59 53 59 52 255
-0.21802728 0.12384745 1.59 78 84 77 255
-0.21354316 0.12377723 1.5890001 63 69 62 255
-0.20893209 0.12362899 1.5870001 61 69 62 255
-0.20446016 0.12355851 1.5860001 59 67 60 255
-0.1997406 0.12333208 1.5830001 64 72 65 255
-0.19528364 0.1232613 1.582 65 72 68 255
-0.19071078 0.12311251 1.58 70 77 73 255
-0.18626614 0.12304147 1.5790001 75 82 78 255
-0.18182629 0.12297031 1.5780001 82 89 86 255
-0.17750372 0.12297692 1.5780001 75 82 79 255
-0.17318054 0.12298343 1.5780001 76 81 77 255
-0.1688567 0.12298977 1.5780001 74 79 75 255
-0.16474074 0.12315187 1.58 65 70 66 255
-0.16030866 0.12308002 1.5790001 72 75 71 255
-0.15617777 0.12324186 1.5810001 66 70 63 255
-0.15184326 0.12324766 1.5810001 64 68 61 255
-0.14769475 0.12340925 1.5830001 58 64 57 255
-0.14344415 0.12349272 1.5840001 56 62 55 255
-0.13927533 0.12365403 1.5860001 56 62 55 255
-0.13500994 0.12373725 1.5870001 61 67 60 255
-0.13040918 0.12350842 1.5840001 66 74 67 255
-0.12598357 0.12343536 1.5830001 63 70 66 255
-0.12163977 0.12344012 1.5830001 69 77 70 255
-0.1173696 0.12352272 1.5840001 77 85 78 255
-0.11309345 0.12360516 1.585 75 83 76 255
-0.10867417 0.12353149 1.5840001 61 69 62 255
-0.10425992 0.12345764 1.5830001 71 79 72 255
-0.09991388 0.12346161 1.5830001 75 83 76 255
-0.095507048 0.12338745 1.582 65 71 64 255
-0.091162942 0.12339109 1.582 53 59 52 255
-0.086763598 0.12331659 1.5810001 64 70 63 255
-0.082421511 0.12331991 1.5810001 65 71 64 255
-0.078079082 0.12332306 1.5810001 65 72 68 255
-0.073736347 0.12332606 1.5810001 82 89 85 255
-0.069305517 0.12317287 1.5790001 58 65 61 255
-0.064926527 0.12309752 1.5780001 42 49 45 255
-0.060514372 0.12294399 1.5760001 50 57 53 255
-0.056077302 0.12271227 1.5730001 91 98 94 255
-0.05168939 0.12255839 1.5710001 68 75 71 255
-0.04734239 0.12248234 1.5700001 66 73 69 255
-0.043028113 0.12248414 1.5700001 63 68 64 255
-0.03866433 0.12232973 1.5680001 68 73 69 255
-0.034355197 0.12233119 1.5680001 76 81 77 255
-0.030065089 0.12241049 1.5690001 76 81 77 255
-0.025785767 0.12256765 1.5710001 71 77 70 255
-0.021481674 0.1226466 1.572 64 70 63 255
-0.017171998 0.1227254 1.5730001 60 66 59 255
-0.012848582 0.12272599 1.5730001 64 68 61 255
-0.0085251126 0.12272644 1.5730001 61 67 60 255
-0.0042069494 0.12288272 1.575 60 66 59 255
0.00012214835 0.12296084 1.5760001 61 67 60 255
0.0044539166 0.12296074 1.5760001 60 66 59 255
0.008785666 0.12296046 1.5760001 59 65 58 255
0.013150671 0.12327211 1.58 57 63 56 255
0.017493324 0.12327151 1.58 63 67 60 255
0.021835899 0.12327071 1.58 64 68 61 255
0.026145248 0.12311371 1.5780001 64 68 61 255
0.030482126 0.12311259 1.5780001 64 68 61 255
0.034818877 0.12311129 1.5780001 63 69 62 255
0.03918029 0.12318783 1.5790001 62 68 61 255
0.043491919 0.12310817 1.5780001 64 70 63 255
0.047828171 0.12310635 1.5780001 65 70 66 255
0.052131172 0.12302634 1.577 65 73 66 255
0.056500066 0.1231022 1.5780001 68 74 67 255
0.060797118 0.12302186 1.577 69 74 70 255
0.06512972 0.12301937 1.577 66 71 67 255
0.069462053 0.12301671 1.577 69 74 70 255
0.07370051 0.12285787 1.575 68 75 71 255
0.07797721 0.12277687 1.5740001 66 73 69 255
0.082248099 0.12269572 1.5730001 71 76 72 255
0.086458124 0.12253641 1.5710001 74 80 73 255
0.090772375 0.12253294 1.5710001 75 81 74 255
0.095086247 0.12252929 1.5710001 75 81 74 255
0.099589549 0.12275948 1.5740001 70 76 69 255
0.10397688 0.1228335 1.575 67 73 66 255
0.10850681 0.12306332 1.5780001 65 70 66 255
0.11276675 0.12298103 1.577 63 68 64 255
0.117095 0.12297659 1.577 66 71 68 255
0.12126879 0.12281603 1.575 65 72 71 255
0.12535137 0.12257735 1.572 67 74 73 255
0.12941702 0.12233855 1.5690001 69 76 75 255
0.13363613 0.12225554 1.5680001 65 71 73 255
0.13767329 0.12201645 1.5650001 94 101 100 255
0.14169346 0.12177724 1.562 85 92 89 255
0.14579009 0.12161587 1.5600001 72 79 76 255
0.14997138 0.12153232 1.559 65 72 68 255
0.15404765 0.12137068 1.557 66 71 67 255
0.15821409 0.12128687 1.5560001 78 83 79 255
0.16237444 0.12120293 1.5550001 83 88 85 255
0.16674303 0.12127475 1.5560001 74 79 76 255
0.17089663 0.12119053 1.5550001 71 76 72 255
0.17549472 0.12141792 1.5580001 73 78 74 255
0.18010858 0.12164516 1.5610001 68 74 67 255
0.18450198 0.1217164 1.562 64 70 63 255
0.18853761 0.12155373 1.5600001 60 68 61 255
0.19219083 0.12115722 1.5550001 65 73 66 255
0.19644766 0.12115018 1.5550001 70 78 71 255
0.20044562 0.12098721 1.5530001 65 73 66 255
0.20443195 0.12082414 1.5510001 61 68 64 255
0.20840663 0.12066096 1.549 69 76 73 255
0.21250692 0.1205756 1.5480001 92 99 96 255
0.21674101 0.120568 1.5480001 80 87 86 255
0.22068886 0.12040453 1.5460001 65 72 71 255
0.22462505 0.12024097 1.544 71 75 75 255
0.22840132 0.11999948 1.5410001 93 100 97 255
0.23246235 0.11991363 1.5400001 66 73 70 255
0.23667081 0.11990554 1.5400001 66 73 69 255
0.24056569 0.11974165 1.5380001 93 101 94 255
0.24476717 0.1197334 1.5380001 62 70 63 255
0.248806 0.1196472 1.5370001 59 64 60 255
0.25283858 0.11956091 1.536 58 65 61 255
0.25653026 0.1193189 1.5330001 54 61 57 255
0.26020473 0.11907682 1.5300001 99 106 102 255
0.26420763 0.11899033 1.529 81 88 84 255
0.26837984 0.11898161 1.529 72 79 75 255
0.27272952 0.11905061 1.5300001 71 78 74 255
0.27672186 0.11896391 1.529 71 79 72 255
0.28052428 0.11879937 1.5270001 72 79 75 255
0.2845014 0.11871255 1.526 75 82 78 255
0.28847229 0.1186257 1.5250001 76 83 79 255
0.29262882 0.11861657 1.5250001 90 97 93 255
0.29736841 0.1188407 1.5280001 77 82 78 255
0.3019262 0.11898698 1.5300001 73 78 74 255
0.30629396 0.11905541 1.531 71 76 72 255
0.31005809 0.11889048 1.529 72 77 73 255
0.31360504 0.11864781 1.526 76 81 78 255
0.31775954 0.11863834 1.526 78 83 80 255
0.32212418 0.11870658 1.5270001 77 82 78 255
0.32606617 0.11861932 1.526 74 79 75 255
0.33000201 0.11853202 1.5250001 75 80 76 255
0.33371243 0.11836697 1.5230001 74 79 75 255
0.33807668 0.11843505 1.524 76 81 77 255
0.34244567 0.1185031 1.5250001 76 81 77 255
0.34704658 0.11864881 1.5270001 74 79 76 255
0.35096768 0.11856139 1.526 72 77 74 255
0.35488263 0.11847397 1.5250001 74 79 76 255
0.35879132 0.11838654 1.524 77 82 78 255
0.36293206 0.11837678 1.524 73 78 74 255
0.36731297 0.1184447 1.5250001 76 82 75 255
0.37145498 0.11843493 1.5250001 73 79 72 255
0.37584257 0.1185028 1.526 72 78 71 255
0.37998593 0.11849302 1.526 70 76 69 255
0.38438034 0.11856089 1.5270001 70 76 69 255
0.38877949 0.11862875 1.5280001 69 75 68 255
0.39241195 0.11846371 1.526 69 75 68 255
0.39655274 0.11845398 1.526 69 75 68 255
0.40069279 0.11844424 1.526 65 71 64 255
0.40483227 0.11843453 1.526 61 67 60 255
0.40870318 0.11834726 1.5250001 66 72 65 255
0.41338018 0.11849281 1.5270001 68 73 69 255
0.41834092 0.11871596 1.5300001 66 72 65 255
0.42248893 0.11870635 1.5300001 67 73 66 255
0.42635754 0.1186192 1.529 70 76 69 255
0.43050185 0.11860966 1.529 72 78 71 255
0.43492988 0.11867777 1.5300001 68 74 67 255
0.43964982 0.11882345 1.5320001 71 77 70 255
0.4440904 0.1188916 1.5330001 70 76 69 255
0.44824362 0.11888228 1.5330001 67 72 68 255
0.45151106 0.11864036 1.5300001 69 75 68 255
0.4553574 0.11855361 1.529 71 76 72 255
0.45949861 0.1185445 1.529 69 74 70 255
0.46394259 0.11861297 1.5300001 67 72 68 255
0.46747386 0.11844895 1.5280001 72 78 71 255
0.47161135 0.11844005 1.5280001 69 73 66 255
0.47605971 0.11850873 1.529 65 71 64 255
0.47988528 0.11842252 1.5280001 54 60 53 255
0.48338827 0.11825887 1.526 62 70 63 255
0.4868803 0.11809538 1.524 83 90 87 255
0.4903613 0.11793198 1.5220001 82 89 88 255
0.49285659 0.11753628 1.5170001 76 83 82 255
0.49466956 0.11698579 1.5100001 84 91 88 255
0.49776572 0.11674536 1.5070001 79 86 83 255
0.50151151 0.11665999 1.506 81 88 84 255
0.50625902 0.11680713 1.508 77 85 78 255
0.51169413 0.11710926 1.5120001 75 83 76 255
0.517151 0.11741149 1.516 74 82 75 255
0.52366108 0.11794613 1.5230001 74 80 73 255
0.52916932 0.11824852 1.5270001 73 79 72 255
0.53365171 0.11831872 1.5280001 71 77 70 255
0.53637981 0.11800189 1.524 63 69 61 255
0.53944111 0.11776268 1.521 60 66 59 255
0.54212898 0.11744623 1.5170001 59 65 58 255
0.54587567 0.1173622 1.516 62 68 61 255
0.55179387 0.11774281 1.521 75 79 72 255
0.55737406 0.11804613 1.5250001 58 62 54 255
0.56223977 0.11819479 1.5270001 30 34 26 255
0.56526214 0.11795658 1.524 32 37 25 255
0.56901604 0.11787339 1.5230001 40 45 33 255
0.57276487 0.11779036 1.5220001 55 62 51 255
0.57537174 0.11747538 1.5180001 52 60 52 255
0.57757562 0.1170832 1.5130001 79 87 80 255
0.58167535 0.11707817 1.5130001 77 85 78 255
0.58655 0.11722808 1.5150001 75 83 76 255
0.59143615 0.11737819 1.5170001 74 82 75 255
0.59515607 0.11729636 1.516 71 79 72 255
0.59847599 0.11713739 1.5140001 70 78 71 255
0.60297996 0.11721073 1.5150001 71 79 72 255
0.60668868 0.11712955 1.5140001 73 81 74 255
0.61079633 0.11712597 1.5140001 69 77 70 255
0.61409265 0.11696789 1.5120001 73 79 71 255
0.61778784 0.11688739 1.511 74 78 70 255
0.62189025 0.11688451 1.511 78 83 72 255
0.62557948 0.11680449 1.5100001 15 18 6 255
0.62759632 0.11641533 1.5050001 22 25 13 255
0.63000691 0.11610376 1.501 22 25 13 255
0.63366431 0.11602452 1.5000001 21 24 10 255
0.64676458 0.11617505 1.5020001 20 23 9 255
0.65128577 0.11625153 1.503 19 22 10 255
0.65450585 0.11609626 1.501 20 23 11 255
0.66224241 0.11601859 1.5000001 19 22 10 255
0.66633111 0.11601885 1.5000001 20 23 11 255
0.71143311 0.11604213 1.5000001 19 26 14 255
-0.87181687 0.12060003 1.613 16 16 6 255
-0.91570497 0.12731424 1.7030001 16 16 6 255
-0.93128002 0.13014041 1.7410001 18 18 8 255
-0.88917875 0.12489434 1.6710001 19 19 9 255
-0.88505507 0.12495602 1.6720001 18 18 8 255
-0.89672697 0.12725998 1.7030001 17 17 7 255
-0.89083195 0.12841985 1.7190001 18 18 8 255
-0.89122188 0.12915592 1.7290001 16 16 6 255
-0.86592597 0.12615764 1.6890001 17 17 7 255
-0.88674814 0.12988222 1.7390001 19 19 9 255
-0.86773968 0.12778147 1.7110001 16 18 8 255
-0.85998642 0.12732436 1.705 15 17 7 255
-0.85327321 0.12701713 1.7010001 19 19 9 255
-0.85257202 0.12760638 1.7090001 17 19 9 255
-0.86423314 0.13006257 1.7420001 18 20 10 255
-0.85598141 0.12953255 1.7350001 16 19 7 255
-0.84679031 0.12885371 1.7260001 19 22 10 255
-0.83813995 0.12825 1.7180001 19 22 10 255
-0.83778363 0.1289158 1.7270001 17 20 8 255
-0.76530969 0.12187243 1.6330001 219 220 214 255
-0.74965787 0.12007818 1.6090001 207 213 205 255
-0.73830831 0.118956 1.5940001 163 172 161 255
-0.72842443 0.11805809 1.582 134 143 131 255
-0.71815068 0.11708592 1.5690001 203 212 193 255
-0.7097699 0.11641257 1.5600001 119 126 105 255
-0.70324928 0.11603805 1.5550001 115 121 95 255
-0.69900554 0.11603698 1.5550001 103 110 79 255
-0.69521052 0.1161108 1.5560001 139 144 113 255
-0.69052374 0.11603571 1.5550001 130 137 108 255
-0.68584412 0.11596087 1.554 117 125 100 255
-0.68029451 0.11573712 1.5510001 174 181 159 255
-0.67607051 0.11573748 1.5510001 133 140 119 255
-0.67184812 0.11573812 1.5510001 122 128 110 255
-0.6680575 0.11581366 1.552 119 124 103 255
-0.66383541 0.11581485 1.552 125 129 111 255
-0.65961456 0.11581628 1.552 134 140 122 255
-0.65455061 0.11566874 1.5500001 167 175 160 255
-0.64907926 0.11544683 1.5470001 169 177 162 255
-0.64445913 0.11537441 1.5460001 164 171 159 255
-0.63984555 0.11530221 1.5450001 162 169 157 255
-0.63482726 0.11515564 1.5430001 137 145 128 255
-0.63104695 0.11523318 1.544 142 150 133 255
-0.62563825 0.11501241 1.5410001 144 152 137 255
-0.62145674 0.11501578 1.5410001 149 156 144 255
-0.61647493 0.11487006 1.539 157 166 155 255
-0.61309642 0.11502317 1.5410001 158 165 154 255
-0.60812718 0.11487787 1.539 162 170 162 255
-0.60277718 0.11465814 1.536 163 171 163 255
-0.59822375 0.11458789 1.5350001 153 161 153 255
-0.59406334 0.11459249 1.5350001 151 159 151 255
-0.58951932 0.11452262 1.534 163 172 161 255
-0.58536291 0.11452761 1.534 151 160 148 255
-0.5800705 0.11430877 1.531 154 163 151 255
-0.57517105 0.11416478 1.529 149 158 146 255
-0.57028288 0.11402095 1.5270001 151 161 146 255
-0.56651831 0.11410129 1.5280001 149 159 144 255
