ply
format ascii 1.0
comment PCL generated
element vertex 999
property float x
property float y
property float z
property uchar red
property uchar green
property uchar blue
property uchar alpha
element camera 0
property float view_px
property float view_py
property float view_pz
property float x_axisx
property float x_axisy
property float x_axisz
property float y_axisx
property float y_axisy
property float y_axisz
property float z_axisx
property float z_axisy
property float z_axisz
property float focal
property float scalex
property float scaley
property float centerx
property float centery
property int viewportx
property int viewporty
property float k1
property float k2
end_header
0.72632575 0.25058684 1.5220001 184 191 188 255
0.72620046 0.24912031 1.5130001 184 191 188 255
0.72844213 0.24847771 1.5090001 185 192 189 255
0.72920817 0.24734181 1.5020001 187 194 191 255
0.72783232 0.28430846 1.7570001 167 175 168 255
0.72844934 0.28269008 1.7470001 165 173 166 255
0.72985297 0.28139591 1.7390001 165 173 166 255
0.72868001 0.27913144 1.725 164 172 165 255
0.72658217 0.27654403 1.7090001 166 174 167 255
0.72611028 0.27460447 1.697 164 172 165 255
0.7264359 0.27298915 1.687 163 171 164 255
0.72714221 0.27153629 1.6780001 166 174 167 255
0.7273652 0.2699222 1.6680001 163 170 166 255
0.72841299 0.26863241 1.6600001 163 170 166 255
0.72897756 0.2671814 1.651 162 169 165 255
0.72816217 0.26524553 1.6390001 162 169 165 255
0.72638929 0.26298657 1.6250001 163 170 166 255
0.7245419 0.26072818 1.6110001 163 170 166 255
0.72397751 0.25895593 1.6 165 173 166 255
0.72381032 0.25734612 1.59 170 178 171 255
0.72404861 0.25589874 1.5810001 173 181 174 255
0.72377914 0.25429013 1.5710001 172 179 175 255
0.72484767 0.25316778 1.5640001 174 181 177 255
0.72588009 0.25204602 1.557 178 185 181 255
0.72640783 0.25076303 1.549 178 185 182 255
0.72595072 0.24915688 1.539 180 187 184 255
0.72591561 0.24771319 1.5300001 181 188 185 255
0.72631097 0.24643207 1.5220001 183 190 187 255
0.72714502 0.24531348 1.5150001 185 192 189 255
0.72842592 0.24435745 1.5090001 184 191 188 255
0.72919124 0.24324018 1.5020001 185 192 189 255
0.72644126 0.2827059 1.7770001 161 169 162 255
0.72675204 0.28095418 1.766 162 170 163 255
0.72700453 0.27920309 1.7550001 165 173 166 255
0.72594762 0.27697533 1.7410001 162 170 163 255
0.72901297 0.27633908 1.7370001 163 171 164 255
0.72825646 0.27427167 1.7240001 163 171 164 255
0.7278558 0.2723639 1.7120001 163 171 164 255
0.72568005 0.26982042 1.6960001 161 169 162 255
0.72643286 0.26839113 1.687 160 168 161 255
0.72713852 0.26696253 1.6780001 163 171 164 255
0.72779685 0.26553446 1.669 162 170 163 255
0.72796923 0.26394799 1.659 162 170 163 255
0.72720587 0.26204389 1.6470001 161 169 162 255
0.72726738 0.26045859 1.6370001 159 167 160 255
0.72504139 0.25807834 1.6220001 161 168 164 255
0.7236349 0.25601688 1.6090001 159 167 160 255
0.72215939 0.25395599 1.5960001 164 172 165 255
0.72198057 0.25237304 1.5860001 165 173 166 255
0.72266519 0.25110897 1.5780001 169 177 170 255
0.72376901 0.25000465 1.5710001 170 178 171 255
0.72483689 0.24890098 1.5640001 172 179 175 255
0.72540241 0.24763872 1.5560001 175 182 178 255
0.7259267 0.24637714 1.5480001 178 185 182 255
0.72640955 0.24511614 1.5400001 181 188 185 255
0.72637647 0.24369657 1.531 181 188 185 255
0.72772831 0.24275519 1.5250001 181 188 185 255
0.72760999 0.24133688 1.516 184 191 188 255
0.7284103 0.24023755 1.5090001 184 191 188 255
0.72820395 0.23882045 1.5000001 184 191 188 255
0.72521687 0.27739555 1.774 161 169 162 255
0.72469592 0.27536088 1.761 159 167 160 255
0.72493422 0.27363956 1.7500001 161 169 162 255
0.72469693 0.27176243 1.738 163 171 164 255
0.72649455 0.27066779 1.7310001 162 170 163 255
0.725721 0.26863551 1.7180001 161 169 162 255
0.72445315 0.26644751 1.7040001 165 173 165 255
0.72268277 0.26410371 1.6890001 169 177 169 255
0.72298527 0.26254234 1.6790001 170 178 171 255
0.72496849 0.26160705 1.6730001 179 187 180 255
0.72517651 0.2600469 1.6630001 178 186 179 255
0.72533184 0.25848731 1.6530001 178 186 179 255
0.72499293 0.25677195 1.6420001 175 183 176 255
0.72548455 0.25536999 1.6330001 160 168 161 255
0.72369391 0.25318667 1.6190001 153 161 154 255
0.72227848 0.25116029 1.6060001 152 160 153 255
0.72124666 0.2492909 1.5940001 155 163 156 255
0.72106183 0.24773487 1.5840001 156 164 157 255
0.72311413 0.24696141 1.5790001 168 176 169 255
0.72514141 0.24618863 1.5740001 170 178 171 255
0.72760707 0.24557287 1.5700001 172 179 175 255
0.72725612 0.24401927 1.5600001 173 180 176 255
0.72685283 0.24246624 1.5500001 177 184 181 255
0.7263971 0.24091379 1.5400001 176 183 182 255
0.72731233 0.23983125 1.5330001 178 185 184 255
0.72866893 0.23890579 1.5270001 181 188 187 255
0.72903526 0.23766802 1.5190001 183 190 187 255
0.72887784 0.23627444 1.5100001 182 189 186 255
0.729159 0.23503789 1.5020001 181 188 184 255
-0.40554327 0.24077551 1.5630001 180 187 175 255
-0.39950398 0.23971395 1.5560001 179 186 174 255
-0.39528039 0.23973076 1.5560001 158 165 153 255
-0.39055359 0.23943947 1.554 136 144 129 255
-0.38633439 0.23945633 1.554 135 143 128 255
-0.38137695 0.23901094 1.5510001 136 142 124 255
-0.37740797 0.23918197 1.552 128 134 116 255
-0.37319246 0.23919886 1.552 123 129 111 255
-0.36921418 0.23936996 1.5530001 141 150 131 255
-0.36546487 0.23969521 1.5550001 163 172 153 255
-0.36170408 0.2400205 1.557 143 151 136 255
-0.35793182 0.24034582 1.559 147 156 144 255
0.72081065 0.27456582 1.7870001 158 166 158 255
0.71998632 0.27241158 1.7730001 159 167 159 255
0.71908712 0.27025792 1.7590001 159 167 159 255
0.71687871 0.2676439 1.7420001 161 169 161 255
0.71706456 0.26595238 1.7310001 170 178 170 255
0.71594107 0.2638005 1.7170001 173 181 173 255
0.7172612 0.26257107 1.7090001 185 194 183 255
0.71642709 0.26057395 1.6960001 145 152 141 255
0.71807462 0.25949934 1.6890001 90 97 86 255
0.7171185 0.25750345 1.6760001 6 15 3 255
0.71652377 0.25566176 1.664 10 19 7 255
0.71716541 0.25428158 1.6550001 8 17 5 255
0.7173236 0.25274837 1.6450001 10 19 7 255
0.71742916 0.25121576 1.6350001 12 19 7 255
0.71924818 0.25029832 1.6290001 13 20 9 255
0.72148043 0.24953508 1.6240001 41 50 39 255
0.71921766 0.24723592 1.6090001 105 114 103 255
0.71867388 0.245552 1.598 158 166 158 255
0.71897686 0.24417594 1.5890001 144 152 144 255
0.72105366 0.24341513 1.5840001 149 157 149 255
0.72310543 0.24265496 1.5790001 165 173 166 255
0.72467124 0.24174175 1.5730001 166 174 167 255
0.72713357 0.24113654 1.5690001 164 171 167 255
0.72677916 0.23960976 1.559 168 175 171 255
0.72731036 0.23839103 1.5510001 172 179 175 255
0.72827178 0.23732655 1.544 174 182 179 255
0.72872281 0.23610899 1.536 176 183 180 255
0.7305643 0.23535323 1.531 177 184 181 255
0.72950131 0.23367572 1.5200001 179 186 183 255
0.72934574 0.2323062 1.511 180 187 184 255
0.72865814 0.23078351 1.501 182 189 186 255
-0.48124963 0.24019073 1.5890001 175 182 170 255
-0.47694317 0.24020593 1.5890001 168 176 161 255
-0.47233894 0.2400701 1.5880001 158 168 153 255
-0.46803463 0.2400856 1.5880001 146 156 141 255
-0.46285406 0.23964767 1.585 146 155 143 255
-0.45768937 0.2392098 1.582 149 158 147 255
-0.4528273 0.23892327 1.58 148 157 146 255
-0.44939521 0.23939291 1.5830001 151 158 147 255
-0.44482166 0.2392578 1.582 156 165 153 255
-0.44025329 0.23912278 1.5810001 155 164 152 255
-0.43458688 0.23838285 1.5760001 161 171 156 255
-0.42867413 0.23749159 1.5700001 160 170 155 255
-0.4230639 0.23675163 1.5650001 148 158 143 255
-0.41748029 0.23601159 1.5600001 143 153 136 255
-0.41139361 0.23496896 1.5530001 146 155 136 255
-0.40586874 0.23422886 1.5480001 160 169 150 255
-0.40062994 0.23364002 1.544 147 156 135 255
-0.39643955 0.23365651 1.544 140 149 128 255
-0.39250261 0.23382437 1.5450001 142 149 128 255
-0.3878057 0.23353823 1.5430001 141 148 127 255
-0.38361642 0.23355483 1.5430001 142 149 127 255
-0.37918061 0.23342007 1.5420001 143 151 126 255
-0.37547928 0.23373947 1.544 150 158 133 255
-0.37080464 0.23345333 1.5420001 153 161 135 255
-0.36661577 0.23347002 1.5420001 153 161 135 255
-0.36219126 0.23333527 1.5410001 144 153 132 255
-0.35823622 0.23350336 1.5420001 153 162 141 255
-0.35381591 0.23336858 1.5410001 138 147 128 255
-0.34985423 0.23353666 1.5420001 147 156 137 255
-0.34566227 0.23355328 1.5420001 181 190 171 255
-0.34169117 0.23372136 1.5430001 150 159 140 255
-0.33793268 0.2340409 1.5450001 134 143 124 255
-0.33459467 0.23466341 1.549 148 154 136 255
-0.33123425 0.23528601 1.5530001 145 151 133 255
-0.32721964 0.23545405 1.554 147 153 135 255
0.70910788 0.26895154 1.7820001 158 166 158 255
0.7075417 0.2665323 1.766 156 164 156 255
0.70871323 0.2651701 1.7570001 166 175 164 255
0.70537031 0.26214841 1.7370001 173 182 171 255
0.70191979 0.25912723 1.7170001 162 171 160 255
0.69877332 0.25625759 1.6980001 77 86 75 255
0.69883889 0.25459588 1.687 18 27 16 255
0.69926286 0.25308564 1.677 10 17 6 255
0.69753557 0.25082141 1.6620001 20 27 15 255
0.69826251 0.2494632 1.6530001 23 30 18 255
0.70149291 0.24901107 1.6500001 29 36 24 255
0.7008577 0.24720125 1.6380001 25 33 18 255
0.6988669 0.24493922 1.623 26 34 19 255
0.70112932 0.24418694 1.618 26 34 19 255
0.70467442 0.24388801 1.6160001 25 33 18 255
0.7068941 0.24313691 1.6110001 28 33 19 255
0.70864689 0.24223545 1.605 30 35 21 255
0.71303433 0.24224019 1.605 32 40 25 255
0.714742 0.24133995 1.5990001 20 27 15 255
0.71596909 0.24028936 1.5920001 31 38 26 255
0.71851736 0.23969218 1.5880001 114 123 111 255
0.72104603 0.23909563 1.5840001 129 138 127 255
0.72401297 0.23865065 1.5810001 156 164 157 255
0.72558361 0.23775342 1.575 157 165 158 255
0.72805071 0.23715873 1.5710001 162 169 165 255
0.72723508 0.23550795 1.5600001 164 171 167 255
0.72729945 0.23415966 1.5510001 167 176 171 255
0.72637349 0.23250996 1.5400001 172 181 176 255
0.72871059 0.23191772 1.536 173 181 178 255
0.72959697 0.23087317 1.529 175 182 179 255
0.73092741 0.22998023 1.5230001 177 184 181 255
0.72884887 0.2280308 1.5100001 179 186 183 255
0.72961414 0.22698797 1.503 179 186 183 255
-0.69868851 0.24362566 1.6440001 155 159 141 255
-0.69251871 0.24303253 1.6400001 158 163 142 255
-0.68679196 0.24258813 1.6370001 158 163 142 255
-0.6814999 0.24229251 1.6350001 140 147 126 255
-0.67663413 0.24214552 1.6340001 134 141 120 255
-0.67054123 0.24155454 1.6300001 121 125 107 255
-0.66528869 0.24126042 1.628 130 135 114 255
-0.66045427 0.241115 1.6270001 145 150 129 255
-0.65562642 0.24097005 1.626 142 149 128 255
-0.65080529 0.24082558 1.6250001 141 148 127 255
-0.64678627 0.24097799 1.626 135 142 121 255
-0.64355296 0.24142726 1.6290001 134 141 120 255
-0.63951969 0.24158061 1.6300001 132 138 120 255
-0.63665092 0.24217902 1.6340001 126 132 114 255
-0.63337433 0.24262969 1.6370001 134 143 124 255
-0.63046658 0.243229 1.641 135 144 125 255
-0.62563056 0.24308769 1.6400001 136 145 126 255
-0.62117958 0.24309503 1.6400001 136 145 126 255
-0.61672932 0.24310271 1.6400001 132 141 122 255
-0.61265302 0.24325903 1.641 133 139 121 255
-0.60783082 0.24311928 1.6400001 133 139 121 255
-0.56826389 0.23962981 1.6160001 163 171 156 255
-0.56318599 0.2393443 1.6140001 164 172 157 255
-0.55546814 0.23981225 1.6170001 161 169 154 255
-0.53930438 0.23851405 1.608 160 168 151 255
-0.5336166 0.23793343 1.6040001 166 174 157 255
-0.52993035 0.23824304 1.6060001 164 172 157 255
-0.52459711 0.23781118 1.603 160 168 153 255
-0.51928014 0.23737948 1.6 165 173 158 255
-0.51365757 0.23679963 1.5960001 163 171 156 255
-0.50805664 0.23621993 1.5920001 157 167 152 255
-0.50152808 0.23519517 1.585 161 171 154 255
-0.49535114 0.23431893 1.5790001 157 165 148 255
-0.48982856 0.23373957 1.575 151 161 144 255
-0.48494411 0.23345716 1.5730001 145 153 136 255
-0.48007035 0.23317489 1.5710001 145 154 135 255
-0.47581297 0.23318961 1.5710001 141 150 131 255
-0.47095513 0.23290762 1.5690001 150 160 134 255
-0.46700019 0.23307112 1.5700001 157 166 145 255
-0.4627448 0.2330863 1.5700001 165 176 157 255
-0.45819721 0.23295321 1.5690001 156 166 151 255
-0.45307603 0.23252323 1.5660001 159 168 156 255
-0.44797078 0.2320933 1.5630001 159 168 156 255
-0.44373325 0.23210898 1.5630001 156 165 153 255
-0.43921405 0.23197623 1.562 153 163 148 255
-0.43497846 0.2319921 1.562 151 161 146 255
-0.42991519 0.23156248 1.559 142 152 135 255
-0.42486769 0.23113289 1.5560001 136 147 128 255
-0.41929546 0.23040622 1.5510001 147 158 139 255
-0.41428509 0.22997667 1.5480001 160 171 152 255
-0.40902567 0.22939853 1.544 152 162 139 255
-0.40431187 0.22911756 1.5420001 145 153 128 255
-0.39986789 0.22898519 1.5410001 138 146 120 255
-0.39568564 0.22900148 1.5410001 138 146 120 255
-0.39175689 0.2291664 1.5420001 138 146 121 255
-0.38706815 0.22888552 1.5400001 136 144 119 255
-0.38288707 0.22890192 1.5400001 138 146 121 255
-0.37821352 0.22862104 1.5380001 143 151 125 255
-0.3745231 0.22893476 1.5400001 141 149 124 255
-0.37009978 0.22880256 1.539 144 152 126 255
-0.36591902 0.22881898 1.539 149 157 131 255
-0.36150271 0.22868676 1.5380001 154 162 137 255
-0.3573235 0.22870323 1.5380001 158 168 145 255
-0.35268441 0.22842222 1.536 163 173 150 255
-0.3485094 0.22843863 1.536 174 184 161 255
-0.34433374 0.22845498 1.536 173 180 158 255
-0.34015745 0.22847134 1.536 120 128 103 255
-0.33576176 0.2283389 1.5350001 138 146 121 255
-0.33180287 0.22850393 1.536 149 157 132 255
-0.32783791 0.22866894 1.5370001 137 145 120 255
-0.32365632 0.22868516 1.5370001 142 149 128 255
-0.31968185 0.22885011 1.5380001 142 148 130 255
-0.31611151 0.2293126 1.5410001 139 148 129 255
-0.31313142 0.23022157 1.5470001 147 155 138 255
0.70355362 0.26752296 1.8050001 156 164 157 255
0.68925208 0.25847065 1.7440001 165 174 163 255
0.68324721 0.25446418 1.7170001 178 187 176 255
0.68551016 0.25357056 1.7110001 147 156 144 255
0.68370813 0.25119552 1.6950001 4 12 0 255
0.68019599 0.24822824 1.6750001 16 23 11 255
0.67780268 0.24570611 1.6580001 20 28 13 255
0.67367208 0.24259177 1.6370001 25 33 18 255
0.6739853 0.24110812 1.6270001 26 31 19 255
0.67382848 0.2394768 1.6160001 22 27 13 255
0.6765511 0.23888336 1.6120001 22 25 11 255
0.68094301 0.2388832 1.6120001 25 28 14 255
0.68618673 0.23917998 1.6140001 25 30 16 255
0.68930382 0.23873636 1.6110001 28 32 15 255
0.68853056 0.23695955 1.5990001 28 32 15 255
0.69246024 0.2368134 1.598 27 31 14 255
0.69769442 0.2371124 1.6 27 31 14 255
0.69635952 0.23518908 1.5870001 26 30 13 255
0.69937068 0.23474826 1.5840001 28 32 15 255
0.70236737 0.23430802 1.5810001 31 35 18 255
0.70847863 0.23490582 1.585 32 36 19 255
0.71236515 0.23476322 1.5840001 28 34 17 255
0.71579576 0.23447299 1.582 17 25 10 255
0.71967304 0.23433167 1.5810001 27 36 24 255
0.72217309 0.23374626 1.577 121 131 122 255
0.72557497 0.23345797 1.575 154 163 156 255
0.72665113 0.23242915 1.5680001 159 168 161 255
0.72769135 0.23140091 1.5610001 160 169 164 255
0.72728884 0.22992854 1.5510001 165 174 169 255
0.72872066 0.22904971 1.5450001 169 178 173 255
0.72917318 0.22787496 1.5370001 171 180 175 255
0.73006171 0.22684912 1.5300001 174 183 178 255
0.73043436 0.22567557 1.5220001 175 182 178 255
0.7298004 0.22420599 1.5120001 177 184 181 255
0.73008513 0.22303358 1.5040001 179 186 183 255
-0.71517038 0.24016804 1.651 147 152 140 255
-0.70334852 0.23769324 1.6340001 168 172 154 255
-0.69675386 0.23696463 1.6290001 157 163 137 255
-0.69188797 0.23681843 1.628 134 139 108 255
-0.68660694 0.23652734 1.626 119 124 93 255
-0.68217754 0.2365277 1.626 119 124 93 255
-0.67649907 0.23609219 1.623 120 127 96 255
-0.67208064 0.2360936 1.623 134 141 112 255
-0.66725236 0.23595005 1.6220001 159 165 139 255
-0.66283935 0.23595244 1.6220001 137 143 117 255
-0.65761578 0.23566438 1.6200001 117 120 96 255
-0.65321076 0.23566775 1.6200001 115 121 96 255
-0.64840633 0.23552611 1.6190001 108 113 91 255
-0.64360851 0.2353849 1.618 109 116 94 255
-0.63960731 0.23553512 1.6190001 127 134 113 255
-0.63520932 0.2355403 1.6190001 156 163 141 255
-0.63081223 0.23554589 1.6190001 161 168 146 255
-0.62680304 0.23569742 1.6200001 164 173 152 255
-0.62240511 0.23570384 1.6200001 158 167 146 255
-0.61724502 0.23541971 1.618 146 158 135 255
-0.61133897 0.23484494 1.6140001 167 178 157 255
-0.60733569 0.23499805 1.6150001 165 172 150 255
-0.60295433 0.23500606 1.6150001 168 175 153 255
-0.59746176 0.23457788 1.6120001 174 181 159 255
-0.591618 0.23400445 1.608 169 176 155 255
-0.5854314 0.23328586 1.603 171 178 156 255
-0.5796349 0.23271306 1.5990001 166 173 151 255
-0.57386053 0.23214056 1.595 169 176 155 255
-0.56846541 0.23171388 1.5920001 168 177 158 255
-0.56379569 0.23157859 1.5910001 168 177 158 255
-0.55913168 0.2314436 1.59 164 173 154 255
-0.55482244 0.23145445 1.59 163 172 153 255
-0.55120599 0.23175678 1.5920001 159 168 149 255
-0.54757887 0.23205939 1.5940001 160 169 150 255
-0.54257792 0.23177995 1.5920001 162 171 150 255
-0.53623551 0.23091836 1.5860001 163 172 153 255
-0.53059667 0.23034817 1.582 160 171 150 255
-0.52564484 0.23006934 1.58 165 174 153 255
-0.52103406 0.22993642 1.5790001 166 175 154 255
-0.51577419 0.22951242 1.5760001 166 175 156 255
-0.51085508 0.22923423 1.5740001 162 168 150 255
-0.50626868 0.22910188 1.5730001 156 163 142 255
-0.50136852 0.22882408 1.5710001 144 151 130 255
-0.49647918 0.22854644 1.5690001 151 160 139 255
-0.49191433 0.22841462 1.5680001 138 147 126 255
-0.4873547 0.22828299 1.567 140 151 130 255
-0.48249212 0.22800586 1.5650001 164 175 154 255
-0.47794583 0.22787453 1.5640001 171 180 159 255
-0.47370756 0.22788908 1.5640001 169 179 156 255
-0.46946919 0.22790378 1.5640001 158 168 143 255
-0.46523049 0.22791864 1.5640001 153 163 138 255
-0.4609915 0.22793363 1.5640001 149 159 136 255
-0.45646027 0.22780302 1.5630001 153 162 141 255
-0.45135549 0.22738104 1.5600001 152 161 142 255
-0.44626656 0.22695906 1.557 149 158 139 255
-0.44204542 0.22697455 1.557 149 158 139 255
-0.43726146 0.22669852 1.5550001 157 168 149 255
-0.43276644 0.22656836 1.554 140 151 132 255
-0.42744914 0.22600088 1.5500001 137 146 125 255
-0.42242613 0.22557922 1.5470001 168 178 155 255
-0.41714871 0.22501177 1.5430001 154 164 139 255
-0.41242766 0.22473593 1.5410001 127 135 109 255
-0.40771717 0.22446018 1.539 137 144 115 255
-0.40406579 0.22476786 1.5410001 133 140 111 255
-0.39962456 0.22463804 1.5400001 137 144 115 255
-0.39544508 0.22465414 1.5400001 141 148 119 255
-0.39101097 0.22452439 1.539 134 140 114 255
-0.3868331 0.22454053 1.539 135 143 118 255
-0.38240612 0.22441083 1.5380001 148 156 131 255
-0.37822986 0.22442704 1.5380001 163 170 148 255
-0.37429625 0.22458923 1.539 164 174 151 255
-0.36987567 0.22445954 1.5380001 160 169 148 255
-0.36545989 0.22432984 1.5370001 160 170 145 255
-0.36104894 0.2242001 1.536 166 176 153 255
-0.35664281 0.22407037 1.5350001 170 180 155 255
-0.35224146 0.2239406 1.534 165 173 147 255
-0.34807187 0.22395678 1.534 135 143 117 255
-0.34390166 0.22397295 1.534 135 143 117 255
-0.33973077 0.2239891 1.534 128 135 106 255
-0.33555919 0.22400519 1.534 130 137 108 255
-0.33117101 0.22387524 1.5330001 132 139 110 255
-0.32700086 0.22389124 1.5330001 138 145 116 255
-0.32282999 0.22390719 1.5330001 140 148 122 255
-0.3186585 0.22392309 1.5330001 145 153 128 255
-0.31448635 0.22393897 1.5330001 152 159 137 255
-0.31031349 0.22395474 1.5330001 148 155 134 255
-0.30693874 0.22455484 1.5370001 140 146 128 255
-0.30295059 0.22471665 1.5380001 140 149 130 255
-0.29992753 0.22560893 1.544 136 145 126 255
-0.29648805 0.22620901 1.5480001 152 160 145 255
0.38687092 0.23731866 1.626 87 95 87 255
0.39200988 0.23773931 1.6290001 67 75 67 255
0.39594769 0.23743024 1.6270001 72 80 72 255
0.39938188 0.23682939 1.623 65 73 65 255
0.40304253 0.23637454 1.6200001 66 75 64 255
0.40693778 0.23606569 1.618 68 77 66 255
0.41056737 0.23561104 1.6150001 71 78 67 255
0.41469401 0.23544824 1.6140001 76 83 72 255
0.41933405 0.23557727 1.6150001 80 87 76 255
0.42371646 0.23556046 1.6150001 87 92 81 255
0.42677304 0.23481445 1.6100001 88 93 82 255
0.43060535 0.23450613 1.608 90 92 82 255
0.43469685 0.23434375 1.6070001 85 87 77 255
0.43905568 0.2343273 1.6070001 89 94 83 255
0.44286209 0.23401932 1.605 59 64 53 255
0.44665736 0.2337115 1.603 60 67 56 255
0.45072272 0.23354959 1.6020001 145 154 143 255
0.45364594 0.2328047 1.5970001 143 151 143 255
0.4551079 0.23133121 1.5870001 142 150 143 255
0.66031975 0.24996208 1.7180001 155 163 156 255
0.66382259 0.24951878 1.715 160 168 161 255
0.66614074 0.24863951 1.7090001 167 175 167 255
0.65803528 0.242227 1.6650001 0 7 0 255
0.6577841 0.2404764 1.6530001 12 20 5 255
0.65987271 0.23959918 1.6470001 22 30 15 255
0.66192991 0.2387225 1.641 19 27 12 255
0.66070688 0.2366825 1.6270001 20 25 11 255
0.66022652 0.23493399 1.6150001 20 25 11 255
0.66050518 0.23347692 1.605 23 28 14 255
0.66321635 0.23289323 1.6010001 21 26 12 255
0.66715789 0.23274641 1.6 25 28 14 255
0.67151517 0.23274556 1.6 25 29 12 255
0.67671877 0.23303616 1.6020001 24 28 11 255
0.68023413 0.23274541 1.6 25 29 12 255
0.6850239 0.23289162 1.6010001 27 31 14 255
0.68852884 0.23260196 1.5990001 25 29 12 255
0.6941914 0.23304023 1.6020001 25 29 12 255
0.69725555 0.2326062 1.5990001 26 30 13 255
0.69635612 0.2308635 1.5870001 26 30 13 255
0.69760066 0.22984871 1.58 28 32 15 255
0.69880879 0.22883447 1.5730001 31 35 17 255
0.70445055 0.22927558 1.5760001 30 34 16 255
0.70876157 0.22928087 1.5760001 30 34 16 255
0.71352714 0.22943224 1.577 23 31 16 255
0.71739006 0.2292933 1.5760001 18 28 13 255
0.72033381 0.22886397 1.5730001 35 43 35 255
0.72418469 0.22872624 1.572 160 169 162 255
0.7257154 0.22786161 1.5660001 154 163 158 255
0.72721565 0.22699761 1.5600001 160 169 164 255
0.7268098 0.22555213 1.5500001 165 174 169 255
0.72729492 0.22439824 1.5420001 168 177 172 255
0.72821301 0.22339046 1.5350001 172 181 176 255
0.72861814 0.22223771 1.5270001 175 182 178 255
0.72994167 0.22137661 1.521 173 180 177 255
0.73026973 0.22022504 1.5130001 177 184 181 255
0.73104197 0.21921958 1.506 179 186 183 255
-0.72286522 0.23524538 1.6480001 147 152 140 255
-0.71051985 0.23267321 1.6300001 170 176 159 255
-0.70347267 0.23181458 1.6240001 174 180 162 255
-0.69775128 0.23138472 1.6210001 127 134 105 255
-0.6937589 0.23152642 1.6220001 131 136 105 255
-0.68891275 0.23138313 1.6210001 130 138 95 255
-0.68407357 0.23124041 1.6200001 127 133 97 255
-0.67840236 0.23081273 1.6170001 127 133 98 255
-0.67316574 0.2305283 1.6150001 160 165 134 255
-0.66918373 0.23067257 1.6160001 141 146 115 255
-0.66478628 0.23067461 1.6160001 115 122 93 255
-0.66039002 0.23067711 1.6160001 112 118 92 255
-0.65518332 0.23039463 1.6140001 126 129 107 255
-0.64998859 0.23011257 1.6120001 179 184 162 255
-0.64480591 0.229831 1.6100001 179 184 163 255
-0.63963521 0.22954981 1.608 171 177 159 255
-0.63526654 0.22955462 1.608 167 173 155 255
-0.63089877 0.22955982 1.608 163 170 149 255
-0.62536323 0.22913715 1.605 159 168 147 255
-0.61984485 0.22871491 1.6020001 167 176 155 255
-0.61472768 0.22843575 1.6 165 177 154 255
-0.60924077 0.22801423 1.5970001 162 174 151 255
-0.60377085 0.22759311 1.5940001 158 168 145 255
-0.59831798 0.22717224 1.5910001 158 168 145 255
-0.59474874 0.22746572 1.5930001 160 170 147 255
-0.58931613 0.2270456 1.59 170 177 155 255
-0.58500421 0.22705419 1.59 169 176 155 255
-0.57959718 0.22663471 1.5870001 172 179 157 255
-0.57493186 0.22650114 1.5860001 168 176 151 255
-0.56955284 0.22608225 1.5830001 168 175 153 255
-0.56490469 0.2259493 1.582 163 172 151 255
-0.56026238 0.22581662 1.5810001 159 168 147 255
-0.55527419 0.22554141 1.5790001 164 173 152 255
-0.55064607 0.22540931 1.5780001 160 169 150 255
-0.54636985 0.22542031 1.5780001 163 172 151 255
-0.54243749 0.22557446 1.5790001 164 173 152 255
-0.53747737 0.2253003 1.577 168 178 155 255
-0.53185207 0.22474061 1.5730001 166 175 154 255
-0.52725482 0.22460976 1.572 160 172 149 255
-0.52199769 0.22419336 1.5690001 151 163 140 255
-0.51774687 0.22420585 1.5690001 148 157 136 255
-0.51251435 0.22378987 1.5660001 149 158 137 255
-0.50794715 0.22365986 1.5650001 147 156 135 255
-0.50274158 0.22324422 1.562 145 152 131 255
-0.49819058 0.22311457 1.5610001 151 158 136 255
-0.49364492 0.2229851 1.5600001 155 162 140 255
-0.48973215 0.22314176 1.5610001 166 176 153 255
-0.48550266 0.22315562 1.5610001 170 180 157 255
-0.48096478 0.22302666 1.5600001 165 175 152 255
-0.47612661 0.22275496 1.5580001 150 160 137 255
-0.47190475 0.22276931 1.5580001 142 152 129 255
-0.46798292 0.22292677 1.559 149 159 136 255
-0.46405545 0.22308448 1.5600001 156 166 143 255
-0.45953268 0.22295627 1.559 155 164 143 255
-0.45472306 0.22268517 1.557 159 168 147 255
-0.44963467 0.22227113 1.554 152 161 142 255
-0.44456217 0.22185716 1.5510001 153 162 143 255
-0.43978947 0.22158627 1.549 158 167 148 255
-0.43502733 0.22131549 1.5470001 139 150 131 255
-0.43055406 0.2211878 1.5460001 160 171 152 255
-0.42553431 0.22077405 1.5430001 163 172 151 255
-0.42080343 0.22050345 1.5410001 142 152 129 255
-0.41608298 0.22023284 1.539 132 141 112 255
-0.4113729 0.21996227 1.5370001 136 143 114 255
-0.40720311 0.21997797 1.5370001 136 143 112 255
-0.40329507 0.2201369 1.5380001 138 145 114 255
-0.39938101 0.22029586 1.539 142 149 120 255
-0.3949475 0.22016862 1.5380001 136 144 118 255
-0.39051887 0.22004138 1.5370001 140 148 123 255
-0.38634646 0.22005735 1.5370001 147 157 134 255
-0.3819249 0.21993016 1.536 162 172 149 255
-0.37750816 0.21980298 1.5350001 163 173 150 255
-0.37309629 0.21967576 1.534 157 167 144 255
-0.36868927 0.21954857 1.5330001 163 175 152 255
-0.3645249 0.2195646 1.5330001 158 170 147 255
-0.3601248 0.21943738 1.5320001 157 167 144 255
-0.35596186 0.21945335 1.5320001 158 168 143 255
-0.35179833 0.21946935 1.5320001 137 146 117 255
-0.34786105 0.21962862 1.5330001 138 147 118 255
-0.34369352 0.21964456 1.5330001 134 141 110 255
-0.33952531 0.21966051 1.5330001 129 136 105 255
-0.33535644 0.21967641 1.5330001 134 141 110 255
-0.33097088 0.21954894 1.5320001 138 145 116 255
-0.32680342 0.21956474 1.5320001 138 145 114 255
-0.32263523 0.21958049 1.5320001 136 143 114 255
-0.31867433 0.21973954 1.5330001 136 143 114 255
-0.31429687 0.21961182 1.5320001 136 143 114 255
-0.30992424 0.21948403 1.531 145 152 123 255
-0.3059558 0.21964289 1.5320001 149 155 130 255
-0.30158716 0.21951495 1.531 149 157 132 255
-0.29761189 0.21967369 1.5320001 138 146 121 255
-0.29343888 0.21968894 1.5320001 144 154 131 255
-0.28983164 0.22013433 1.5350001 151 160 139 255
-0.28639337 0.22072311 1.539 134 143 124 255
-0.28348279 0.22174217 1.5460001 135 146 127 255
0.35507473 0.23242901 1.6220001 91 99 91 255
0.36015046 0.23284203 1.6250001 75 83 75 255
0.36389571 0.23239532 1.6220001 77 83 76 255
0.36807808 0.23223515 1.6210001 76 82 75 255
0.37133521 0.23150195 1.6160001 74 80 73 255
0.37526205 0.23119861 1.6140001 83 89 81 255
0.37941247 0.23103851 1.613 76 84 76 255
0.38450864 0.23145135 1.6160001 76 85 74 255
0.38937983 0.23172091 1.618 74 83 72 255
0.39450455 0.2321336 1.6210001 78 87 76 255
0.39816844 0.23168711 1.618 72 81 70 255
0.40231305 0.23152709 1.6170001 72 81 69 255
0.40594864 0.23108074 1.6140001 73 82 71 255
0.40956733 0.2306345 1.6110001 72 81 70 255
0.41342607 0.23033151 1.6090001 76 85 74 255
0.41779277 0.2303149 1.6090001 77 86 75 255
0.42163417 0.23001204 1.6070001 80 89 78 255
0.42546418 0.22970931 1.605 76 82 74 255
0.42901501 0.22926359 1.6020001 74 80 72 255
0.43390173 0.22953351 1.6040001 70 76 68 255
0.43770587 0.22923107 1.6020001 78 86 78 255
0.44177461 0.22907187 1.6010001 78 86 78 255
0.44555888 0.22876967 1.5990001 78 86 78 255
0.44961321 0.22861069 1.598 76 84 76 255
0.45309362 0.22816575 1.595 76 84 76 255
0.45684415 0.22786401 1.5930001 106 114 106 255
0.46116242 0.22784849 1.5930001 156 164 156 255
0.46489599 0.22754705 1.5910001 158 166 158 255
0.58992964 0.23767103 1.664 163 171 164 255
0.60362977 0.23950665 1.677 165 173 166 255
0.68360454 0.26719129 1.8710001 161 169 162 255
0.63739157 0.24546579 1.7190001 159 167 160 255
0.63010186 0.24088757 1.687 162 170 162 255
0.62677771 0.23788074 1.6660001 162 170 162 255
0.63016105 0.23744458 1.6630001 166 174 166 255
0.63085723 0.23600933 1.6530001 144 152 144 255
0.63188434 0.23471735 1.6440001 75 83 75 255
0.63363767 0.23371144 1.6370001 80 86 78 255
0.63847208 0.23384809 1.6380001 58 65 53 255
0.64095777 0.23312858 1.6330001 16 23 11 255
0.64144111 0.23169568 1.623 24 29 17 255
0.64266717 0.23054886 1.6150001 23 28 14 255
0.64665538 0.23040177 1.6140001 25 29 12 255
0.64983237 0.22996962 1.6110001 23 27 10 255
0.65015167 0.22853874 1.6010001 24 28 11 255
0.65123534 0.22739384 1.5930001 22 26 9 255
0.65639204 0.22767684 1.595 23 27 10 255
0.66073245 0.22767486 1.595 23 27 10 255
0.66590822 0.22795889 1.5970001 22 26 9 255
0.66899765 0.22752963 1.5940001 23 27 10 255
0.67291719 0.22738639 1.5930001 22 26 9 255
0.6751321 0.22667271 1.5880001 24 28 11 255
0.6790328 0.22653052 1.5870001 25 29 12 255
0.68465203 0.22695979 1.59 23 27 10 255
0.68855613 0.22681868 1.5890001 25 27 10 255
0.69027615 0.22596435 1.5830001 28 30 13 255
0.6919651 0.22511056 1.577 26 30 12 255
0.69671392 0.22525659 1.5780001 28 32 14 255
0.69969302 0.22483216 1.575 30 34 16 255
0.70399874 0.22483657 1.575 30 34 16 255
0.70515841 0.22384228 1.5680001 30 34 16 255
0.71171129 0.22456165 1.5730001 26 32 15 255
0.71647298 0.22471063 1.5740001 23 31 16 255
0.72032642 0.22457467 1.5730001 19 28 17 255
0.72371614 0.22429658 1.5710001 154 164 155 255
0.72431666 0.22316244 1.5630001 155 164 157 255
0.72627419 0.2224572 1.5580001 158 167 162 255
0.72633111 0.22118139 1.549 167 176 171 255
0.72869951 0.22062014 1.5450001 168 177 172 255
0.72867638 0.21934545 1.536 170 177 173 255
0.7290836 0.21821414 1.5280001 174 181 177 255
0.72944957 0.21708341 1.5200001 175 182 179 255
0.73170477 0.2165245 1.516 176 183 180 255
0.73199922 0.2153949 1.508 178 185 182 255
0.73274052 0.21440871 1.501 178 185 184 255
-0.72162503 0.22893663 1.6350001 151 153 143 255
-0.71145791 0.22711329 1.6220001 184 187 175 255
-0.70572257 0.22669069 1.6190001 155 161 136 255
-0.70043868 0.22640872 1.6170001 149 156 127 255
-0.69559789 0.22626732 1.6160001 147 152 120 255
-0.6920473 0.22654648 1.618 138 144 109 255
-0.68806261 0.22668616 1.6190001 126 131 99 255
-0.68280715 0.22640632 1.6170001 163 168 137 255
-0.67672509 0.22584693 1.613 156 160 132 255
-0.67149979 0.22556807 1.6110001 118 124 98 255
-0.66711509 0.22556977 1.6110001 119 125 100 255
-0.66273177 0.22557193 1.6110001 164 170 145 255
-0.65753227 0.22529452 1.6090001 175 182 160 255
-0.65153319 0.22473752 1.605 176 182 164 255
-0.64596015 0.22432098 1.6020001 162 168 150 255
-0.64040452 0.22390488 1.5990001 157 165 148 255
-0.63526416 0.22362921 1.5970001 160 168 151 255
-0.63092583 0.22363403 1.5970001 159 167 150 255
-0.62619603 0.22349922 1.5960001 162 173 154 255
-0.62069339 0.22308476 1.5930001 170 181 162 255
-0.61598182 0.22295076 1.5920001 163 174 155 255
-0.61089224 0.22267708 1.59 157 167 144 255
-0.60619581 0.22254381 1.5890001 163 173 148 255
-0.60074794 0.22213079 1.5860001 156 166 141 255
-0.59644532 0.2221383 1.5860001 163 173 148 255
-0.59251672 0.22228625 1.5870001 161 171 148 255
-0.58710074 0.22187425 1.5840001 169 178 157 255
-0.5824374 0.22174272 1.5830001 173 182 161 255
-0.57668442 0.22119126 1.5790001 158 168 145 255
-0.57240367 0.22120044 1.5790001 167 175 150 255
-0.56740367 0.22092974 1.577 164 172 146 255
-0.562415 0.22065932 1.575 166 176 151 255
-0.55779207 0.22052932 1.5740001 167 177 154 255
-0.55317467 0.22039953 1.5730001 169 178 157 255
-0.54856318 0.22027007 1.572 164 173 152 255
-0.54395729 0.22014087 1.5710001 165 174 153 255
-0.53935701 0.22001189 1.5700001 159 169 146 255
-0.53476244 0.21988317 1.5690001 149 159 136 255
-0.5305115 0.21989484 1.5690001 151 161 138 255
-0.52558988 0.21962641 1.567 147 159 136 255
-0.52101195 0.21949843 1.5660001 148 160 137 255
-0.51643944 0.21937059 1.5650001 145 157 134 255
-0.51219976 0.21938318 1.5650001 146 156 133 255
-0.50763547 0.21925579 1.5640001 150 160 137 255
-0.50275469 0.2189884 1.562 160 167 145 255
-0.49788481 0.21872118 1.5600001 169 176 154 255
-0.49365845 0.21873452 1.5600001 163 170 148 255
-0.48911837 0.21860784 1.559 158 168 145 255
-0.48458347 0.21848132 1.5580001 154 164 141 255
-0.47974557 0.21821474 1.5560001 139 149 126 255
-0.47491837 0.21794827 1.554 138 148 125 255
-0.47070751 0.21796241 1.554 148 158 135 255
-0.46679673 0.21811703 1.5550001 154 164 141 255
-0.46258271 0.21813151 1.5550001 163 173 150 255
-0.4577789 0.21786556 1.5530001 150 160 137 255
-0.45298564 0.21759969 1.5510001 156 166 143 255
-0.44820294 0.21733393 1.549 148 158 133 255
-0.44314402 0.2169279 1.5460001 166 176 151 255
-0.43781719 0.21638161 1.5420001 170 180 157 255
-0.43335527 0.21625638 1.5410001 157 167 142 255
-0.42889839 0.21613121 1.5400001 144 152 127 255
-0.42444652 0.2160061 1.539 135 145 122 255
-0.41999963 0.21588106 1.5380001 131 139 114 255
-0.4155578 0.21575609 1.5370001 132 139 110 255
-0.4111208 0.21563116 1.536 132 139 110 255
-0.40721878 0.2157871 1.5370001 134 141 110 255
-0.40331078 0.21594308 1.5380001 140 147 116 255
-0.39913729 0.21595874 1.5380001 143 150 121 255
-0.39496338 0.21597447 1.5380001 148 157 128 255
-0.3902806 0.2157093 1.536 159 167 141 255
-0.38611099 0.21572506 1.536 158 168 143 255
-0.38169214 0.21560039 1.5350001 166 176 151 255
-0.37727815 0.21547575 1.534 161 171 148 255
-0.37238252 0.21507011 1.531 160 170 147 255
-0.36774313 0.21480493 1.529 157 169 146 255
-0.36382741 0.2149612 1.5300001 149 161 138 255
-0.35967055 0.214977 1.5300001 141 151 126 255
-0.35574538 0.21513328 1.531 129 137 112 255
-0.35158455 0.21514907 1.531 129 138 109 255
-0.34764999 0.21530537 1.5320001 133 142 113 255
-0.34326094 0.21518058 1.531 136 143 114 255
-0.3390981 0.21519627 1.531 137 144 115 255
-0.33493468 0.21521194 1.531 137 144 115 255
-0.33055454 0.21508703 1.5300001 140 147 118 255
-0.32660574 0.21524318 1.531 139 146 117 255
-0.32244024 0.21525872 1.531 146 152 126 255
-0.31848198 0.21541484 1.5320001 135 141 115 255
-0.3143124 0.21543027 1.5320001 142 149 120 255
-0.30993968 0.21530502 1.531 142 149 120 255
-0.30617088 0.21560158 1.5330001 139 146 117 255
-0.30140549 0.21519487 1.5300001 140 147 116 255
-0.29743278 0.21535063 1.531 144 153 124 255
-0.29307091 0.21522503 1.5300001 143 153 127 255
-0.28928018 0.21552134 1.5320001 159 169 144 255
-0.28491956 0.21539553 1.531 149 159 134 255
-0.28074706 0.21541026 1.531 147 157 134 255
-0.27675453 0.21556562 1.5320001 134 143 124 255
-0.27328959 0.21614306 1.536 143 152 133 255
-0.26980209 0.21672043 1.5400001 146 155 136 255
-0.26629207 0.21729776 1.544 125 133 116 255
-0.26242006 0.21759357 1.5460001 136 144 129 255
-0.25853646 0.21788928 1.5480001 154 162 147 255
0.3267934 0.22994599 1.6350001 150 158 151 255
0.33104214 0.229789 1.6340001 129 137 130 255
0.33487409 0.22935075 1.631 95 103 96 255
0.33889699 0.22905308 1.6290001 78 86 79 255
0.34248677 0.22847421 1.6250001 77 85 78 255
0.34626749 0.22803596 1.6220001 76 84 76 255
0.34959882 0.22731653 1.6170001 75 83 75 255
0.35334003 0.22687829 1.6140001 78 86 79 255
0.35750753 0.22672123 1.613 77 85 78 255
0.36189324 0.22670466 1.613 82 88 81 255
0.36627826 0.22668807 1.613 81 87 80 255
0.37043282 0.22653095 1.6120001 78 84 77 255
0.37481374 0.22651432 1.6120001 82 88 80 255
0.37895879 0.22635719 1.6110001 79 85 77 255
0.38381156 0.22662154 1.613 78 85 74 255
0.38867459 0.22688587 1.6150001 78 85 74 255
0.39403462 0.22743115 1.6190001 77 84 73 255
0.39843133 0.22741447 1.6190001 74 81 70 255
0.40307623 0.22753824 1.6200001 71 78 66 255
0.40671992 0.22710027 1.6170001 69 78 66 255
0.41034663 0.22666235 1.6140001 70 79 67 255
0.41395652 0.22622459 1.6110001 74 83 71 255
0.41780928 0.22592729 1.6090001 77 86 75 255
0.42165059 0.2256301 1.6070001 76 85 74 255
0.42574561 0.22547342 1.6060001 75 82 71 255
0.42983469 0.22531681 1.605 69 77 69 255
0.43391788 0.22516032 1.6040001 67 75 67 255
0.43772197 0.22486353 1.6020001 75 83 75 255
0.44123867 0.22442649 1.5990001 75 83 75 255
0.44501743 0.22412997 1.5970001 79 87 79 255
0.44878489 0.22383358 1.595 81 89 81 255
0.45282516 0.22367768 1.5940001 81 89 81 255
0.45657286 0.22338156 1.5920001 83 91 83 255
0.46059883 0.22322591 1.5910001 77 85 77 255
0.46461904 0.22307038 1.59 76 84 76 255
0.46922338 0.2231956 1.5910001 73 81 73 255
0.47353515 0.22318067 1.5910001 97 105 97 255
0.47874773 0.22358666 1.5940001 129 137 129 255
0.48306713 0.22357197 1.5940001 166 174 166 255
0.51415926 0.22770746 1.6240001 165 173 166 255
0.51887828 0.22783379 1.6250001 154 162 155 255
0.52295858 0.22767985 1.6240001 162 170 163 255
0.52865696 0.22822712 1.628 171 179 172 255
0.53634185 0.22961564 1.6380001 171 179 172 255
0.57708138 0.23161921 1.6530001 120 128 121 255
0.57628351 0.22950634 1.6380001 84 92 85 255
0.57434106 0.22697368 1.6200001 101 109 102 255
0.57551658 0.2257024 1.6110001 62 70 63 255
0.58060312 0.22597261 1.613 56 64 57 255
0.59259152 0.22890478 1.6340001 93 101 94 255
0.61175829 0.23280835 1.6620001 166 174 166 255
0.60884923 0.22999795 1.6420001 63 71 63 255
0.60844684 0.22816859 1.6290001 65 74 63 255
0.610232 0.22718011 1.6220001 67 75 67 255
0.61463231 0.22717243 1.6220001 79 87 79 255
0.6190334 0.22716516 1.6220001 81 90 79 255
0.62266648 0.22687814 1.6200001 83 92 81 255
0.62512833 0.22617142 1.6150001 84 90 82 255
0.6287331 0.22588521 1.613 92 97 85 255
0.63232815 0.2255995 1.6110001 53 58 46 255
0.63472742 0.22489405 1.6060001 26 29 17 255
0.63590682 0.22376899 1.598 25 28 14 255
0.63864636 0.22320451 1.5940001 23 27 10 255
0.64459223 0.22376065 1.598 23 27 10 255
0.64731228 0.22319709 1.5940001 24 28 11 255
0.65042043 0.22277395 1.5910001 24 28 11 255
0.65351367 0.22235136 1.5880001 23 27 10 255
0.65949154 0.22290932 1.5920001 24 28 11 255
0.66382456 0.22290768 1.5920001 23 27 10 255
0.66815913 0.22290654 1.5920001 24 28 11 255
0.67038298 0.2222058 1.5870001 24 28 11 255
0.67343128 0.2217856 1.5840001 24 28 11 255
0.6777485 0.22178596 1.5840001 27 29 11 255
0.68422019 0.22248691 1.5890001 28 30 13 255
0.689421 0.22276837 1.5910001 27 29 12 255
0.68765754 0.22081004 1.577 27 29 12 255
0.68976831 0.22011238 1.572 29 31 13 255
0.69582748 0.2206755 1.5760001 26 30 12 255
0.70057762 0.2208191 1.577 28 32 14 255
0.70175928 0.21984307 1.5700001 30 34 16 255
0.70245504 0.21872756 1.562 31 35 18 255
0.70763355 0.2190129 1.5640001 25 29 12 255
0.71510106 0.21999903 1.5710001 23 28 14 255
0.72077745 0.22042567 1.5740001 14 23 11 255
0.72370851 0.22001265 1.5710001 92 101 90 255
0.72384501 0.21875994 1.562 153 162 155 255
0.72440064 0.21764779 1.554 157 166 159 255
0.72538394 0.21667632 1.5470001 165 172 168 255
0.72727448 0.21598549 1.5420001 168 175 171 255
0.72771692 0.21487506 1.534 170 177 173 255
0.72811806 0.21376516 1.526 172 179 175 255
0.72943765 0.212936 1.5200001 174 181 177 255
0.73072702 0.21210742 1.5140001 177 184 181 255
0.73150069 0.21113932 1.5070001 179 186 183 255
-0.72386771 0.22379734 1.6300001 156 159 147 255
-0.7150014 0.22242095 1.6200001 194 196 176 255
-0.70882344 0.2218689 1.6160001 142 145 121 255
-0.70397693 0.22172934 1.6150001 133 139 104 255
-0.69870436 0.22145298 1.613 126 131 99 255
-0.69430548 0.22145177 1.613 122 127 95 255
-0.69033593 0.2215884 1.6140001 136 141 110 255
-0.68508768 0.22131369 1.6120001 161 168 139 255
-0.67942947 0.22090214 1.6090001 130 136 110 255
-0.67336971 0.22035383 1.605 123 129 104 255
-0.6694172 0.22049242 1.6060001 181 186 164 255
-0.66504657 0.22049424 1.6060001 175 182 160 255
-0.66026586 0.22035921 1.605 172 179 157 255
-0.65344858 0.21953817 1.5990001 176 183 162 255
-0.64747709 0.21899213 1.595 161 167 149 255
-0.64152849 0.21844654 1.5910001 163 172 153 255
-0.63640374 0.21817596 1.5890001 167 176 157 255
-0.63168871 0.21804307 1.5880001 169 178 159 255
-0.62698019 0.21791065 1.5870001 170 179 160 255
-0.62267029 0.21791591 1.5870001 164 173 154 255
-0.61758214 0.21764693 1.585 144 153 134 255
-0.61327958 0.21765296 1.585 143 152 133 255
-0.60859358 0.21752204 1.5840001 152 162 139 255
-0.60429531 0.21752883 1.5840001 163 173 150 255
-0.59961891 0.21739866 1.5830001 159 169 146 255
-0.59494877 0.21726884 1.582 168 178 155 255
-0.59065795 0.21727666 1.582 169 178 157 255
-0.58525586 0.21687281 1.5790001 172 181 160 255
-0.5809744 0.21688132 1.5790001 168 177 158 255
-0.5755977 0.21647806 1.5760001 160 169 148 255
-0.57060045 0.21621245 1.5740001 160 170 147 255
-0.56525457 0.21580976 1.5710001 160 170 145 255
-0.56063944 0.21568207 1.5700001 159 169 146 255
-0.55567586 0.21541733 1.5680001 168 178 155 255
-0.55107504 0.21529019 1.567 160 169 148 255
-0.54682904 0.21530071 1.567 161 171 148 255
-0.54223698 0.21517414 1.5660001 156 166 143 255
-0.53765047 0.21504775 1.5650001 150 160 135 255
-0.53341061 0.21505906 1.5650001 146 156 131 255
-0.52950883 0.21520804 1.5660001 149 161 138 255
-0.52493101 0.21508241 1.5650001 146 157 136 255
-0.52002603 0.21481957 1.5630001 144 155 134 255
-0.51546192 0.21469437 1.562 157 168 147 255
-0.51123053 0.21470679 1.562 170 179 158 255
-0.50699914 0.21471943 1.562 165 172 150 255
-0.50212401 0.21445738 1.5600001 160 167 145 255
-0.49694046 0.21405795 1.557 153 161 136 255
-0.49240601 0.21393368 1.5560001 153 161 136 255
-0.48819068 0.21394706 1.5560001 144 151 129 255
-0.4836641 0.21382311 1.5550001 150 160 137 255
-0.47945112 0.21383682 1.5550001 137 146 125 255
-0.47462675 0.21357563 1.5530001 152 161 140 255
-0.47041878 0.21358965 1.5530001 152 161 140 255
-0.46591043 0.21346627 1.552 145 154 135 255
-0.46140721 0.21334302 1.5510001 156 165 144 255
-0.45602474 0.21280719 1.5470001 148 157 136 255
-0.45095581 0.21240897 1.544 159 168 147 255
-0.44619215 0.21214843 1.5420001 159 169 144 255
-0.44143906 0.21188797 1.5400001 168 176 151 255
-0.43641248 0.21148996 1.5370001 143 151 126 255
-0.43196416 0.2113672 1.536 140 148 123 255
-0.42779946 0.21138215 1.536 143 151 125 255
-0.42391011 0.21153483 1.5370001 132 140 114 255
-0.41946867 0.2114123 1.536 130 139 110 255
-0.41530275 0.21142751 1.536 145 152 121 255
-0.41086856 0.21130511 1.5350001 143 150 119 255
-0.40696925 0.21145809 1.536 152 159 130 255
-0.40280178 0.21147349 1.536 145 153 127 255
-0.39863378 0.21148892 1.536 141 151 125 255
-0.39420855 0.21136676 1.5350001 157 167 144 255
-0.38953394 0.21110682 1.5330001 155 165 140 255
-0.38537252 0.21112236 1.5330001 154 164 139 255
-0.38096181 0.21100017 1.5320001 154 164 139 255
-0.37655595 0.21087803 1.531 159 167 141 255
-0.3719117 0.21061809 1.529 156 164 138 255
-0.36727777 0.21035816 1.5270001 144 152 126 255
-0.36384311 0.21078701 1.5300001 144 152 126 255
-0.35968626 0.21080261 1.5300001 139 147 121 255
-0.35552871 0.21081819 1.5300001 139 147 121 255
-0.35114092 0.21069595 1.529 134 142 116 255
-0.34698486 0.21071148 1.529 130 138 112 255
-0.34282812 0.21072698 1.529 137 145 120 255
-0.33844924 0.21060465 1.5280001 140 148 123 255
-0.33407512 0.21048224 1.5270001 140 148 123 255
-0.33013791 0.21063548 1.5280001 140 148 123 255
-0.32619455 0.2107887 1.529 138 146 121 255
-0.32203442 0.21080402 1.529 149 157 132 255
-0.31787366 0.21081927 1.529 145 152 130 255
-0.31391737 0.21097238 1.5300001 140 150 125 255
-0.30975246 0.21098752 1.5300001 137 147 122 255
-0.30578658 0.2111405 1.531 139 147 121 255
-0.30122352 0.21087965 1.529 146 154 128 255
-0.29725352 0.21103251 1.5300001 140 148 122 255
-0.29289421 0.21090938 1.529 132 141 112 255
-0.28891736 0.21106207 1.5300001 139 148 119 255
-0.28437597 0.21080083 1.5280001 141 150 121 255
-0.27984473 0.21053939 1.526 145 154 125 255
-0.27550444 0.21041586 1.5250001 150 158 132 255
-0.27152467 0.21056809 1.526 151 159 134 255
-0.26736355 0.21058229 1.526 149 157 132 255
-0.26354668 0.21087237 1.5280001 136 146 123 255
-0.25937873 0.21088633 1.5280001 122 129 108 255
-0.25587812 0.21145223 1.5320001 121 128 107 255
-0.25202638 0.21174204 1.534 126 135 114 255
-0.24848615 0.21230781 1.5380001 134 143 124 255
-0.24492338 0.21287353 1.5420001 136 145 126 255
-0.22186492 0.23302943 1.687 84 92 84 255
-0.21776707 0.23359479 1.6910001 82 90 83 255
0.30249211 0.22404398 1.6240001 97 105 97 255
0.30729535 0.22430432 1.626 103 111 103 255
0.31153357 0.2241507 1.6250001 134 143 132 255
0.31576559 0.22399701 1.6240001 93 102 91 255
0.31999141 0.22384323 1.623 74 83 72 255
0.32441095 0.22382732 1.623 79 87 79 255
0.32842451 0.22353554 1.6210001 82 90 83 255
0.33222109 0.2231058 1.618 85 93 86 255
0.33620867 0.22281396 1.6160001 80 88 81 255
0.34039542 0.22265998 1.6150001 82 90 82 255
0.34478945 0.22264379 1.6150001 77 85 77 255
0.34853414 0.222214 1.6120001 76 84 76 255
0.35226181 0.22178423 1.6090001 79 85 78 255
0.35641569 0.22163013 1.608 80 86 79 255
0.36101225 0.22175168 1.6090001 77 83 76 255
0.36561343 0.22187315 1.6100001 80 86 79 255
0.36975986 0.22171898 1.6090001 80 86 78 255
0.37413269 0.22170265 1.6090001 77 83 75 255
0.37803432 0.22141069 1.6070001 78 84 76 255
0.38263831 0.22153211 1.608 77 84 73 255
0.38724712 0.22165348 1.6090001 76 83 72 255
0.39259082 0.22218809 1.613 77 84 72 255
0.39770958 0.22258489 1.6160001 76 83 71 255
0.4030928 0.22311939 1.6200001 74 82 67 255
0.40723947 0.22296523 1.6190001 71 81 66 255
0.41112584 0.2226734 1.6170001 71 80 68 255
0.41448683 0.22210626 1.613 72 81 69 255
0.41808531 0.22167698 1.6100001 71 80 68 255
0.42166683 0.22124775 1.6070001 69 78 67 255
0.42602688 0.22123165 1.6070001 71 78 67 255
0.43011859 0.22107795 1.6060001 67 76 65 255
0.4342044 0.22092433 1.605 66 74 66 255
0.43801105 0.22063318 1.603 73 81 73 255
0.44153038 0.2202045 1.6 77 83 75 255
0.44531178 0.21991363 1.598 79 85 77 255
0.44908187 0.2196229 1.5960001 82 90 82 255
0.4528406 0.21933223 1.5940001 78 86 78 255
0.45687497 0.21917936 1.5930001 83 91 83 255
0.46090353 0.21902661 1.5920001 83 92 81 255
0.46463412 0.2187364 1.59 85 93 85 255
0.46864846 0.21858394 1.5890001 79 87 79 255
0.47295466 0.21856916 1.5890001 75 83 75 255
0.47696027 0.21841697 1.5880001 73 81 73 255
0.48126328 0.2184025 1.5880001 72 80 72 255
0.48587185 0.21852574 1.5890001 118 126 118 255
0.49202797 0.21933663 1.595 118 126 118 255
0.49821642 0.22014762 1.6010001 87 95 87 255
0.50506508 0.22123368 1.6090001 78 86 78 255
0.50910747 0.22108234 1.608 85 93 85 255
0.51378292 0.22120623 1.6090001 77 85 77 255
0.51814169 0.22119278 1.6090001 75 83 75 255
0.52412403 0.22186686 1.6140001 68 76 68 255
0.52947867 0.22226617 1.6170001 79 87 79 255
0.53550977 0.22294052 1.6220001 83 91 83 255
0.54190087 0.22375248 1.628 87 95 87 255
0.54866022 0.22470203 1.6350001 115 124 113 255
0.55376601 0.22496454 1.6370001 119 128 117 255
0.55990595 0.22563958 1.6420001 114 122 114 255
0.56572938 0.22617738 1.646 121 129 121 255
0.56914973 0.22575356 1.6430001 78 86 78 255
0.56941211 0.2240935 1.631 85 93 86 255
0.5692578 0.22229648 1.618 97 105 98 255
0.56867892 0.22036256 1.6040001 76 84 77 255
0.57123977 0.2196655 1.5990001 49 57 50 255
0.57449365 0.21924351 1.5960001 66 74 67 255
0.58244646 0.22060762 1.6060001 80 88 80 255
0.59447312 0.22348288 1.6270001 132 140 132 255
0.60182893 0.22457261 1.6350001 60 68 60 255
0.60292506 0.2233277 1.626 73 81 73 255
0.60397297 0.22208323 1.6170001 74 83 72 255
