ply
format ascii 1.0
comment PCL generated
element vertex 994
property float x
property float y
property float z
property uchar red
property uchar green
property uchar blue
property uchar alpha
element camera 0
property float view_px
property float view_py
property float view_pz
property float x_axisx
property float x_axisy
property float x_axisz
property float y_axisx
property float y_axisy
property float y_axisz
property float z_axisx
property float z_axisy
property float z_axisz
property float focal
property float scalex
property float scaley
property float centerx
property float centery
property int viewportx
property int viewporty
property float k1
property float k2
end_header
0.742917 0.401308 1.5920001 189 193 203 255
0.74310118 0.39907411 1.5830001 193 198 205 255
0.7418223 0.39608487 1.5710001 193 198 205 255
0.74142987 0.39360055 1.5610001 191 196 203 255
0.74241859 0.39187363 1.554 192 197 204 255
0.74433273 0.39065206 1.549 191 196 203 255
0.7442894 0.38842273 1.5400001 193 198 205 255
0.74419945 0.38619423 1.531 191 196 203 255
0.74259621 0.38320976 1.5190001 193 198 205 255
0.74338812 0.38148752 1.5120001 194 198 208 255
0.74216688 0.37875691 1.501 194 198 208 255
0.73670828 0.44284332 1.7780001 184 189 196 255
0.74213809 0.40604451 1.6290001 191 196 203 255
0.74296957 0.40408018 1.6210001 189 193 203 255
0.74329853 0.40186745 1.6120001 193 197 207 255
0.74450845 0.40015423 1.605 190 195 202 255
0.74381626 0.39744467 1.5940001 188 193 200 255
0.74259681 0.39448652 1.582 190 195 202 255
0.74131405 0.39152911 1.5700001 192 197 204 255
0.74234265 0.38981947 1.5630001 191 196 203 255
0.74429125 0.38860968 1.5580001 192 197 204 255
0.74573475 0.38715145 1.552 192 197 204 255
0.74473214 0.38444692 1.5410001 192 197 204 255
0.74367172 0.3817431 1.5300001 192 197 204 255
0.74304247 0.3792896 1.5200001 192 197 204 255
0.74285269 0.3770864 1.511 194 198 208 255
0.74311078 0.37513366 1.503 194 198 208 255
0.74302042 0.40207881 1.631 190 195 202 255
0.74385625 0.40013546 1.623 193 197 207 255
0.7432676 0.39745343 1.6120001 191 196 203 255
0.74540418 0.39625165 1.6070001 191 196 203 255
0.74378318 0.39307809 1.5940001 190 195 202 255
0.74256271 0.39015189 1.582 193 198 205 255
0.74175113 0.38747311 1.5710001 191 196 203 255
0.74325633 0.38602835 1.5650001 192 197 204 255
0.74616462 0.38532469 1.562 191 196 203 255
0.74617678 0.38314196 1.5530001 191 196 203 255
0.74565905 0.38071334 1.5430001 189 194 201 255
0.74314505 0.37729844 1.529 190 195 202 255
0.74300075 0.37511811 1.5200001 193 198 205 255
0.74231827 0.37269181 1.5100001 194 199 206 255
0.74306685 0.37100679 1.503 194 199 206 255
0.74217409 0.40943387 1.6800001 188 193 200 255
0.7429924 0.39761531 1.631 189 193 203 255
0.74474388 0.39618069 1.6250001 191 195 205 255
0.7436986 0.39328405 1.613 191 195 205 255
0.74444526 0.39136356 1.605 189 194 201 255
0.74328446 0.38846856 1.5930001 192 197 204 255
0.74393761 0.38654977 1.585 191 196 203 255
0.74313331 0.38390028 1.5740001 191 196 203 255
0.74464577 0.38247114 1.5680001 191 196 203 255
0.74565053 0.38079903 1.5610001 192 197 204 255
0.7456587 0.37863994 1.552 192 197 204 255
0.74513721 0.37623772 1.5420001 192 197 204 255
0.74359149 0.3733483 1.5300001 191 196 203 255
0.74296004 0.37094763 1.5200001 194 199 206 255
0.74227655 0.36854774 1.5100001 193 198 205 255
0.74351835 0.36712506 1.5040001 195 200 207 255
0.74171019 0.40460026 1.6790001 189 194 201 255
0.74296534 0.39315271 1.631 190 194 204 255
0.74288255 0.39076933 1.6210001 190 194 204 255
0.74274725 0.38838679 1.6110001 193 197 207 255
0.74302369 0.3862462 1.6020001 193 198 205 255
0.74371976 0.38434756 1.5940001 191 196 203 255
0.74437469 0.38244984 1.5860001 190 195 202 255
0.74404424 0.38007072 1.5760001 192 197 204 255
0.74271184 0.37721005 1.5640001 191 196 203 255
0.74274904 0.37507367 1.5550001 191 196 203 255
0.74273962 0.37293819 1.5460001 192 197 204 255
0.7436499 0.37128603 1.539 195 200 207 255
0.74258089 0.36866975 1.5280001 192 197 204 255
0.74194288 0.36629549 1.5180001 194 199 206 255
0.7427274 0.36464596 1.511 193 198 205 255
0.74347651 0.36299741 1.5040001 195 200 206 255
0.74297047 0.39104843 1.641 190 195 202 255
0.742939 0.38869077 1.631 189 194 201 255
0.74193871 0.38585728 1.6190001 190 195 202 255
0.74225801 0.38373959 1.6100001 191 196 203 255
0.74160296 0.38114601 1.5990001 190 194 204 255
0.74322283 0.37974513 1.5930001 193 198 205 255
0.74340463 0.37763003 1.5840001 193 198 205 255
0.74448395 0.3759926 1.577 193 198 205 255
0.7441029 0.37364078 1.567 194 199 206 255
0.74319226 0.37105134 1.5560001 191 196 202 255
0.74318445 0.36893961 1.5470001 191 196 202 255
0.74313021 0.36682871 1.5380001 192 197 203 255
0.74302924 0.36471868 1.529 192 197 203 255
0.74288166 0.36260939 1.5200001 193 198 205 255
0.74317908 0.36073962 1.5120001 196 201 207 255
0.74392992 0.35910928 1.5050001 195 200 206 255
0.74294591 0.38656074 1.641 190 195 202 255
0.74245805 0.38399407 1.6300001 191 196 203 255
0.74099576 0.38095698 1.6170001 191 196 203 255
0.74223053 0.37933424 1.6100001 190 195 202 255
0.74250209 0.37724116 1.6010001 192 196 206 255
0.74319339 0.37538466 1.5930001 193 197 207 255
0.74149692 0.3723506 1.58 193 198 205 255
0.74398029 0.37143847 1.5760001 193 198 205 255
0.74359554 0.36911318 1.5660001 194 199 206 255
0.74363625 0.36702436 1.557 192 197 203 255
0.74314982 0.36470065 1.5470001 192 197 203 255
0.74212813 0.36214194 1.536 194 199 205 255
0.74250662 0.36029139 1.5280001 193 198 204 255
0.74284393 0.35844168 1.5200001 193 198 205 255
0.74363184 0.35682872 1.5130001 195 200 207 255
0.74438417 0.35521659 1.506 195 200 207 255
0.74193752 0.38621974 1.659 189 194 201 255
0.74200338 0.38391352 1.649 191 196 202 255
0.74111134 0.38114241 1.6370001 189 194 200 255
0.74061143 0.37860495 1.626 190 195 201 255
0.74097013 0.37653399 1.6170001 192 197 204 255
0.74266493 0.37516248 1.6110001 191 196 203 255
0.74386573 0.37355903 1.6040001 190 194 204 255
0.74409777 0.37149072 1.595 194 198 208 255
0.74287516 0.36872441 1.5830001 194 198 208 255
0.74394965 0.3671236 1.5760001 193 197 207 255
0.74451351 0.3652907 1.5680001 194 199 206 255
0.7450363 0.36345872 1.5600001 193 198 204 255
0.74455726 0.36116156 1.5500001 194 199 205 255
0.74354285 0.35863215 1.539 194 199 205 255
0.74392855 0.35680267 1.531 191 196 202 255
0.74427319 0.35497403 1.5230001 196 201 208 255
0.74359393 0.35268009 1.5130001 195 200 207 255
0.74286246 0.35038689 1.503 194 199 206 255
0.74146938 0.38145569 1.6580001 190 195 202 255
0.74108154 0.37894592 1.6470001 190 195 201 255
0.73973036 0.37597674 1.6340001 190 195 201 255
0.73922122 0.37346855 1.623 191 196 203 255
0.73957062 0.37142137 1.6140001 191 196 203 255
0.74217814 0.37052578 1.6100001 194 199 206 255
0.74337512 0.36894062 1.603 192 197 204 255
0.74453646 0.36735642 1.5960001 191 196 203 255
0.74425423 0.36508253 1.5860001 193 198 205 255
0.74486381 0.36326987 1.5780001 193 198 205 255
0.74400789 0.36076742 1.567 196 201 208 255
0.74500442 0.35918668 1.5600001 193 198 205 255
0.74356377 0.35645553 1.5480001 193 198 205 255
0.74350899 0.35441586 1.539 193 198 204 255
0.74292189 0.3521468 1.529 192 197 203 255
0.74423724 0.35079983 1.5230001 195 200 207 255
0.74355692 0.34853235 1.5130001 193 198 205 255
0.74282449 0.34626561 1.503 196 201 208 255
0.74189633 0.37715232 1.659 191 196 203 255
0.74151033 0.37467191 1.6480001 191 196 202 255
0.740161 0.3717376 1.6350001 190 195 201 255
0.74010909 0.36948606 1.6250001 191 196 203 255
0.74046308 0.36746275 1.6160001 192 197 204 255
0.74261409 0.36634994 1.6110001 192 197 204 255
0.74334913 0.36455578 1.603 193 198 205 255
0.74544233 0.36344481 1.598 192 197 204 255
0.74516469 0.3611975 1.5880001 194 199 206 255
0.74530691 0.35917848 1.5790001 196 201 208 255
0.74492747 0.35693282 1.5690001 193 198 205 255
0.74592847 0.3553704 1.562 195 200 207 255
0.74449235 0.3526713 1.5500001 192 197 203 255
0.74540842 0.35111061 1.5430001 194 199 205 255
0.74483144 0.34886813 1.5330001 195 200 206 255
0.74566805 0.34730914 1.526 197 202 209 255
0.74352098 0.34438545 1.5130001 194 199 206 255
0.74278748 0.3421452 1.503 194 199 206 255
0.74142957 0.37239492 1.6580001 189 194 201 255
0.74014014 0.36949462 1.6450001 190 195 201 255
0.7401396 0.36726892 1.6350001 190 195 201 255
0.74099773 0.36549336 1.6270001 190 195 202 255
0.74089801 0.36326927 1.6170001 190 195 202 255
0.74305075 0.36216936 1.6120001 192 197 204 255
0.74471498 0.36084566 1.6060001 194 199 206 255
0.74588251 0.35929823 1.5990001 193 198 205 255
0.74560672 0.35707754 1.5890001 193 198 204 255
0.74575049 0.3550823 1.58 194 199 205 255
0.7458477 0.35308799 1.5710001 194 199 205 255
0.74637574 0.35131919 1.5630001 194 199 205 255
0.74542177 0.34887686 1.552 193 198 204 255
0.74682546 0.34755939 1.5460001 195 200 206 255
0.74625576 0.3453435 1.536 196 201 207 255
0.74661112 0.34357804 1.5280001 196 201 208 255
0.74545133 0.34113881 1.5170001 196 201 208 255
0.74571645 0.33937499 1.5090001 196 201 208 255
0.74147701 0.36346659 1.6380001 191 196 202 255
0.74279779 0.36193407 1.631 191 196 203 255
0.74133366 0.3590709 1.618 193 198 205 255
0.74210536 0.35731813 1.6100001 192 197 204 255
0.74422681 0.35623205 1.605 192 197 204 255
0.74539053 0.35470295 1.598 193 198 205 255
0.74511093 0.35250881 1.5880001 192 197 203 255
0.74525118 0.35053745 1.5790001 193 198 204 255
0.74534458 0.34856689 1.5700001 193 198 204 255
0.7458688 0.34681916 1.562 192 197 203 255
0.74539143 0.34462819 1.552 194 199 205 255
0.74727714 0.34354836 1.5470001 196 201 208 255
0.74768084 0.34180316 1.539 196 201 207 255
0.74706632 0.3396146 1.529 195 200 207 255
0.74590844 0.33720469 1.5180001 194 199 206 255
0.74568111 0.33523977 1.5090001 196 201 208 255
0.74009907 0.35833347 1.6350001 190 195 201 255
0.74186605 0.3570385 1.6290001 192 195 201 255
0.74131191 0.3546485 1.618 190 195 201 255
0.74162167 0.3526977 1.6090001 194 197 203 255
0.74420303 0.35184374 1.605 191 196 202 255
0.74489933 0.35011384 1.5970001 192 197 203 255
0.74508536 0.34816551 1.5880001 192 197 203 255
0.74569649 0.34643722 1.58 192 197 203 255
0.74531698 0.34427124 1.5700001 193 198 204 255
0.74440777 0.34188673 1.559 194 199 205 255
0.74296063 0.33928362 1.5470001 196 201 207 255
0.74483138 0.33821657 1.5420001 195 200 206 255
0.74473447 0.33627301 1.5330001 196 201 207 255
0.74556804 0.33476898 1.526 196 201 207 255
0.74538356 0.33282703 1.5170001 196 201 207 255
0.74515241 0.33088589 1.508 196 201 207 255
0.73824489 0.35729325 1.651 191 194 200 255
0.74053276 0.35622874 1.646 193 196 202 255
0.74143773 0.35451588 1.6380001 190 195 201 255
0.74275661 0.35302025 1.631 192 195 201 255
0.74174893 0.35044315 1.6190001 190 195 201 255
0.74113864 0.34808329 1.608 191 194 200 255
0.74186164 0.34637365 1.6 195 198 204 255
0.74347615 0.34509778 1.5940001 192 197 203 255
0.74412203 0.34338978 1.5860001 194 199 205 255
0.74519867 0.34189916 1.5790001 194 197 203 255
0.74481547 0.33975974 1.5690001 192 197 203 255
0.74438006 0.33762106 1.559 194 199 205 255
0.7429319 0.33505005 1.5470001 193 198 204 255
0.74383569 0.33356264 1.5400001 192 197 203 255
0.74421799 0.33185947 1.5320001 194 199 205 255
0.74504787 0.33037382 1.5250001 195 200 206 255
0.7453509 0.32867229 1.5170001 194 199 205 255
0.74462473 0.32653826 1.5070001 196 201 207 255
0.73848385 0.37339431 1.748 187 192 198 255
0.73991579 0.35575989 1.6650001 191 194 200 255
0.7395696 0.35342553 1.654 191 196 202 255
0.74051511 0.35173303 1.646 189 194 200 255
0.74051374 0.3496139 1.636 189 194 200 255
0.74091554 0.3477093 1.6270001 192 197 203 255
0.74172848 0.34601921 1.6190001 190 195 201 255
0.74342185 0.34475738 1.613 191 194 200 255
0.74323034 0.34264144 1.603 194 199 205 255
0.74485207 0.34138128 1.5970001 192 197 203 255
0.74456704 0.33926699 1.5870001 194 199 205 255
0.74611735 0.33800852 1.5810001 193 198 204 255
0.7462135 0.33610958 1.572 193 198 204 255
0.74435306 0.33335605 1.559 193 198 204 255
0.74290407 0.33081707 1.5470001 194 199 205 255
0.74284089 0.32892036 1.5380001 196 201 207 255
0.74273092 0.32702437 1.529 195 200 206 255
0.74501711 0.3261987 1.5250001 194 199 205 255
0.74581051 0.32473218 1.5180001 193 198 204 255
0.74558026 0.32283869 1.5090001 197 202 208 255
0.73514682 0.38693208 1.835 183 188 194 255
0.73945612 0.35100311 1.664 189 194 200 255
0.74000061 0.34912011 1.6550001 190 195 201 255
0.74049801 0.34723783 1.646 192 197 203 255
0.74140108 0.34556732 1.6380001 191 196 202 255
0.74226284 0.34389767 1.6300001 191 196 202 255
0.74216694 0.34180683 1.6200001 189 194 200 255
0.74386203 0.3405607 1.6140001 191 196 202 255
0.74413598 0.33868241 1.605 192 197 203 255
0.74622864 0.33764905 1.6 193 198 204 255
0.74501276 0.3351393 1.5880001 193 198 204 255
0.74514914 0.3332634 1.5790001 194 199 205 255
0.7442894 0.33096609 1.5680001 196 201 207 255
0.74384946 0.32888064 1.5580001 194 199 205 255
0.74335718 0.32679591 1.5480001 194 199 205 255
0.74377877 0.32513416 1.5400001 194 199 205 255
0.744645 0.32368439 1.5330001 196 201 207 255
0.74498707 0.32202426 1.5250001 195 200 206 255
0.74528819 0.32036495 1.5170001 195 200 206 255
0.74505424 0.31849521 1.508 194 199 205 255
0.73594654 0.38234752 1.8370001 183 188 194 255
0.73732519 0.38047603 1.8280001 185 190 196 255
0.73973411 0.34873676 1.6750001 189 194 200 255
0.73988581 0.34666869 1.6650001 190 195 201 255
0.74087918 0.34501782 1.6570001 189 194 200 255
0.74003172 0.3425349 1.6450001 190 195 201 255
0.74047852 0.34067735 1.636 188 193 199 255
0.74133384 0.33902887 1.628 191 196 202 255
0.74306405 0.3377977 1.6220001 191 196 202 255
0.74384195 0.33615083 1.6140001 191 196 202 255
0.74457872 0.33450478 1.6060001 192 197 203 255
0.74667323 0.33348438 1.6010001 192 197 203 255
0.74545908 0.33100674 1.5890001 195 200 206 255
0.74512541 0.32894641 1.5790001 194 199 205 255
0.74473953 0.32688686 1.5690001 192 197 203 255
0.74430138 0.324828 1.559 195 200 206 255
0.74381095 0.32276988 1.549 194 199 205 255
0.74375147 0.32092094 1.5400001 195 200 206 255
0.74413097 0.3192811 1.5320001 196 201 207 255
0.74544638 0.31805894 1.526 195 200 206 255
0.74525803 0.31621233 1.5170001 196 201 207 255
0.74551713 0.3145749 1.5090001 195 200 206 255
0.73292822 0.3783679 1.8420001 182 187 193 255
0.73754781 0.37816304 1.8410001 182 187 193 255
0.73611319 0.37487784 1.825 185 188 194 255
0.73987162 0.34212375 1.6650001 190 195 201 255
0.74175841 0.34090513 1.659 189 194 200 255
0.7400158 0.33804336 1.6450001 191 196 202 255
0.74046177 0.3362098 1.636 191 196 202 255
0.74131626 0.33458254 1.628 190 195 201 255
0.74350357 0.33357266 1.623 190 195 201 255
0.74290091 0.33133042 1.6120001 191 196 202 255
0.74363118 0.32970551 1.6040001 192 197 203 255
0.74525291 0.32849258 1.598 190 195 201 255
0.74449885 0.32625258 1.5870001 194 199 205 255
0.74415874 0.32421887 1.577 194 199 205 255
0.74376631 0.32218587 1.567 193 198 204 255
0.74427664 0.3205649 1.559 196 201 207 255
0.74426556 0.31873903 1.5500001 193 198 204 255
0.74372494 0.31670833 1.5400001 197 202 208 255
0.74410355 0.31508964 1.5320001 193 198 204 255
0.74395251 0.31326607 1.5230001 196 201 207 255
0.74424618 0.31164894 1.5150001 196 201 207 255
0.74400473 0.30982685 1.506 196 201 207 255
0.74119115 0.33818752 1.6680001 190 195 201 255
0.74219108 0.33657917 1.6600001 190 195 201 255
0.74090034 0.33395785 1.6470001 191 196 202 255
0.74044567 0.3317427 1.636 189 194 200 255
0.74129927 0.33013672 1.628 190 195 201 255
0.74348575 0.32913986 1.623 191 196 202 255
0.74380392 0.32733268 1.6140001 192 197 203 255
0.74361157 0.32532334 1.6040001 191 196 202 255
0.74429971 0.32372048 1.5960001 190 195 201 255
0.74447745 0.32191554 1.5870001 192 197 203 255
0.74508023 0.32031423 1.5790001 193 198 204 255
0.74421787 0.31810501 1.5680001 193 198 204 255
0.74377525 0.31609944 1.5580001 196 201 207 255
0.74376053 0.3142975 1.549 194 199 205 255
0.74369907 0.31249627 1.5400001 195 200 206 255
0.74310541 0.31049287 1.5300001 193 198 204 255
0.7434364 0.30889609 1.5220001 196 201 207 255
0.74421763 0.30750307 1.5150001 195 200 206 255
0.74397534 0.30570486 1.506 196 201 207 255
0.74013758 0.33522305 1.6760001 189 192 196 255
0.74162245 0.33383524 1.669 189 195 198 255
0.74217719 0.33204821 1.6600001 189 194 200 255
0.74133545 0.32966182 1.6480001 191 196 202 255
0.74178797 0.32787627 1.6390001 190 195 201 255
0.74219364 0.3260915 1.6300001 189 194 200 255
0.74346846 0.32470757 1.623 193 198 204 255
0.74378574 0.32292429 1.6140001 191 196 202 255
0.74359268 0.32094175 1.6040001 192 197 203 255
0.74381346 0.31915995 1.595 191 196 202 255
0.74351847 0.31717882 1.585 191 196 202 255
0.74505872 0.31599894 1.5790001 194 199 205 255
0.74419546 0.31381914 1.5680001 193 198 204 255
0.74422932 0.31204039 1.559 194 199 205 255
0.74373633 0.31006217 1.549 194 199 205 255
0.74415696 0.30848506 1.5410001 196 201 207 255
0.74307948 0.30630812 1.5300001 194 199 205 255
0.74292111 0.30453226 1.521 195 200 206 255
0.7432074 0.30295739 1.5130001 195 200 206 255
0.74295861 0.30118299 1.5040001 195 200 206 255
0.74100906 0.33104444 1.6780001 190 193 197 255
0.74116564 0.32908338 1.6680001 191 194 198 255
0.74126971 0.32712305 1.6580001 189 194 200 255
0.74132138 0.32516345 1.6480001 190 195 201 255
0.74132043 0.32320461 1.6380001 190 195 201 255
0.74217778 0.32164109 1.6300001 192 197 203 255
0.74345177 0.32027572 1.623 191 196 202 255
0.74468982 0.31891114 1.6160001 191 196 202 255
0.74450141 0.31695527 1.6060001 192 197 203 255
0.74472702 0.31519753 1.5970001 192 197 203 255
0.74349838 0.3128483 1.585 193 198 204 255
0.74456584 0.31148678 1.5780001 194 199 205 255
0.7432245 0.30913898 1.5660001 192 197 203 255
0.74372923 0.30758151 1.5580001 194 199 205 255
0.74323267 0.30563 1.5480001 193 198 204 255
0.74413258 0.30427149 1.5410001 193 198 204 255
0.74305415 0.30212387 1.5300001 194 199 205 255
0.74387181 0.30076694 1.5230001 196 201 207 255
0.74465394 0.2994107 1.516 196 202 205 255
0.74441266 0.29766029 1.5070001 195 201 204 255
0.73864692 0.3538183 1.8190001 184 190 193 255
0.73624772 0.3503184 1.8010001 185 188 192 255
0.74026501 0.32414281 1.6660001 191 194 198 255
0.74036276 0.32220918 1.6560001 190 193 197 255
0.7408579 0.32047093 1.6470001 190 196 199 255
0.74175858 0.31892797 1.6390001 190 196 199 255
0.74170727 0.3169966 1.6290001 190 195 201 255
0.74160349 0.31506592 1.6190001 190 195 201 255
0.74282974 0.31371984 1.6120001 192 198 201 255
0.74216586 0.31159601 1.6010001 192 197 203 255
0.74377567 0.31044602 1.595 193 199 202 255
0.74300992 0.30832365 1.5840001 194 197 203 255
0.74454552 0.30717525 1.5780001 195 198 204 255
0.74367797 0.30505431 1.567 194 197 203 255
0.74418473 0.30351809 1.559 196 199 205 255
0.74417013 0.30178791 1.5500001 196 199 205 255
0.74362594 0.29986373 1.5400001 196 199 205 255
0.74302965 0.29794025 1.5300001 196 199 205 255
0.74433476 0.29679647 1.524 198 201 205 255
0.7451188 0.29545873 1.5170001 198 201 205 255
0.74389148 0.29334265 1.506 197 200 204 255
0.74010408 0.32150465 1.6760001 189 192 196 255
0.73980927 0.31940526 1.6650001 191 194 198 255
0.73990345 0.31749845 1.6550001 190 193 197 255
0.74084491 0.31597605 1.6470001 190 196 199 255
0.74174476 0.31445441 1.6390001 191 197 200 255
0.7407819 0.31216604 1.6270001 191 196 202 255
0.74067193 0.31026211 1.6170001 190 195 201 255
0.74235255 0.30912644 1.6110001 192 198 201 255
0.74214876 0.30722395 1.6010001 191 196 202 255
0.74469036 0.30647361 1.5970001 193 198 204 255
0.74439836 0.30457258 1.5870001 193 196 200 255
0.74499774 0.30305618 1.5790001 195 198 204 255
0.74270838 0.30038881 1.5650001 196 199 205 255
0.74320865 0.29887375 1.557 196 199 205 255
0.74318773 0.29716754 1.5480001 194 197 203 255
0.74360299 0.29565397 1.5400001 199 202 208 255
0.74300581 0.29375717 1.5300001 197 200 206 255
0.74382168 0.29243708 1.5230001 196 199 203 255
0.74460196 0.29111776 1.516 196 199 203 255
0.74435896 0.28941515 1.5070001 196 199 203 255
0.73965234 0.31674346 1.6750001 191 194 198 255
0.73846531 0.31429538 1.6620001 190 193 197 255
0.73899758 0.31260443 1.6530001 191 194 198 255
0.74128222 0.31167072 1.6480001 192 195 199 255
0.74308908 0.31054866 1.6420001 192 195 199 255
0.74213374 0.30829254 1.6300001 190 196 199 255
0.74019897 0.30565882 1.6160001 192 195 199 255
0.74003291 0.30378231 1.6060001 193 196 200 255
0.73981446 0.30190653 1.5960001 192 195 199 255
0.74280775 0.30135563 1.5930001 193 196 200 255
0.743442 0.29985967 1.585 194 197 201 255
0.74450684 0.29855368 1.5780001 194 197 201 255
0.74268854 0.29611316 1.5650001 193 199 202 255
0.7436654 0.2948086 1.5580001 196 199 203 255
0.74508649 0.29369399 1.552 194 198 200 255
0.74454623 0.29182321 1.5420001 197 200 204 255
0.74298269 0.28957462 1.5300001 196 199 203 255
0.74282074 0.28789443 1.521 195 198 202 255
0.74408597 0.28678286 1.5150001 195 198 202 255
0.7438392 0.2851041 1.506 196 199 203 255
0.74032247 0.31440178 1.687 190 193 197 255
0.73920101 0.31198803 1.674 190 193 197 255
0.73712188 0.30920216 1.659 192 195 199 255
0.7385394 0.30790809 1.6520001 190 193 197 255
0.74082035 0.30698749 1.6470001 191 194 198 255
0.74352884 0.30625412 1.6430001 191 194 198 255
0.74120957 0.30347097 1.628 193 196 200 255
0.73926854 0.30087495 1.6140001 191 194 198 255
0.73909622 0.29902518 1.6040001 192 195 199 255
0.74165267 0.29829472 1.6 192 195 199 255
0.74372351 0.29737863 1.595 193 196 200 255
0.74436253 0.29590398 1.5870001 193 196 200 255
0.74448842 0.29424357 1.5780001 190 196 199 255
0.74409294 0.29239741 1.5680001 192 198 201 255
0.74507725 0.29111141 1.5610001 192 198 200 255
0.74602568 0.2898261 1.554 194 198 200 255
0.74452454 0.28760901 1.5420001 195 199 201 255
0.7429601 0.28539255 1.5300001 196 200 202 255
0.74328578 0.28392285 1.5220001 195 198 202 255
0.74504393 0.28301358 1.5170001 197 200 204 255
0.74628371 0.28191853 1.511 196 199 203 255
0.73304522 0.32279569 1.7580001 185 191 194 255
0.73545885 0.31968048 1.7410001 185 191 194 255
0.73638606 0.31803206 1.7320001 188 191 195 255
0.73897779 0.31711891 1.7270001 186 192 195 255
0.73919177 0.30742201 1.674 191 194 198 255
0.73711193 0.30467665 1.659 190 193 197 255
0.73942274 0.30376849 1.654 191 195 197 255
0.73990923 0.30212644 1.6450001 189 193 195 255
0.74215883 0.30121976 1.6400001 190 194 196 255
0.73983067 0.29847705 1.6250001 191 195 197 255
0.74017078 0.29683709 1.6160001 191 195 197 255
0.73954237 0.29483044 1.605 191 195 197 255
0.74256432 0.29429409 1.6020001 191 194 198 255
0.74324101 0.29284 1.5940001 191 194 198 255
0.74340737 0.29120284 1.585 192 198 201 255
0.74258345 0.28919899 1.5740001 192 198 201 255
0.74359977 0.28793076 1.567 192 198 201 255
0.74553496 0.28703073 1.562 193 199 202 255
0.74552536 0.28539649 1.5530001 193 197 199 255
0.7440207 0.28321156 1.5410001 197 201 203 255
0.74245262 0.2810272 1.529 197 201 203 255
0.74326313 0.27976254 1.5220001 196 199 203 255
0.74551141 0.27905011 1.5180001 196 199 203 255
0.74625915 0.27778694 1.511 197 200 204 255
0.73672253 0.31547755 1.7440001 183 189 192 255
0.73765725 0.31385335 1.7350001 187 190 194 255
0.7389726 0.31241071 1.7270001 187 193 195 255
0.74024618 0.31096882 1.7190001 187 193 195 255
0.74104464 0.30934668 1.71 189 193 195 255
0.74048769 0.30718255 1.6980001 189 192 196 255
0.73986715 0.30501911 1.6860001 188 191 195 255
0.74006623 0.30321816 1.6760001 187 190 194 255
0.73976833 0.30123696 1.6650001 190 193 197 255
0.74164772 0.30016106 1.659 190 194 196 255
0.74124759 0.2981813 1.6480001 190 196 198 255
0.74305212 0.29710686 1.6420001 191 195 197 255
0.74163926 0.29476652 1.6290001 191 195 197 255
0.74153155 0.2929697 1.6190001 192 196 198 255
0.7418322 0.29135454 1.6100001 191 195 197 255
0.74347651 0.29028293 1.6040001 190 194 196 255
0.74369156 0.28866914 1.595 190 193 197 255
0.74339086 0.28687507 1.585 192 195 199 255
0.74398142 0.28544366 1.577 190 196 199 255
0.74500519 0.28419402 1.5700001 192 198 201 255
0.74599344 0.28294513 1.5630001 194 200 202 255
0.74454558 0.2807917 1.5510001 194 198 200 255
0.74303454 0.27863893 1.539 195 199 201 255
0.74194586 0.2766678 1.5280001 195 199 201 255
0.74372941 0.27578381 1.5230001 196 199 203 255
0.74499738 0.27471948 1.5170001 197 200 204 255
0.74574161 0.27347481 1.5100001 197 200 204 255
0.73657721 0.31268099 1.7550001 186 192 195 255
0.73756409 0.31108031 1.7460001 186 192 195 255
0.7372281 0.30894575 1.7340001 187 191 193 255
0.74060512 0.30450612 1.7090001 188 192 192 255
0.74135298 0.30290884 1.7 189 193 195 255
0.74073708 0.3007777 1.6880001 188 192 194 255
0.74182403 0.29936001 1.6800001 188 192 194 255
0.74198073 0.29758659 1.6700001 188 191 195 255
0.743873 0.29652664 1.664 189 192 196 255
0.7421366 0.29404184 1.6500001 188 194 197 255
0.74258822 0.29244867 1.641 188 194 196 255
0.74162716 0.29032156 1.6290001 190 194 196 255
0.74289274 0.28908619 1.6220001 191 195 197 255
0.74320084 0.28749511 1.613 191 195 197 255
0.7429986 0.28572646 1.603 190 194 196 255
0.74274391 0.28395846 1.5930001 192 196 198 255
0.74290597 0.28236943 1.5840001 193 197 199 255
0.74396473 0.28113756 1.577 193 197 199 255
0.74498773 0.27990648 1.5700001 195 199 201 255
0.74549776 0.27849779 1.562 194 198 200 255
0.74452651 0.27655491 1.5510001 195 199 201 255
0.74349749 0.27461264 1.5400001 196 200 202 255
0.74338186 0.27302763 1.531 196 200 202 255
0.74419624 0.27180004 1.524 196 199 203 255
0.74448401 0.27039477 1.516 198 201 205 255
0.74374288 0.26863343 1.506 197 200 204 255
0.73657495 0.30789796 1.7550001 185 191 194 255
0.73629379 0.3057951 1.743 185 191 193 255
0.7350986 0.30334207 1.7290001 187 191 193 255
0.7372213 0.3003678 1.7120001 188 192 192 255
0.7392993 0.29932034 1.7060001 187 191 191 255
0.74134648 0.29827359 1.7 188 192 194 255
0.74248523 0.29687664 1.692 189 193 195 255
0.74314076 0.29530486 1.6830001 189 193 195 255
0.74286067 0.29338288 1.6720001 190 194 196 255
0.74431068 0.29216343 1.6650001 188 194 197 255
0.74257624 0.28971633 1.651 188 194 197 255
0.74257731 0.28797179 1.641 189 195 198 255
0.74116027 0.28570145 1.628 189 193 195 255
0.74242234 0.28448471 1.6210001 190 194 196 255
0.74364847 0.28326872 1.6140001 192 196 198 255
0.74437523 0.28187791 1.6060001 191 195 197 255
0.7450605 0.28048778 1.598 192 195 199 255
0.74523562 0.27892283 1.5890001 194 200 202 255
0.74583554 0.27753407 1.5810001 193 197 199 255
0.74591976 0.27597049 1.572 193 197 199 255
0.74643457 0.2745831 1.5640001 194 198 200 255
0.74450803 0.27231857 1.5510001 196 200 202 255
0.74299544 0.27023017 1.539 195 199 201 255
0.74384737 0.26902038 1.5320001 194 198 200 255
0.74417537 0.26763567 1.524 195 199 201 255
0.74397135 0.26607603 1.5150001 197 201 203 255
0.74322671 0.26434138 1.5050001 195 198 202 255
0.7361533 0.30294237 1.7540001 182 188 190 255
0.73959601 0.29294768 1.6960001 189 193 195 255
0.74072313 0.29157209 1.6880001 189 193 195 255
0.74225014 0.29036996 1.6810001 189 193 195 255
0.7419638 0.28847754 1.6700001 188 192 194 255
0.74340761 0.28727674 1.6630001 190 193 197 255
0.74256653 0.2852129 1.651 189 192 196 255
0.74166185 0.28314969 1.6390001 187 193 195 255
0.74023867 0.28091437 1.626 190 194 196 255
0.74195254 0.27988908 1.6200001 189 193 195 255
0.74363577 0.27886441 1.6140001 192 196 198 255
0.74528867 0.27784052 1.608 191 195 197 255
0.74691129 0.27681738 1.6020001 192 196 198 255
0.74756557 0.27544928 1.5940001 195 199 201 255
0.74723512 0.27373627 1.5840001 195 199 201 255
0.74780136 0.27236956 1.5760001 194 198 200 255
0.74641734 0.27031222 1.5640001 195 199 201 255
0.74593002 0.26860115 1.554 194 198 200 255
0.74442506 0.266545 1.5420001 195 199 201 255
0.7452845 0.2653538 1.5350001 194 198 200 255
0.74513167 0.26381749 1.526 197 201 203 255
0.74493229 0.26228186 1.5170001 197 201 203 255
0.74369872 0.26040107 1.506 198 201 205 255
0.7378459 0.28764373 1.692 186 192 194 255
0.73940021 0.28645962 1.6850001 188 194 196 255
0.74091834 0.2852762 1.6780001 187 193 195 255
0.74062306 0.28341335 1.6670001 189 193 195 255
0.74250501 0.28240129 1.6610001 186 192 195 255
0.74165767 0.28036973 1.649 189 193 195 255
0.74255687 0.27901891 1.641 189 193 195 255
0.74204892 0.27715874 1.6300001 190 194 194 255
0.74285698 0.27580923 1.6220001 189 193 193 255
0.74454504 0.27480054 1.6160001 190 194 194 255
0.74573928 0.27362251 1.6090001 190 194 194 255
0.74736381 0.27261525 1.603 191 195 197 255
0.74708217 0.27092838 1.5930001 193 197 199 255
0.74580473 0.268902 1.5810001 192 196 198 255
0.74588734 0.26738647 1.572 194 198 200 255
0.7459234 0.26587164 1.5630001 194 198 200 255
0.74639255 0.26452753 1.5550001 194 198 200 255
0.74537241 0.26267374 1.544 195 199 201 255
0.74478 0.26099071 1.534 194 198 200 255
0.745112 0.25964856 1.526 195 199 201 255
0.74540293 0.2583071 1.5180001 195 199 201 255
0.74515891 0.25679612 1.5090001 194 198 200 255
0.7393803 0.28904012 1.728 186 190 192 255
0.7382766 0.28319821 1.6930001 186 192 194 255
0.73914534 0.28003168 1.674 187 193 195 255
0.73972708 0.27853304 1.6650001 188 192 194 255
0.7411558 0.27736965 1.6580001 189 192 196 255
0.74164885 0.27587229 1.649 188 192 194 255
0.74209481 0.27437562 1.6400001 190 194 196 255
0.74294919 0.27304688 1.6320001 190 194 194 255
0.74284601 0.27138421 1.6220001 190 194 194 255
0.7445333 0.2703914 1.6160001 190 195 192 255
0.74433643 0.26873004 1.6060001 190 194 194 255
0.74548572 0.2675713 1.5990001 191 195 195 255
0.74519241 0.26591122 1.5890001 194 198 200 255
0.74531835 0.26441911 1.58 192 196 198 255
0.74539763 0.26292768 1.5710001 191 195 197 255
0.74495286 0.26126948 1.5610001 193 197 199 255
0.74685574 0.26044881 1.5560001 193 197 199 255
0.74632031 0.25879195 1.5460001 195 199 201 255
0.74573272 0.25713569 1.536 194 198 200 255
0.74460465 0.25531262 1.5250001 195 199 201 255
0.74489206 0.25399241 1.5170001 196 200 202 255
0.74415076 0.25233796 1.5070001 196 200 202 255
0.73743737 0.29880753 1.8160001 182 186 188 255
0.73624885 0.29633749 1.8010001 180 184 186 255
0.74061424 0.28663141 1.7420001 184 190 193 255
0.73894942 0.28416586 1.7270001 184 190 192 255
0.73827165 0.27858293 1.6930001 186 193 192 255
0.73807198 0.27677804 1.682 187 193 195 255
0.73869747 0.27530292 1.6730001 185 192 191 255
0.73927569 0.27382845 1.664 188 192 194 255
0.74025398 0.2725192 1.6560001 188 192 194 255
0.74029106 0.27088138 1.646 186 190 190 255
0.73982322 0.26907972 1.6350001 188 192 192 255
0.74111825 0.26793692 1.628 190 194 194 255
0.74283546 0.26695943 1.6220001 191 196 193 255
0.74544346 0.26631182 1.618 190 195 192 255
0.74478781 0.26451269 1.6070001 190 195 192 255
0.7440744 0.26271418 1.5960001 191 196 193 255
0.743303 0.26091623 1.585 191 195 195 255
0.74388903 0.2596128 1.577 193 197 197 255
0.74443382 0.25831005 1.5690001 191 195 197 255
0.74541444 0.25717255 1.562 193 197 199 255
0.74731928 0.25636503 1.557 193 197 199 255
0.74678594 0.25473493 1.5470001 193 197 199 255
0.74522936 0.25277609 1.5350001 194 198 200 255
0.74263304 0.25048843 1.521 195 199 201 255
0.74438173 0.2496836 1.516 195 199 201 255
0.74462444 0.2483853 1.508 197 201 203 255
0.73766303 0.27897355 1.7240001 183 189 191 255
0.73892355 0.27768192 1.7160001 185 191 193 255
0.73718905 0.27186894 1.6800001 186 192 194 255
0.73692524 0.27009434 1.669 185 192 191 255
0.73926902 0.26929137 1.664 189 193 195 255
0.73979956 0.2678417 1.6550001 190 194 196 255
0.74118257 0.26671636 1.6480001 187 191 191 255
0.73981452 0.26462057 1.6350001 189 193 193 255
0.74201941 0.26382023 1.6300001 190 194 194 255
0.74328327 0.2626968 1.623 190 195 192 255
0.74497193 0.26173595 1.6170001 190 195 192 255
0.74431288 0.2599664 1.6060001 191 196 193 255
0.74406207 0.25835931 1.5960001 191 195 195 255
0.74516594 0.25723851 1.5890001 193 197 197 255
0.74481887 0.2556327 1.5790001 193 197 197 255
0.74631715 0.25467506 1.5730001 192 196 198 255
0.74635375 0.25323242 1.5640001 192 196 198 255
0.74874336 0.25260001 1.5600001 194 198 200 255
0.74725205 0.25067285 1.5480001 194 198 200 255
0.74521208 0.24858433 1.5350001 195 199 201 255
0.74310338 0.24649632 1.5220001 194 198 200 255
0.74387199 0.24538064 1.5150001 195 199 201 255
0.74411124 0.24410363 1.5070001 196 200 202 255
0.73766065 0.274275 1.7240001 183 189 191 255
0.73848981 0.27284577 1.715 182 189 188 255
0.73710525 0.27062175 1.7010001 186 193 192 255
0.73718405 0.2672891 1.6800001 188 192 194 255
0.73780268 0.26586238 1.6710001 188 192 192 255
0.73881835 0.26459539 1.6630001 187 191 193 255
0.73979253 0.263329 1.6550001 188 192 194 255
0.74117488 0.26222241 1.6480001 187 191 191 255
0.74116361 0.26063907 1.6380001 189 193 193 255
0.74337602 0.25985196 1.6330001 190 194 194 255
0.74510539 0.25890639 1.6270001 188 195 194 255
0.74634361 0.2578024 1.6200001 190 194 194 255
0.74615562 0.25622159 1.6100001 190 194 194 255
0.74591506 0.25464135 1.6 190 194 194 255
0.74609137 0.25322095 1.5910001 191 195 195 255
0.74574906 0.25164196 1.5810001 191 195 195 255
0.74725211 0.25070027 1.575 193 197 197 255
0.74872506 0.24975929 1.5690001 193 197 197 255
0.74920791 0.24850059 1.5610001 190 194 194 255
0.74723601 0.24644648 1.5480001 191 195 195 255
0.74470991 0.2442337 1.534 193 197 199 255
0.74406242 0.24265835 1.524 195 199 201 255
0.74483579 0.24156125 1.5170001 196 200 202 255
0.74458611 0.24014634 1.508 195 199 201 255
0.74478638 0.2388913 1.5000001 195 199 201 255
0.73848307 0.27160758 1.7370001 182 189 188 255
0.73808628 0.26973289 1.725 184 191 190 255
0.73762584 0.26785886 1.7130001 183 190 189 255
0.73666853 0.26582903 1.7 185 192 191 255
0.73738635 0.26442531 1.6910001 186 193 192 255
0.73761815 0.26286581 1.6810001 186 192 194 255
0.73823881 0.26146328 1.6720001 186 190 192 255
0.73881245 0.26006141 1.6630001 188 192 194 255
0.73889196 0.25850374 1.6530001 186 190 192 255
0.74071771 0.25757223 1.6470001 187 191 191 255
0.7420606 0.25648499 1.6400001 189 193 193 255
0.74427778 0.2557112 1.6350001 189 193 193 255
0.74555403 0.2546252 1.628 189 193 193 255
0.74541211 0.25307062 1.618 190 194 194 255
0.74568141 0.2516731 1.6090001 190 194 194 255
0.74683613 0.25058901 1.6020001 191 195 195 255
0.74701709 0.24919273 1.5930001 192 196 196 255
0.74620789 0.24748415 1.582 191 195 195 255
0.74676424 0.24624552 1.5740001 189 193 193 255
0.74727935 0.24500751 1.5660001 190 194 194 255
0.74727315 0.24361363 1.557 193 197 197 255
0.74577236 0.241751 1.5450001 194 198 198 255
0.7456646 0.24035832 1.536 195 199 201 255
0.74697477 0.23943573 1.5300001 194 198 200 255
0.74678206 0.23804429 1.521 195 199 201 255
0.74555528 0.23634043 1.5100001 196 200 202 255
0.74476725 0.23479365 1.5000001 196 200 200 255
0.73805654 0.26672044 1.7360001 184 191 190 255
0.73808438 0.26503187 1.725 181 188 185 255
0.7384845 0.26349753 1.715 183 190 189 255
0.73796535 0.26165652 1.7030001 184 191 190 255
0.73825461 0.2601234 1.6930001 186 193 192 255
0.73893011 0.25874454 1.6840001 184 191 190 255
0.7395584 0.25736627 1.6750001 183 189 191 255
0.73747385 0.25506666 1.6600001 186 190 190 255
0.7370975 0.25338224 1.649 186 190 190 255
0.73756272 0.25200582 1.6400001 187 191 191 255
0.73933804 0.25109091 1.6340001 188 192 192 255
0.74199337 0.25048402 1.6300001 189 193 193 255
0.74325526 0.24941671 1.623 190 194 194 255
0.74494177 0.24850374 1.6170001 191 195 195 255
0.74474418 0.24697667 1.6070001 189 193 193 255
0.74729127 0.24637233 1.603 192 196 198 255
0.74606752 0.24453907 1.5910001 191 195 195 255
0.7457239 0.2430138 1.5810001 192 196 196 255
0.74485344 0.24133536 1.5700001 191 195 195 255
0.74678844 0.24057989 1.5650001 193 197 197 255
0.74533916 0.23874894 1.5530001 192 196 196 255
0.74430919 0.23707224 1.5420001 193 197 197 255
0.7456488 0.23616485 1.536 191 195 195 255
0.74793476 0.23556569 1.5320001 193 197 197 255
0.74774694 0.23419838 1.5230001 195 199 199 255
0.74603117 0.23237023 1.511 195 199 199 255
0.74524528 0.23085022 1.501 196 200 200 255
0.73722696 0.26002914 1.723 183 190 187 255
0.73762107 0.25852183 1.7130001 183 190 189 255
0.73666245 0.25656229 1.7 184 191 190 255
0.73737901 0.25520709 1.6910001 182 189 188 255
0.73892599 0.25415429 1.6840001 175 182 181 255
0.73955363 0.25280026 1.6750001 182 188 190 255
0.73835707 0.25084311 1.6620001 185 189 189 255
0.73798561 0.24918839 1.651 187 191 191 255
0.73890531 0.24798708 1.6430001 187 191 191 255
0.74023581 0.24693729 1.636 189 193 193 255
0.7415303 0.24588811 1.6290001 186 193 192 255
0.74278873 0.24483956 1.6220001 190 194 194 255
0.74493253 0.24409351 1.6170001 187 191 191 255
0.74473423 0.2425933 1.6070001 189 193 193 255
0.74588209 0.24154662 1.6 190 194 196 255
0.7451185 0.23989664 1.5890001 191 195 197 255
0.74429697 0.23824722 1.5780001 192 196 198 255
0.74484092 0.23705132 1.5700001 192 196 196 255
0.74438936 0.23555405 1.5600001 192 196 196 255
0.74484527 0.23435935 1.552 192 196 196 255
0.74429464 0.23286323 1.5420001 195 200 197 255
0.74757534 0.23257585 1.5400001 193 198 195 255
0.74840701 0.23153406 1.5330001 193 197 197 255
0.74822116 0.23019077 1.524 195 199 199 255
0.74650759 0.22839494 1.5120001 196 200 200 255
0.74622023 0.22705276 1.503 196 200 200 255
0.7355141 0.25474104 1.7190001 183 190 189 255
0.735466 0.25311252 1.7080001 183 190 189 255
0.7362265 0.25178096 1.6990001 184 191 190 255
0.73650372 0.25030181 1.6890001 179 186 185 255
0.73892218 0.24956422 1.6840001 183 190 189 255
0.73910761 0.24808621 1.674 184 191 190 255
0.73968482 0.24675702 1.6650001 187 191 191 255
0.73976791 0.24528022 1.6550001 185 192 191 255
0.74159729 0.24439681 1.649 187 191 191 255
0.74203861 0.24306937 1.6400001 187 194 193 255
0.74288827 0.24189076 1.6320001 185 192 191 255
0.74415433 0.24086094 1.6250001 187 194 193 255
0.7463057 0.2401282 1.6200001 188 192 192 255
0.74611503 0.23865493 1.6100001 190 194 194 255
0.74633813 0.23733047 1.6010001 190 194 194 255
0.74604547 0.23585834 1.5910001 190 194 194 255
0.74617219 0.23453504 1.582 192 196 196 255
0.74625206 0.23321231 1.5730001 191 198 197 255
0.74628532 0.23189022 1.5640001 193 197 197 255
0.74627167 0.23056866 1.5550001 191 196 193 255
0.74572861 0.22909938 1.5450001 192 197 194 255
0.74658972 0.22807558 1.5380001 190 195 192 255
0.74643874 0.22675575 1.529 191 195 195 255
0.74476844 0.22499157 1.5170001 193 197 197 255
0.74451596 0.22367288 1.508 195 199 199 255
0.74471337 0.2225031 1.5000001 195 199 199 255
0.73337352 0.24932933 1.7140001 177 184 183 255
0.7341724 0.24802147 1.705 180 187 186 255
0.73622417 0.24715064 1.6990001 185 192 191 255
0.73693675 0.24584395 1.6900001 186 193 192 255
0.7397961 0.24526519 1.6860001 183 190 189 255
0.7399866 0.24381422 1.6760001 184 191 190 255
0.74234551 0.24309115 1.6710001 185 192 191 255
0.74289137 0.24178681 1.6620001 184 191 190 255
0.74428958 0.24077401 1.6550001 185 192 191 255
0.74384189 0.23917985 1.6440001 186 193 192 255
0.7447018 0.23802273 1.636 186 193 192 255
0.74552029 0.23686621 1.628 187 194 193 255
0.74675792 0.23585576 1.6210001 189 193 193 255
0.74610591 0.23426385 1.6100001 190 194 194 255
0.74632835 0.23296358 1.6010001 189 193 193 255
0.74791074 0.23210041 1.595 189 193 193 255
0.74851948 0.23094684 1.5870001 189 196 195 255
0.74813807 0.22950277 1.577 191 198 197 255
0.74627298 0.22762264 1.5640001 190 194 194 255
0.74673849 0.22647075 1.5560001 191 195 195 255
0.74668026 0.22517391 1.5470001 193 197 197 255
0.74706084 0.22402319 1.539 194 198 198 255
0.74691206 0.22272749 1.5300001 193 197 197 255
0.74524385 0.2209956 1.5180001 193 197 199 255
0.74499339 0.21970098 1.5090001 195 199 201 255
0.73421252 0.25808749 1.8080001 178 185 184 255
0.73337257 0.24465866 1.7140001 181 188 187 255
0.73589331 0.24394611 1.7090001 182 189 188 255
0.73882204 0.24337685 1.705 182 189 188 255
0.73955047 0.24209447 1.6960001 182 189 188 255
0.74023157 0.24081263 1.687 184 191 190 255
0.7404241 0.23938864 1.677 185 192 191 255
0.74145252 0.23825072 1.669 184 191 190 255
0.74154532 0.23682787 1.659 183 190 189 255
0.74203533 0.23554832 1.6500001 185 192 191 255
0.74247819 0.23426932 1.641 185 192 191 255
0.74469489 0.23356199 1.636 185 192 191 255
0.74505478 0.23228417 1.6270001 187 194 193 255
0.74536771 0.23100692 1.618 188 195 194 255
0.74563372 0.22973023 1.6090001 189 196 195 255
0.7467851 0.22873969 1.6020001 190 194 194 255
0.74883848 0.22803532 1.5970001 191 195 195 255
0.7489804 0.22676037 1.5880001 189 196 193 255
0.74812675 0.22520038 1.577 189 196 195 255
0.746261 0.22335531 1.5640001 190 194 194 255
0.74672598 0.22222485 1.5560001 192 196 196 255
0.74714977 0.22109495 1.5480001 194 198 198 255
0.74656159 0.21967995 1.5380001 193 197 197 255
0.74592113 0.2182655 1.5280001 194 198 198 255
0.74522865 0.21685158 1.5180001 194 198 200 255
0.74497765 0.21558104 1.5090001 194 198 200 255
0.73615015 0.24558923 1.7540001 178 185 182 255
0.73543584 0.24376829 1.7410001 180 187 184 255
0.73337686 0.24152787 1.725 182 189 188 255
0.73379964 0.24012809 1.715 179 186 183 255
0.73589194 0.23928894 1.7090001 182 189 188 255
0.73882008 0.23873039 1.705 181 188 187 255
0.74085617 0.23789237 1.6990001 183 190 189 255
0.74022847 0.23621474 1.687 183 190 189 255
0.74086201 0.2349578 1.6780001 183 190 189 255
0.74055982 0.23342134 1.6670001 183 190 189 255
0.74109358 0.2321655 1.6580001 186 190 190 255
0.74068081 0.23063014 1.6470001 186 190 190 255
0.74247223 0.22979549 1.641 186 193 192 255
0.74377793 0.2288214 1.6340001 185 192 191 255
0.74413174 0.22756779 1.6250001 186 193 192 255
0.74397784 0.2261747 1.6150001 187 194 193 255
0.74516183 0.22520229 1.608 187 194 193 255
0.74630982 0.22423045 1.6010001 187 194 193 255
0.74835992 0.22353937 1.5960001 188 195 194 255
0.74802679 0.22214851 1.5860001 188 195 194 255
0.74764138 0.22075821 1.5760001 192 196 196 255
0.74577236 0.2189482 1.5630001 190 194 194 255
0.74623388 0.21783914 1.5550001 190 197 196 255
0.74761963 0.21701083 1.549 191 197 199 255
0.74800438 0.21590291 1.5410001 192 196 196 255
0.74785972 0.21465543 1.5320001 193 197 197 255
0.74717772 0.21326838 1.5220001 194 198 198 255
0.7469371 0.21202201 1.5130001 194 198 198 255
0.74516058 0.21035573 1.501 194 198 198 255
0.73387808 0.24163546 1.7600001 178 185 182 255
0.73279363 0.23971191 1.7460001 179 186 183 255
0.73247939 0.23806356 1.7340001 181 188 185 255
0.73337686 0.2368276 1.725 181 188 187 255
0.73465478 0.23572946 1.7170001 179 186 183 255
0.73718262 0.23504376 1.7120001 181 188 187 255
0.73881835 0.23408401 1.705 182 189 188 255
0.74041784 0.23312484 1.6980001 183 190 189 255
0.73847061 0.23106784 1.6830001 185 192 191 255
0.73909259 0.22983514 1.674 182 189 188 255
0.73744619 0.22791652 1.6600001 182 189 188 255
0.73930103 0.2270968 1.654 183 190 189 255
0.73977625 0.22586577 1.6450001 182 189 186 255
0.74246651 0.2253218 1.641 183 190 187 255
0.74422681 0.22450382 1.6350001 187 191 191 255
0.74595654 0.22368637 1.6290001 189 193 193 255
0.74535233 0.22218291 1.618 188 192 192 255
0.74608058 0.22109199 1.6100001 186 193 192 255
0.74630117 0.21986426 1.6010001 187 194 193 255
0.74741274 0.21891175 1.5940001 188 195 194 255
0.746602 0.21741048 1.5830001 189 196 195 255
0.74668211 0.21618438 1.5740001 188 195 194 255
0.74671549 0.21495886 1.5650001 188 195 194 255
0.74718189 0.21387121 1.557 190 196 198 255
0.74905515 0.21319625 1.552 191 197 199 255
0.74799144 0.21169764 1.5410001 192 196 196 255
0.7473579 0.21033686 1.531 192 199 198 255
0.74667251 0.20897669 1.521 192 196 196 255
0.7474159 0.20802918 1.5140001 192 199 198 255
0.74713081 0.20680745 1.5050001 194 201 198 255
0.73096097 0.23589833 1.7530001 178 185 182 255
0.72859782 0.23360911 1.7360001 179 186 185 255
0.72910076 0.23226243 1.7260001 179 186 185 255
0.73082614 0.23131998 1.7190001 180 187 186 255
0.73294294 0.2305126 1.7130001 179 186 185 255
0.73632056 0.23010945 1.71 182 189 188 255
0.73795021 0.22916859 1.7030001 182 189 188 255
0.73910767 0.22809371 1.6950001 184 191 190 255
0.73846805 0.22648108 1.6830001 181 188 187 255
0.73820645 0.22500354 1.6720001 183 190 189 255
0.7369982 0.22325738 1.659 182 189 188 255
0.73929679 0.22258836 1.654 183 190 189 255
0.74067086 0.22165075 1.6470001 185 192 189 255
0.74246109 0.22084826 1.641 184 191 188 255
0.74331051 0.2197772 1.6330001 184 191 190 255
0.74640787 0.21937956 1.6300001 185 192 191 255
0.74626648 0.21804038 1.6200001 186 193 192 255
0.74607283 0.21670175 1.6100001 186 193 192 255
0.74536055 0.21522903 1.5990001 186 193 192 255
0.7464661 0.21429527 1.5920001 188 195 194 255
0.74612081 0.2129582 1.582 188 195 194 255
0.74572313 0.21162167 1.572 187 194 193 255
0.74622762 0.21055494 1.5640001 189 196 195 255
0.74717063 0.20962337 1.557 190 197 196 255
0.74807793 0.20869237 1.5500001 190 197 196 255
0.74700803 0.20722331 1.539 192 196 196 255
0.74588042 0.20575477 1.5280001 191 195 195 255
0.74714965 0.20496005 1.5220001 194 198 198 255
0.74789518 0.20403121 1.5150001 192 199 196 255
0.74761224 0.20283359 1.506 193 200 197 255
0.72955096 0.22624058 1.7160001 180 187 186 255
0.7329427 0.2258449 1.7130001 180 187 186 255
0.73631978 0.22544977 1.71 180 187 186 255
0.73708236 0.22426414 1.7010001 180 187 186 255
0.73823375 0.22321084 1.6930001 182 189 186 255
0.73802686 0.22176251 1.682 182 189 188 255
0.73776203 0.22031477 1.6710001 181 188 187 255
0.73788327 0.21899939 1.6610001 183 190 189 255
0.74018687 0.21834375 1.6560001 183 190 189 255
0.74111599 0.21729311 1.6480001 183 190 187 255
0.7420035 0.21624298 1.6400001 183 190 187 255
0.74284953 0.21519342 1.6320001 183 190 187 255
0.74685937 0.21506742 1.631 184 191 188 255
0.74810231 0.21415082 1.6240001 186 193 192 255
0.7465288 0.21244355 1.6110001 186 193 192 255
0.74442029 0.21060488 1.5970001 187 194 193 255
0.74505079 0.20955798 1.5890001 187 194 193 255
0.74658328 0.20877539 1.5830001 187 194 193 255
0.7466622 0.20759766 1.5740001 188 195 194 255
0.74669439 0.2064205 1.5650001 188 195 194 255
0.74715966 0.20537573 1.557 189 196 195 255
0.74758375 0.2043315 1.549 189 196 195 255
0.74699587 0.20302399 1.539 192 196 196 255
0.74684399 0.20184889 1.5300001 193 197 197 255
0.7481181 0.20107013 1.524 194 198 198 255
0.74788117 0.1998961 1.5150001 194 201 200 255
0.74710137 0.19859065 1.5050001 192 199 196 255
0.7329427 0.22117732 1.7130001 179 186 185 255
0.73545802 0.22053197 1.7080001 177 184 183 255
0.73621458 0.21937065 1.6990001 180 187 186 255
0.73736 0.21833897 1.6910001 182 189 186 255
0.73802471 0.2171787 1.682 180 187 184 255
0.7373178 0.21563156 1.6700001 182 189 186 255
0.73832428 0.21460147 1.6620001 181 188 185 255
0.74062991 0.21395922 1.6570001 183 190 187 255
0.74201101 0.21305926 1.6500001 183 190 187 255
0.74335599 0.21215989 1.6430001 184 191 188 255
0.74375451 0.21100269 1.6340001 185 192 189 255
0.74639553 0.21049176 1.6300001 186 191 188 255
0.74717438 0.2094648 1.6220001 185 192 189 255
0.74652165 0.20805094 1.6110001 184 191 188 255
0.74581099 0.20663758 1.6 187 194 191 255
0.74598032 0.20548305 1.5910001 185 192 189 255
0.74751765 0.20471649 1.585 188 195 192 255
0.74807584 0.20369214 1.577 187 194 191 255
0.74811578 0.20253918 1.5680001 189 196 193 255
0.7481088 0.20138669 1.559 189 196 193 255
0.7461248 0.19971803 1.5460001 190 197 196 255
0.74698424 0.19882494 1.539 192 196 196 255
0.74683172 0.19767401 1.5300001 191 195 195 255
