ply
format ascii 1.0
comment PCL generated
element vertex 973
property float x
property float y
property float z
property uchar red
property uchar green
property uchar blue
property uchar alpha
element camera 0
property float view_px
property float view_py
property float view_pz
property float x_axisx
property float x_axisy
property float x_axisz
property float y_axisx
property float y_axisy
property float y_axisz
property float z_axisx
property float z_axisy
property float z_axisz
property float focal
property float scalex
property float scaley
property float centerx
property float centery
property int viewportx
property int viewporty
property float k1
property float k2
end_header
0.68367499 -0.081562564 1.608 19 22 8 255
0.68547881 -0.081256986 1.6020001 23 27 10 255
0.68811268 -0.081053033 1.598 22 26 9 255
0.69245952 -0.081052147 1.598 25 27 9 255
0.69898814 -0.081305064 1.603 27 29 11 255
0.70642328 -0.081659615 1.6100001 25 27 9 255
0.71124899 -0.081710026 1.6110001 24 28 11 255
0.71608204 -0.081760652 1.6120001 16 22 5 255
0.71779364 -0.081456438 1.6060001 74 83 71 255
0.72082347 -0.08130458 1.603 140 150 139 255
0.72383869 -0.081152938 1.6 163 172 165 255
0.7272948 -0.081052236 1.598 166 175 168 255
0.73074204 -0.080951735 1.5960001 169 178 171 255
0.7309562 -0.080496408 1.5870001 170 179 172 255
0.73158669 -0.080091998 1.5790001 173 181 174 255
0.72984535 -0.079434186 1.5660001 174 181 177 255
0.72991037 -0.078979462 1.557 177 184 180 255
0.73134309 -0.07867714 1.5510001 178 185 181 255
0.73274517 -0.078375019 1.5450001 177 184 180 255
0.73363996 -0.078022391 1.5380001 178 185 182 255
0.73353922 -0.077568501 1.529 177 184 181 255
0.73290932 -0.077064097 1.5190001 179 186 183 255
0.73271239 -0.076610625 1.5100001 181 188 185 255
-0.99212945 -0.097312838 1.817 24 25 11 255
-0.9285112 -0.092931747 1.7360001 29 31 14 255
-0.96783799 -0.097364657 1.8190001 26 28 11 255
-0.9521907 -0.096284375 1.7990001 19 21 4 255
-0.97562087 -0.099164851 1.853 17 18 4 255
-0.95266759 -0.097336218 1.8190001 21 22 8 255
-0.93355441 -0.095882848 1.7920001 26 22 11 255
-0.93117714 -0.096142121 1.7970001 23 22 8 255
-0.95248562 -0.098862581 1.848 14 13 0 255
-0.94532061 -0.098640881 1.8440001 55 41 24 255
-0.93971127 -0.098580018 1.8430001 129 101 83 255
-0.93309754 -0.098412544 1.84 119 86 65 255
-0.93104368 -0.098726794 1.8460001 90 57 36 255
-0.92494762 -0.098613501 1.8440001 90 58 35 255
-0.92086184 -0.098714478 1.8460001 90 58 35 255
-0.91577667 -0.098708831 1.8460001 87 63 37 255
-0.91464174 -0.099131256 1.8540001 79 55 27 255
-0.91248524 -0.099447042 1.8600001 75 51 23 255
-0.90883559 -0.099602729 1.863 76 54 26 255
-0.90468776 -0.099705257 1.8650001 72 53 24 255
-0.8986029 -0.09959425 1.863 64 49 20 255
-0.89349145 -0.09959048 1.863 56 43 16 255
-0.88647574 -0.099373206 1.8590001 45 31 7 255
-0.88138133 -0.099370047 1.8590001 54 41 17 255
-0.8767612 -0.099420637 1.8600001 50 37 13 255
-0.87166989 -0.099418066 1.8600001 55 42 15 255
-0.86611539 -0.099362336 1.8590001 50 37 10 255
-0.86056906 -0.099306889 1.858 55 42 15 255
-0.85641217 -0.099412069 1.8600001 64 51 22 255
-0.85316217 -0.09962441 1.8640001 70 54 28 255
-0.84898293 -0.099730119 1.8660001 70 54 28 255
-0.84389061 -0.099729203 1.8660001 72 56 33 255
-0.83565384 -0.099354424 1.8590001 60 47 24 255
-0.82656413 -0.098873034 1.8500001 239 232 212 255
-0.75513554 -0.091444165 1.7110001 221 230 211 255
-0.73556298 -0.089627355 1.677 209 219 204 255
-0.72707474 -0.089146882 1.6680001 210 220 205 255
-0.72123623 -0.088987291 1.6650001 199 209 194 255
-0.71455467 -0.088721007 1.6600001 190 200 183 255
-0.70790195 -0.088454917 1.6550001 183 194 175 255
-0.70170283 -0.088242479 1.651 182 193 174 255
-0.6963715 -0.08813712 1.649 179 188 167 255
-0.69147205 -0.088085406 1.6480001 176 185 164 255
-0.68532854 -0.087873511 1.6440001 167 176 155 255
-0.68127877 -0.087929048 1.6450001 169 179 156 255
-0.67599058 -0.087824427 1.6430001 163 173 148 255
-0.67194039 -0.087880328 1.6440001 160 170 145 255
-0.66626191 -0.087722585 1.641 154 164 139 255
-0.66181058 -0.087725386 1.641 151 161 135 255
-0.65695959 -0.087674879 1.6400001 153 163 138 255
-0.65211505 -0.087624542 1.6390001 154 164 139 255
-0.64767188 -0.087627828 1.6390001 154 164 139 255
-0.64283699 -0.08757779 1.6380001 158 168 143 255
-0.63800848 -0.087527908 1.6370001 148 158 133 255
-0.63279897 -0.08742471 1.6350001 155 163 138 255
-0.62875396 -0.087482058 1.636 139 147 122 255
-0.62470412 -0.087539554 1.6370001 139 147 121 255
-0.62027061 -0.087543726 1.6370001 140 148 122 255
-0.6162138 -0.087601513 1.6380001 143 151 125 255
-0.61177856 -0.087605961 1.6380001 145 153 127 255
-0.60697305 -0.087557048 1.6370001 139 147 121 255
-0.60180527 -0.087454766 1.6350001 139 148 119 255
-0.59701401 -0.087406084 1.6340001 140 151 122 255
-0.59259135 -0.087411031 1.6340001 136 145 116 255
-0.58852875 -0.087469585 1.6350001 142 150 124 255
-0.58446097 -0.087528251 1.636 146 156 130 255
-0.58003354 -0.087533541 1.636 150 158 132 255
-0.57525444 -0.087485425 1.6350001 147 155 129 255
-0.57013178 -0.087383911 1.6330001 144 154 128 255
-0.56536645 -0.087335996 1.6320001 146 154 128 255
-0.56129402 -0.087395206 1.6330001 146 156 130 255
-0.55687523 -0.087400995 1.6330001 154 164 138 255
-0.55245644 -0.087406889 1.6330001 159 171 146 255
-0.54770201 -0.087359339 1.6320001 156 168 143 255
-0.54328585 -0.087365396 1.6320001 145 155 129 255
-0.5382092 -0.087264478 1.6300001 122 132 106 255
-0.53445321 -0.087377779 1.6320001 124 135 104 255
-0.53003669 -0.087384097 1.6320001 135 144 113 255
-0.52561992 -0.087390482 1.6320001 181 190 159 255
-0.51992553 -0.08718273 1.628 177 187 154 255
-0.5148859 -0.08708214 1.626 159 168 137 255
-0.51017076 -0.087035164 1.6250001 163 172 141 255
-0.50577193 -0.087041795 1.6250001 170 179 148 255
-0.5010643 -0.086994939 1.6240001 167 178 147 255
-0.4960559 -0.086894535 1.6220001 156 167 138 255
-0.49105799 -0.086794198 1.6200001 145 156 127 255
-0.48607048 -0.086693875 1.618 147 158 129 255
-0.48168877 -0.08670076 1.618 145 156 125 255
-0.47730666 -0.086707704 1.618 141 150 119 255
-0.47263184 -0.0866611 1.6170001 130 139 108 255
-0.46796194 -0.086614527 1.6160001 136 145 114 255
-0.46329698 -0.08656799 1.6150001 137 146 115 255
-0.45892102 -0.086575076 1.6150001 136 145 114 255
-0.45398161 -0.086474977 1.613 130 139 108 255
-0.44961002 -0.08648213 1.613 143 152 123 255
-0.44551378 -0.086542927 1.6140001 160 169 140 255
-0.44113824 -0.086550131 1.6140001 161 169 143 255
-0.43622094 -0.086450107 1.6120001 152 160 134 255
-0.43131384 -0.086350098 1.6100001 128 136 110 255
-0.42641687 -0.086250059 1.608 131 139 113 255
-0.42179263 -0.086203694 1.6070001 157 166 137 255
-0.4174329 -0.086210974 1.6070001 131 140 111 255
-0.41332948 -0.086271897 1.608 128 137 108 255
-0.40871131 -0.086225554 1.6070001 126 135 104 255
-0.40460107 -0.086286508 1.608 130 139 108 255
-0.4002358 -0.086293817 1.608 138 147 116 255
-0.39611596 -0.086354792 1.6090001 150 159 128 255
-0.39101604 -0.086201087 1.6060001 135 146 117 255
-0.38641316 -0.086154692 1.605 136 146 120 255
-0.38181499 -0.086108297 1.6040001 150 160 134 255
-0.37722144 -0.086061887 1.603 147 157 132 255
-0.37239996 -0.085961767 1.6010001 151 161 135 255
-0.36781839 -0.08591529 1.6 137 147 121 255
-0.36324149 -0.085868813 1.5990001 147 158 129 255
-0.35889369 -0.08587601 1.5990001 138 149 120 255
-0.35454506 -0.085883185 1.5990001 147 158 129 255
-0.34997657 -0.085836619 1.598 127 138 107 255
-0.34562898 -0.085843734 1.598 128 139 108 255
-0.34106705 -0.085797124 1.5970001 160 171 142 255
-0.3367205 -0.085804179 1.5970001 132 141 112 255
-0.33237314 -0.085811213 1.5970001 125 134 103 255
-0.32802495 -0.085818216 1.5970001 140 149 118 255
-0.32367596 -0.08582519 1.5970001 138 147 116 255
-0.31932604 -0.085832104 1.5970001 136 146 113 255
-0.31477803 -0.08578524 1.5960001 137 147 114 255
-0.31042919 -0.085792087 1.5960001 142 152 117 255
-0.30607945 -0.085798882 1.5960001 134 144 109 255
-0.30172887 -0.085805632 1.5960001 131 139 104 255
-0.29737744 -0.085812338 1.5960001 136 144 109 255
-0.29320872 -0.085872762 1.5970001 141 148 116 255
-0.28849113 -0.085771821 1.595 141 148 116 255
-0.28413987 -0.085778363 1.595 138 145 114 255
-0.2796123 -0.085731067 1.5940001 138 145 114 255
-0.27543476 -0.085791282 1.595 133 140 109 255
-0.27108097 -0.085797653 1.595 135 142 111 255
-0.26689354 -0.085857756 1.5960001 129 136 105 255
-0.26286435 -0.085971616 1.598 127 137 104 255
-0.25817627 -0.085870199 1.5960001 139 149 116 255
-0.25365734 -0.085822508 1.595 134 143 112 255
-0.24929939 -0.08582855 1.595 130 139 108 255
-0.24494062 -0.085834533 1.595 129 139 106 255
-0.24073185 -0.085894257 1.5960001 123 133 100 255
-0.23651682 -0.085953914 1.5970001 128 135 103 255
-0.2322955 -0.086013488 1.598 128 135 103 255
-0.22821057 -0.086126834 1.6 131 136 104 255
-0.22383408 -0.086132452 1.6 137 145 110 255
-0.22000551 -0.086353339 1.6040001 133 141 106 255
-0.21575101 -0.086412631 1.605 125 133 98 255
-0.21135858 -0.086418018 1.605 129 137 102 255
-0.20657851 -0.086261787 1.6020001 132 139 107 255
-0.20219278 -0.086266987 1.6020001 141 148 116 255
-0.19805323 -0.086379796 1.6040001 140 147 116 255
-0.1940228 -0.086546399 1.6070001 132 141 110 255
-0.19032916 -0.086874492 1.613 126 136 103 255
-0.18671724 -0.087256409 1.6200001 125 135 102 255
-0.18317874 -0.087692104 1.628 126 136 103 255
-0.17959574 -0.088127784 1.636 116 128 85 255
-0.17596821 -0.088563398 1.6440001 139 148 117 255
-0.17240044 -0.089052826 1.6530001 140 147 118 255
-0.1686811 -0.08948832 1.6610001 141 147 121 255
-0.16501607 -0.089977637 1.6700001 108 113 91 255
-0.16110891 -0.090359136 1.677 37 42 20 255
-0.15688272 -0.090578906 1.6810001 34 39 18 255
-0.15254341 -0.090744704 1.6840001 46 50 32 255
-0.14801133 -0.090802625 1.6850001 48 52 34 255
-0.14355828 -0.090914316 1.687 45 49 31 255
-0.13909368 -0.091025919 1.6890001 49 53 35 255
-0.13461755 -0.091137417 1.6910001 50 54 36 255
-0.12989931 -0.09108711 1.6900001 50 54 36 255
-0.12511191 -0.09098278 1.6880001 56 60 43 255
-0.12033498 -0.09087833 1.6860001 61 65 48 255
-0.11563716 -0.090827651 1.6850001 59 62 48 255
-0.11087848 -0.090722948 1.6830001 59 62 48 255
-0.10613034 -0.090618119 1.6810001 61 65 48 255
-0.10145313 -0.090567067 1.6800001 59 63 46 255
-0.096838638 -0.090569809 1.6800001 57 63 46 255
-0.092333518 -0.090680242 1.682 55 60 46 255
-0.087712735 -0.090682738 1.682 52 57 43 255
-0.083091579 -0.090685107 1.682 54 59 45 255
-0.078470081 -0.090687349 1.682 54 59 47 255
-0.073892161 -0.090743393 1.6830001 54 57 45 255
-0.069267273 -0.090745382 1.6830001 51 54 40 255
-0.064680494 -0.090801172 1.6840001 53 56 42 255
-0.059980966 -0.090695068 1.682 51 54 40 255
-0.05539092 -0.090750612 1.6830001 49 54 40 255
-0.050704639 -0.090644248 1.6810001 52 57 43 255
-0.046111383 -0.090699531 1.682 53 59 42 255
-0.041438438 -0.090592913 1.6800001 55 60 46 255
-0.036863972 -0.090701856 1.682 59 63 46 255
-0.032240022 -0.090702824 1.682 59 63 46 255
-0.027632352 -0.090757601 1.6830001 59 62 48 255
-0.023019066 -0.090812244 1.6840001 58 61 47 255
-0.018378338 -0.090758897 1.6830001 56 59 45 255
-0.013759373 -0.090813279 1.6840001 60 64 47 255
-0.009124008 -0.090759672 1.6830001 62 66 49 255
-0.0044914293 -0.090652011 1.6810001 62 66 49 255
0.00013024792 -0.090598144 1.6800001 63 66 52 255
0.0047492529 -0.090598077 1.6800001 61 66 52 255
0.0093738129 -0.090651803 1.6810001 62 67 53 255
0.013987183 -0.090597548 1.6800001 61 66 52 255
0.018594991 -0.090543158 1.6790001 63 68 54 255
0.023197221 -0.09048865 1.6780001 58 63 49 255
0.027810425 -0.090487927 1.6780001 57 62 48 255
0.032423511 -0.090487085 1.6780001 61 66 52 255
0.037036456 -0.090486102 1.6780001 62 67 53 255
0.041599602 -0.090377145 1.6760001 62 67 53 255
0.046234284 -0.090429835 1.677 64 69 55 255
0.050813634 -0.090374559 1.6760001 61 66 52 255
0.05545339 -0.090426989 1.677 59 64 50 255
0.060026787 -0.09037146 1.6760001 61 66 52 255
0.064632997 -0.090369716 1.6760001 63 68 54 255
0.069197603 -0.090313919 1.6750001 62 67 53 255
0.073844567 -0.090365849 1.6760001 64 69 55 255
0.078496687 -0.090417638 1.677 64 69 55 255
0.083153993 -0.090469316 1.6780001 65 70 56 255
0.087764136 -0.090466946 1.6780001 63 68 56 255
0.092428952 -0.090518363 1.6790001 64 69 57 255
0.097156689 -0.090623572 1.6810001 67 72 61 255
0.1017739 -0.090620816 1.6810001 65 70 59 255
0.10632741 -0.090564042 1.6800001 59 66 55 255
0.11094102 -0.090561062 1.6800001 63 70 59 255
0.11562295 -0.090611853 1.6810001 67 74 63 255
0.12038146 -0.090716437 1.6830001 66 73 62 255
0.12500188 -0.090713091 1.6830001 71 76 65 255
0.12954478 -0.090655722 1.682 70 75 64 255
0.13408166 -0.090598263 1.6810001 67 72 61 255
0.13869503 -0.090594567 1.6810001 71 76 65 255
0.14322259 -0.090536863 1.6800001 66 71 60 255
0.14783207 -0.090532951 1.6800001 63 69 61 255
0.15235023 -0.090475038 1.6790001 61 67 59 255
0.15704925 -0.090524778 1.6800001 64 70 62 255
0.16184941 -0.090628289 1.682 61 68 57 255
0.1665609 -0.09067782 1.6830001 61 68 57 255
0.17117554 -0.09067335 1.6830001 62 67 56 255
0.17558061 -0.090561025 1.6810001 68 73 61 255
0.18008122 -0.090502471 1.6800001 72 77 65 255
0.1846856 -0.090497695 1.6800001 69 76 64 255
0.18917663 -0.090438955 1.6790001 72 79 68 255
0.19366142 -0.09038011 1.6780001 72 79 68 255
0.19766743 -0.09010575 1.6730001 73 81 73 255
0.20212887 -0.090046734 1.6720001 77 85 78 255
0.20658411 -0.089987643 1.6710001 87 93 86 255
0.21166492 -0.09019769 1.6750001 99 105 98 255
0.21663778 -0.090353787 1.6780001 61 67 59 255
0.22136259 -0.090402089 1.6790001 48 55 44 255
0.2255538 -0.090234935 1.6760001 88 93 82 255
0.23000239 -0.090175383 1.6750001 85 90 79 255
0.23514496 -0.090384915 1.6790001 73 77 69 255
0.2403086 -0.090594336 1.6830001 71 76 65 255
0.24505676 -0.090642169 1.6840001 67 72 61 255
0.24921648 -0.090474628 1.6810001 63 68 56 255
0.253057 -0.090199389 1.6760001 62 67 55 255
0.25717679 -0.090031736 1.6730001 63 68 56 255
0.26221803 -0.090186894 1.6760001 69 74 62 255
0.26775238 -0.090503372 1.682 59 64 50 255
0.27315676 -0.090765938 1.687 36 41 29 255
0.27776423 -0.090759389 1.687 31 38 26 255
0.28170142 -0.090537608 1.6830001 42 49 37 255
0.2851055 -0.090154402 1.6760001 86 93 82 255
0.28864333 -0.089824982 1.6700001 78 84 76 255
0.29284978 -0.089710683 1.6680001 75 81 73 255
0.29775763 -0.089811452 1.6700001 70 77 66 255
0.3028565 -0.08996591 1.6730001 69 76 65 255
0.30741966 -0.089958996 1.6730001 70 77 66 255
0.31198186 -0.089952014 1.6730001 71 78 67 255
0.31673235 -0.089998744 1.674 73 80 69 255
0.32187131 -0.090152927 1.677 72 79 68 255
0.32663643 -0.090199538 1.6780001 72 79 68 255
0.3310113 -0.090138599 1.677 72 79 68 255
0.33517972 -0.090023875 1.6750001 67 74 63 255
0.339742 -0.090016603 1.6750001 68 75 64 255
0.34430349 -0.090009302 1.6750001 71 78 67 255
0.34948877 -0.090163149 1.6780001 71 78 67 255
0.3542676 -0.090209484 1.6790001 73 79 71 255
0.35926467 -0.090309501 1.6810001 72 79 68 255
0.36383891 -0.090302043 1.6810001 70 78 70 255
0.36863139 -0.090348259 1.682 72 80 72 255
0.37320656 -0.090340734 1.682 71 79 71 255
0.37845469 -0.090494305 1.6850001 73 81 73 255
0.38349095 -0.09059412 1.687 76 82 74 255
0.38853723 -0.090693906 1.6890001 77 84 73 255
0.39359355 -0.090793662 1.6910001 77 84 73 255
0.39842439 -0.090839684 1.692 78 85 74 255
0.40373623 -0.090993062 1.6950001 78 85 73 255
0.4093045 -0.091200083 1.6990001 71 78 66 255
0.41586822 -0.091621771 1.7070001 75 82 70 255
0.42198181 -0.091936015 1.7130001 76 83 71 255
0.42962152 -0.092572205 1.725 74 81 69 255
0.43757746 -0.09326195 1.738 76 83 71 255
0.44509411 -0.09384428 1.7490001 78 85 74 255
0.45241258 -0.094372854 1.7590001 85 92 80 255
0.45588586 -0.094096646 1.7540001 72 79 68 255
0.45775551 -0.093498647 1.743 65 72 61 255
0.45929939 -0.092847109 1.7310001 68 75 64 255
0.46265382 -0.092571154 1.7260001 66 72 64 255
0.46706349 -0.092509754 1.725 66 72 64 255
0.47201401 -0.09255565 1.7260001 66 72 64 255
0.47835019 -0.092869662 1.7320001 64 70 62 255
0.48360276 -0.092969187 1.7340001 67 73 65 255
0.48773912 -0.092854299 1.7320001 67 73 65 255
0.49101099 -0.09257862 1.7270001 65 71 63 255
0.4945423 -0.092356622 1.723 65 71 63 255
0.49834105 -0.092188299 1.72 67 73 65 255
0.50183064 -0.091966465 1.7160001 67 74 63 255
0.5058884 -0.091851883 1.7140001 64 73 62 255
0.51023251 -0.091790944 1.7130001 63 70 59 255
0.51487142 -0.09178365 1.7130001 62 71 59 255
0.51920664 -0.091722839 1.7120001 63 72 60 255
0.5223121 -0.0914478 1.7070001 60 70 55 255
0.52292061 -0.090744324 1.6940001 92 102 87 255
0.52408105 -0.090148136 1.6830001 67 76 64 255
0.52643812 -0.089766346 1.6760001 59 68 56 255
0.52970743 -0.089545339 1.6720001 59 68 57 255
0.53295475 -0.089324452 1.6680001 62 71 60 255
0.53714687 -0.089264289 1.6670001 81 87 79 255
0.54198319 -0.089311324 1.6680001 80 86 78 255
0.54911828 -0.089733198 1.6760001 74 80 72 255
0.55728745 -0.090315692 1.687 67 73 65 255
0.56684828 -0.091112331 1.702 63 70 59 255
0.57178968 -0.091159545 1.7030001 65 72 60 255
0.57639784 -0.091153316 1.7030001 67 74 62 255
0.5796414 -0.090933099 1.6990001 70 77 65 255
0.58320719 -0.090766519 1.6960001 72 79 67 255
0.58641016 -0.090546541 1.692 72 79 67 255
0.58959162 -0.090326704 1.6880001 68 75 63 255
0.5927515 -0.090107009 1.6840001 68 77 65 255
0.59553522 -0.08983393 1.6790001 69 76 64 255
0.59900677 -0.089668006 1.6760001 83 90 78 255
0.60210228 -0.089448713 1.6720001 67 74 63 255
0.60590202 -0.089336559 1.6700001 67 74 63 255
0.60896021 -0.089117549 1.6660001 70 77 65 255
0.61236531 -0.088952184 1.6630001 67 74 63 255
0.61612552 -0.088840455 1.6610001 76 81 70 255
0.62062252 -0.088835821 1.6610001 11 16 4 255
0.62474364 -0.088777833 1.6600001 23 26 12 255
0.62696463 -0.088452615 1.654 22 25 11 255
0.62915367 -0.088127561 1.6480001 26 30 13 255
0.63207966 -0.087909617 1.6440001 31 35 18 255
0.6365335 -0.087905735 1.6440001 29 33 16 255
0.63942826 -0.087688103 1.6400001 27 30 16 255
0.64308745 -0.087577596 1.6380001 25 28 14 255
0.64673644 -0.087467231 1.636 23 27 10 255
0.65037549 -0.087357044 1.6340001 21 25 8 255
0.65400457 -0.087247029 1.6320001 27 31 14 255
0.65641326 -0.086976804 1.6270001 24 28 11 255
0.65960819 -0.086813666 1.6240001 25 27 10 255
0.66278785 -0.086650714 1.6210001 22 23 9 255
0.66595227 -0.086487949 1.618 22 23 9 255
0.66993022 -0.086432278 1.6170001 20 21 7 255
0.67306972 -0.08626987 1.6140001 20 23 9 255
0.67787319 -0.086321458 1.6150001 21 24 12 255
0.68057108 -0.086105973 1.6110001 20 23 9 255
0.68409878 -0.085997581 1.6090001 18 21 7 255
0.68504971 -0.085568704 1.6010001 20 24 7 255
0.68768108 -0.085353829 1.5970001 25 29 12 255
0.69289201 -0.085459821 1.5990001 25 29 12 255
0.69680732 -0.08540567 1.598 24 26 9 255
0.70203507 -0.085512064 1.6 25 29 12 255
0.70859981 -0.085778996 1.605 20 26 9 255
0.7156378 -0.086099587 1.6110001 14 22 7 255
0.7195816 -0.086046278 1.6100001 100 109 98 255
0.72307223 -0.085939735 1.608 151 159 151 255
0.725649 -0.085726537 1.6040001 167 176 169 255
0.72775084 -0.085460111 1.5990001 168 177 172 255
0.72936946 -0.085140444 1.5930001 170 179 174 255
0.72957575 -0.084660679 1.5840001 173 182 177 255
0.73019826 -0.084234573 1.5760001 174 183 176 255
0.72938102 -0.083648324 1.5650001 176 185 178 255
0.72991234 -0.083222657 1.557 175 182 178 255
0.73040211 -0.082797199 1.549 176 183 179 255
0.73322189 -0.082639247 1.5460001 176 183 179 255
0.73411965 -0.082267702 1.539 177 184 181 255
0.7340219 -0.081789456 1.5300001 178 185 182 255
0.73242998 -0.081151053 1.5180001 176 183 180 255
0.73077476 -0.080512866 1.506 178 185 182 255
-0.99738127 -0.1033323 1.8360001 25 27 10 255
-0.99603462 -0.10371403 1.8430001 25 26 12 255
-0.93443727 -0.097794063 1.738 25 27 10 255
-0.95954335 -0.100934 1.794 26 28 11 255
-0.91570467 -0.096816644 1.7210001 24 28 11 255
-0.94426107 -0.10035058 1.784 21 25 8 255
-0.96246785 -0.10281555 1.8280001 21 22 8 255
-0.96262777 -0.1033683 1.8380001 19 20 8 255
-0.91689235 -0.098972715 1.7600001 21 19 8 255
-0.91201252 -0.098964192 1.7600001 20 21 7 255
-0.94270086 -0.10283557 1.8290001 21 22 8 255
-0.94481564 -0.10361455 1.8430001 18 15 0 255
-0.93818897 -0.10343812 1.84 12 8 0 255
-0.93361169 -0.10348696 1.8410001 30 14 0 255
-0.9310503 -0.10376097 1.8460001 80 62 46 255
-0.924954 -0.10364188 1.8440001 82 62 44 255
-0.91987014 -0.10363556 1.8440001 62 43 23 255
-0.91528618 -0.10368579 1.845 50 31 9 255
-0.91612703 -0.10435451 1.8570001 68 50 26 255
-0.91347146 -0.10463016 1.8620001 71 53 27 255
-0.90981597 -0.10479374 1.8650001 69 53 27 255
-0.90420705 -0.1047329 1.8640001 58 45 18 255
-0.89860708 -0.10467239 1.863 51 38 15 255
-0.89301556 -0.10461221 1.8620001 45 34 11 255
-0.88695598 -0.10449618 1.8600001 40 29 8 255
-0.88138443 -0.10443665 1.8590001 36 24 5 255
-0.87629265 -0.1044336 1.8590001 40 31 10 255
-0.87307835 -0.10465558 1.863 43 32 11 255
-0.86751539 -0.10459697 1.8620001 45 34 11 255
-0.86149734 -0.10448249 1.8600001 41 30 7 255
-0.85687417 -0.10453681 1.8610001 41 28 5 255
-0.85362118 -0.10475995 1.8650001 52 39 16 255
-0.85080397 -0.10503953 1.8700001 55 41 18 255
-0.8452481 -0.10498235 1.8690001 67 53 33 255
-0.83655345 -0.10453227 1.8610001 46 32 13 255
-0.8279047 -0.10408247 1.853 232 224 207 255
-0.75248724 -0.095769264 1.705 224 233 214 255
-0.73643982 -0.094309159 1.6790001 188 198 183 255
-0.72794592 -0.093804166 1.6700001 213 223 208 255
-0.72123539 -0.093524061 1.6650001 211 221 206 255
-0.71369278 -0.093131833 1.6580001 197 207 190 255
-0.70747292 -0.092908323 1.654 179 190 171 255
-0.70127636 -0.092685014 1.6500001 179 190 171 255
-0.69636977 -0.092630431 1.649 155 167 144 255
-0.69105059 -0.092519872 1.6470001 174 184 161 255
-0.68574333 -0.092409499 1.6450001 174 183 162 255
-0.68127662 -0.092411682 1.6450001 166 176 153 255
-0.67639959 -0.092357874 1.6440001 171 181 158 255
-0.67234653 -0.092416599 1.6450001 167 177 154 255
-0.66707122 -0.092306972 1.6430001 160 170 145 255
-0.66221094 -0.0922537 1.6420001 153 163 138 255
-0.65655589 -0.092088223 1.6390001 150 160 137 255
-0.65131599 -0.091979109 1.6370001 149 159 136 255
-0.64648294 -0.091926336 1.636 145 155 130 255
-0.64204854 -0.091929913 1.636 156 166 141 255
-0.63800472 -0.09198986 1.6370001 155 165 142 255
-0.63279504 -0.091881357 1.6350001 152 160 135 255
-0.62874997 -0.09194161 1.636 147 155 130 255
-0.62470001 -0.092002019 1.6370001 143 151 125 255
-0.62064517 -0.092062578 1.6380001 141 149 123 255
-0.61658555 -0.092123285 1.6390001 135 143 117 255
-0.61177403 -0.092071727 1.6380001 140 148 122 255
-0.60659754 -0.091964073 1.636 143 151 125 255
-0.60143238 -0.091856554 1.6340001 136 145 116 255
-0.59664369 -0.091805369 1.6330001 138 149 120 255
-0.59258622 -0.091866754 1.6340001 138 147 118 255
-0.58852345 -0.091928259 1.6350001 139 147 121 255
-0.58445555 -0.091989897 1.636 142 150 124 255
-0.58002806 -0.091995433 1.636 148 156 130 255
-0.57489699 -0.091888607 1.6340001 147 155 129 255
-0.57047522 -0.091894366 1.6340001 144 154 128 255
-0.56570703 -0.091843992 1.6330001 146 156 130 255
-0.56197554 -0.091962442 1.6350001 147 157 131 255
-0.55721027 -0.09191227 1.6340001 143 153 127 255
-0.55245036 -0.091862187 1.6330001 152 162 136 255
-0.54702467 -0.091699675 1.6300001 155 165 139 255
-0.54194802 -0.091593489 1.628 154 165 136 255
-0.53787267 -0.091656178 1.6290001 150 161 130 255
-0.53411937 -0.091775239 1.631 149 158 127 255
-0.52970541 -0.09178184 1.631 131 140 109 255
-0.52529126 -0.09178853 1.631 125 134 103 255
-0.52055764 -0.091739006 1.6300001 126 137 106 255
-0.51551247 -0.091633275 1.628 161 172 141 255
-0.5107919 -0.091583885 1.6270001 163 174 145 255
-0.50638759 -0.091590844 1.6270001 160 171 142 255
-0.50167447 -0.091541573 1.626 160 171 142 255
-0.49666065 -0.091436058 1.6240001 171 181 155 255
-0.49165726 -0.091330588 1.6220001 175 185 159 255
-0.48666432 -0.09122514 1.6200001 169 179 153 255
-0.48227715 -0.091232374 1.6200001 166 177 148 255
-0.47759458 -0.091183327 1.6190001 159 170 141 255
-0.47262469 -0.091077998 1.6170001 140 151 120 255
-0.46766514 -0.090972707 1.6150001 126 137 106 255
-0.46328971 -0.090980105 1.6150001 134 145 114 255
-0.45891371 -0.090987533 1.6150001 137 146 115 255
-0.4542557 -0.09093865 1.6140001 135 144 113 255
-0.4498814 -0.09094616 1.6140001 133 142 111 255
-0.44550639 -0.090953678 1.6140001 129 138 107 255
-0.44113088 -0.09096124 1.6140001 153 162 131 255
-0.43621355 -0.090856098 1.6120001 159 168 137 255
-0.43130639 -0.090750962 1.6100001 148 157 128 255
-0.42667463 -0.090702191 1.6090001 128 139 110 255
-0.42204767 -0.090653434 1.608 138 149 120 255
-0.41768515 -0.090661064 1.608 130 141 112 255
-0.41357911 -0.090725094 1.6090001 124 135 106 255
-0.40895817 -0.090676345 1.608 126 137 106 255
-0.40459362 -0.090684019 1.608 129 138 107 255
-0.40022829 -0.090691671 1.608 131 141 108 255
-0.39610842 -0.090755738 1.6090001 147 159 126 255
-0.39173898 -0.090763412 1.6090001 142 151 120 255
-0.38712794 -0.090714656 1.608 135 144 113 255
-0.38275969 -0.090722315 1.608 146 155 126 255
-0.37815529 -0.090673544 1.6070001 148 157 128 255
-0.37355551 -0.090624735 1.6060001 153 162 133 255
-0.36873055 -0.09051948 1.6040001 153 164 135 255
-0.36414278 -0.090470627 1.603 153 164 135 255
-0.3597841 -0.090478182 1.603 152 165 136 255
-0.35542455 -0.090485722 1.603 153 166 137 255
-0.35106426 -0.090493239 1.603 137 150 121 255
-0.34627056 -0.090387829 1.6010001 139 152 123 255
-0.34191406 -0.090395287 1.6010001 144 155 126 255
-0.33734578 -0.09034624 1.6 141 150 119 255
-0.33299029 -0.09035363 1.6 136 145 114 255
-0.32842863 -0.090304516 1.5990001 135 144 113 255
-0.32407415 -0.090311818 1.5990001 130 139 108 255
-0.31971884 -0.09031909 1.5990001 133 142 111 255
-0.31516546 -0.090269841 1.598 141 150 119 255
-0.31081116 -0.090277009 1.598 139 149 116 255
-0.30664784 -0.090340659 1.5990001 134 141 109 255
-0.30210006 -0.090291247 1.598 132 139 107 255
-0.29792956 -0.0903548 1.5990001 137 144 112 255
-0.29356912 -0.090361781 1.5990001 137 144 112 255
-0.28884614 -0.090255685 1.5970001 136 146 113 255
-0.28448945 -0.090262569 1.5970001 136 146 113 255
-0.2797811 -0.090156324 1.595 139 149 116 255
-0.27560088 -0.090219609 1.5960001 131 141 108 255
-0.27124441 -0.090226285 1.5960001 129 138 107 255
-0.26688713 -0.090232916 1.5960001 131 140 109 255
-0.26269346 -0.090296023 1.5970001 137 146 115 255
-0.25833172 -0.090302505 1.5970001 134 143 112 255
-0.25412822 -0.090365469 1.598 133 142 111 255
-0.24976216 -0.090371832 1.598 130 140 107 255
-0.24554881 -0.090434663 1.5990001 127 137 102 255
-0.24117833 -0.090440869 1.5990001 130 138 103 255
-0.23710327 -0.090560131 1.6010001 129 137 102 255
-0.23301645 -0.090679318 1.603 130 138 103 255
-0.22891791 -0.090798452 1.605 132 140 105 255
-0.22466776 -0.090860941 1.6060001 130 138 102 255
-0.22054853 -0.090979926 1.608 122 130 94 255
-0.21628314 -0.09104225 1.6090001 129 137 102 255
-0.21174812 -0.090991326 1.608 129 137 102 255
-0.20721787 -0.090940304 1.6070001 137 144 112 255
-0.20294473 -0.09100236 1.608 140 147 116 255
-0.19952969 -0.091460526 1.6160001 139 146 115 255
-0.19631158 -0.092031837 1.626 120 127 98 255
-0.19327398 -0.092716329 1.6380001 120 127 98 255
-0.18993939 -0.09328758 1.6480001 128 135 106 255
-0.18654929 -0.093858793 1.6580001 134 140 115 255
-0.18288419 -0.094316751 1.6660001 86 92 67 255
-0.17906745 -0.094718017 1.6730001 44 50 25 255
-0.1748988 -0.094949357 1.677 44 48 30 255
-0.17070757 -0.095180631 1.6810001 45 49 31 255
-0.1661973 -0.095241934 1.682 50 54 36 255
-0.161777 -0.095359765 1.6840001 46 52 34 255
-0.15706508 -0.095307581 1.6830001 47 51 34 255
-0.15262979 -0.095425189 1.6850001 45 51 34 255
-0.14818291 -0.095542684 1.687 45 51 34 255
-0.14389469 -0.095773354 1.6910001 43 47 30 255
-0.13933688 -0.095834009 1.692 48 52 35 255
-0.13469343 -0.095837899 1.692 49 53 35 255
-0.12989569 -0.095728382 1.6900001 54 58 40 255
-0.12510842 -0.095618725 1.6880001 61 65 48 255
-0.12040298 -0.095565595 1.687 60 64 47 255
-0.11577116 -0.095568977 1.687 59 64 50 255
-0.11100712 -0.09545894 1.6850001 61 66 52 255
-0.10631676 -0.09540543 1.6840001 62 67 53 255
-0.10157104 -0.095295109 1.682 62 67 53 255
-0.097008809 -0.095354646 1.6830001 63 68 54 255
-0.092385799 -0.095357396 1.6830001 61 66 52 255
-0.087710239 -0.095303342 1.682 61 66 52 255
-0.083039828 -0.095249176 1.6810001 55 60 46 255
-0.07842119 -0.095251523 1.6810001 56 61 47 255
-0.073802248 -0.095253743 1.6810001 58 61 47 255
-0.069224134 -0.095312499 1.682 55 58 44 255
-0.064601831 -0.095314458 1.682 54 57 43 255
-0.059979249 -0.095316291 1.682 53 56 42 255
-0.055389326 -0.095374651 1.6830001 52 58 41 255
-0.050733343 -0.095319539 1.682 54 60 43 255
-0.046110056 -0.09532097 1.682 52 58 41 255
-0.041461907 -0.09526559 1.6810001 51 56 42 255
-0.036862914 -0.095323414 1.682 54 59 45 255
-0.032258261 -0.095381096 1.6830001 57 60 46 255
-0.027647976 -0.095438659 1.6840001 57 60 46 255
-0.023018401 -0.095439412 1.6840001 59 62 48 255
-0.018388728 -0.09544003 1.6840001 59 62 48 255
-0.013767147 -0.095497176 1.6850001 58 61 47 255
-0.0091400072 -0.095554188 1.6860001 60 63 49 255
-0.0044966433 -0.095384359 1.6830001 63 66 52 255
0.00013032168 -0.095271081 1.6810001 64 67 53 255
0.0047491156 -0.09521433 1.6800001 65 70 56 255
0.0093735429 -0.095270798 1.6810001 70 75 61 255
0.01400343 -0.095327131 1.682 64 69 55 255
0.018605528 -0.095213294 1.6800001 66 71 59 255
0.023224199 -0.095212683 1.6800001 64 69 57 255
0.027809622 -0.09509857 1.6780001 65 70 58 255
0.032403257 -0.095041014 1.677 64 69 57 255
0.03699125 -0.094983317 1.6760001 63 68 56 255
0.041598406 -0.094982162 1.6760001 63 68 56 255
0.046177819 -0.094924189 1.6750001 66 71 59 255
0.050751537 -0.094866097 1.674 64 69 57 255
0.055385672 -0.094921209 1.6750001 61 66 55 255
0.059989247 -0.09491951 1.6750001 63 68 57 255
0.064592585 -0.094917692 1.6750001 68 73 62 255
0.069195628 -0.094915725 1.6750001 66 71 60 255
0.073798396 -0.094913639 1.6750001 65 70 58 255
0.078400843 -0.094911411 1.6750001 65 70 58 255
0.083002962 -0.094909064 1.6750001 64 69 55 255
0.087604731 -0.094906569 1.6750001 66 71 59 255
0.092261188 -0.094960622 1.6760001 67 72 60 255
0.096980542 -0.095071197 1.6780001 66 71 60 255
0.10152886 -0.095011666 1.677 64 69 58 255
0.10600797 -0.094895355 1.6750001 63 70 59 255
0.11060774 -0.094892241 1.6750001 65 72 61 255
0.11541338 -0.095058948 1.6780001 64 71 60 255
0.12009199 -0.095112219 1.6790001 67 72 61 255
0.12470131 -0.095108725 1.6790001 67 74 63 255
0.12923312 -0.09504845 1.6780001 69 74 63 255
0.13391843 -0.095101349 1.6790001 71 78 67 255
0.13860868 -0.095154107 1.6800001 69 76 65 255
0.14321862 -0.095150121 1.6800001 66 73 62 255
0.14774002 -0.095089391 1.6790001 65 73 65 255
0.15216458 -0.094971895 1.677 65 73 65 255
0.15695149 -0.095080815 1.6790001 74 80 72 255
0.16174877 -0.095189624 1.6810001 71 78 67 255
0.16645741 -0.095241673 1.682 67 74 63 255
0.17096747 -0.095180355 1.6810001 65 72 61 255
0.17536697 -0.09506233 1.6790001 69 76 64 255
0.17996919 -0.095057428 1.6790001 72 79 67 255
0.18457073 -0.095052429 1.6790001 67 74 63 255
0.18905888 -0.094990693 1.6780001 71 78 67 255
0.19331005 -0.094815664 1.6750001 74 81 70 255
0.19742589 -0.094583936 1.6710001 72 80 72 255
0.20200267 -0.094578549 1.6710001 72 80 73 255
0.20657867 -0.094573036 1.6710001 86 94 87 255
0.2112803 -0.094624035 1.6720001 86 92 85 255
0.21598665 -0.09467493 1.6730001 71 77 70 255
0.22056583 -0.094669126 1.6730001 65 71 63 255
0.22500969 -0.094606653 1.6720001 75 80 69 255
0.22985916 -0.094713822 1.674 70 75 64 255
0.23513895 -0.094990633 1.6790001 72 77 66 255
0.2403025 -0.095210738 1.6830001 68 73 62 255
0.24505058 -0.095261022 1.6840001 67 72 61 255
0.24906196 -0.095028378 1.6800001 62 67 56 255
0.25305068 -0.094795704 1.6760001 58 63 51 255
0.25701666 -0.094562948 1.6720001 58 63 51 255
0.26205507 -0.094726034 1.6750001 75 80 68 255
0.26742744 -0.095002122 1.6800001 57 62 48 255
0.27282622 -0.095278077 1.6850001 32 39 27 255
0.27676964 -0.09504506 1.6810001 33 40 28 255
0.280523 -0.094755478 1.6760001 84 91 79 255
0.28424814 -0.094465852 1.6710001 77 86 75 255
0.28829077 -0.094289266 1.6680001 70 79 68 255
0.2926673 -0.09422569 1.6670001 69 76 65 255
0.29721573 -0.094218567 1.6670001 72 79 68 255
0.30212536 -0.094324417 1.669 71 78 67 255
0.30704504 -0.094430208 1.6710001 71 77 69 255
0.31160173 -0.094422892 1.6710001 70 76 68 255
0.31634673 -0.094472028 1.6720001 70 77 66 255
0.32109633 -0.094521113 1.6730001 70 77 66 255
0.32604513 -0.09462662 1.6750001 68 75 63 255
0.33021444 -0.094506115 1.6730001 66 73 61 255
0.33457199 -0.094442047 1.6720001 69 76 64 255
0.33892325 -0.094377965 1.6710001 71 78 66 255
0.34367928 -0.094426796 1.6720001 70 77 66 255
0.34843987 -0.094475582 1.6730001 70 79 68 255
0.35299405 -0.094467856 1.6730001 71 78 67 255
0.357761 -0.094516546 1.674 69 76 65 255
0.36231619 -0.094508752 1.674 72 78 70 255
0.3668704 -0.094500929 1.674 70 79 68 255
0.37164569 -0.094549529 1.6750001 71 78 67 255
0.37642553 -0.094598077 1.6760001 71 78 67 255
0.3814373 -0.094703056 1.6780001 74 81 70 255
0.38645914 -0.094807982 1.6800001 71 78 67 255
0.39172369 -0.09496931 1.6830001 74 79 68 255
0.3965328 -0.095017746 1.6840001 72 79 68 255
0.40206107 -0.095235415 1.6880001 72 79 67 255
0.40736938 -0.095396616 1.6910001 71 79 64 255
0.41342404 -0.095727026 1.697 73 80 68 255
0.41877145 -0.095888145 1.7 72 79 67 255
0.42513061 -0.096274853 1.7070001 72 79 67 255
0.43127516 -0.096605085 1.7130001 73 80 69 255
0.43745157 -0.096935265 1.7190001 71 78 67 255
0.44314545 -0.097152635 1.723 71 78 67 255
0.44886026 -0.097369976 1.7270001 68 75 64 255
0.45433336 -0.097530909 1.7300001 78 84 76 255
0.45876077 -0.09746635 1.7290001 66 72 64 255
0.46264586 -0.097289085 1.7260001 65 71 63 255
0.46678481 -0.097168222 1.7240001 62 69 58 255
0.47063878 -0.096991047 1.7210001 64 71 60 255
0.47502813 -0.096926644 1.72 61 67 59 255
0.47913259 -0.096805915 1.7180001 65 71 63 255
0.48294407 -0.096628912 1.715 63 69 61 255
0.48673856 -0.096451975 1.7120001 66 72 64 255
0.49109039 -0.096387759 1.7110001 67 73 65 255
0.49572584 -0.096379936 1.7110001 70 77 66 255
0.50006837 -0.096315816 1.71 71 78 67 255
0.50470018 -0.096308082 1.71 67 76 65 255
0.50903362 -0.096244089 1.7090001 63 72 61 255
0.51336116 -0.096180148 1.7080001 65 74 63 255
0.51646984 -0.095891051 1.7030001 65 74 62 255
0.51802111 -0.095320545 1.6930001 72 82 67 255
0.5195179 -0.094750188 1.6830001 86 96 81 255
0.52251703 -0.094461456 1.6780001 67 77 62 255
0.5264312 -0.094341695 1.6760001 58 68 53 255
0.53001738 -0.094165735 1.6730001 58 67 55 255
0.53326744 -0.093933597 1.669 59 68 57 255
0.53681797 -0.09375786 1.6660001 79 87 79 255
0.54100174 -0.093694754 1.6650001 86 92 84 255
0.54649055 -0.093856819 1.6680001 81 87 79 255
0.55397755 -0.094356537 1.677 69 76 65 255
0.56217915 -0.094968803 1.6880001 51 58 47 255
0.56842577 -0.095243528 1.6930001 28 35 23 255
0.57266849 -0.095180787 1.692 41 46 32 255
0.57588238 -0.094949402 1.6880001 52 57 43 255
0.5797624 -0.094830647 1.6860001 52 60 45 255
0.58363163 -0.094712019 1.6840001 63 70 58 255
0.5871408 -0.094537266 1.6810001 66 73 61 255
0.59063387 -0.094362639 1.6780001 68 75 63 255
0.59375608 -0.094131924 1.674 63 70 59 255
0.59757173 -0.09401381 1.6720001 78 85 73 255
0.60101664 -0.093839608 1.669 72 79 68 255
0.60517114 -0.093777999 1.6680001 62 69 58 255
0.60822409 -0.093547858 1.664 65 72 60 255
0.61199212 -0.09343031 1.6620001 67 74 63 255
0.6153788 -0.093256697 1.659 68 73 62 255
0.61987048 -0.093251854 1.659 17 22 10 255
0.62398642 -0.093190953 1.6580001 21 24 12 255
0.62658125 -0.092905387 1.6530001 22 25 11 255
0.62991291 -0.092732385 1.6500001 20 21 7 255
0.63322908 -0.092559561 1.6470001 27 28 14 255
0.63730395 -0.092499293 1.646 24 25 11 255
0.6398145 -0.092214413 1.641 24 27 13 255
0.64386904 -0.092154473 1.6400001 20 23 9 255
0.64831436 -0.092150904 1.6400001 21 24 10 255
0.65276045 -0.092147484 1.6400001 23 26 12 255
0.6552037 -0.091863312 1.6350001 23 27 10 255
0.65762073 -0.091579333 1.6300001 22 26 9 255
0.66082394 -0.091407895 1.6270001 24 26 9 255
0.66360307 -0.091180488 1.623 22 23 9 255
0.66594988 -0.090897083 1.618 22 23 9 255
0.66909939 -0.090726234 1.6150001 20 23 9 255
0.67265069 -0.090611756 1.613 20 23 9 255
0.67787135 -0.090722173 1.6150001 19 22 8 255
0.68141431 -0.090608083 1.613 20 23 9 255
0.68452263 -0.090438038 1.6100001 19 22 8 255
0.68718797 -0.090212002 1.6060001 21 24 10 255
0.68854123 -0.089817673 1.5990001 23 27 10 255
0.69159126 -0.089648247 1.5960001 21 25 8 255
0.69244629 -0.089198172 1.5880001 23 27 10 255
0.7024734 -0.089927889 1.6010001 22 28 11 255
0.70992416 -0.090320796 1.608 20 26 9 255
0.71652621 -0.090601586 1.613 16 24 9 255
0.71868795 -0.0903209 1.608 98 107 96 255
0.72217339 -0.09020897 1.6060001 152 162 153 255
0.72474492 -0.089984924 1.6020001 165 174 169 255
0.72638637 -0.089648768 1.5960001 166 175 170 255
0.72845495 -0.089369006 1.5910001 169 178 173 255
0.7291165 -0.088920966 1.5830001 170 179 174 255
0.73019993 -0.088529341 1.5760001 173 182 177 255
0.72938293 -0.087913238 1.5650001 174 183 176 255
0.72897691 -0.08735355 1.5550001 177 185 178 255
0.73134768 -0.087131143 1.5510001 177 184 180 255
0.73322451 -0.086852789 1.5460001 178 185 181 255
0.73507649 -0.086574689 1.5410001 178 185 181 255
0.73402506 -0.085959733 1.5300001 180 187 184 255
0.73291576 -0.085344993 1.5190001 179 186 183 255
0.73174876 -0.084730469 1.508 181 188 185 255
0.73247594 -0.084340915 1.501 183 190 186 255
-0.96416032 -0.10526525 1.784 22 24 7 255
-0.90454119 -0.10027569 1.7 27 29 12 255
-0.91780639 -0.10227077 1.7340001 24 26 9 255
-0.97353476 -0.10904273 1.8490001 21 23 6 255
-0.96630371 -0.1087966 1.845 22 23 9 255
-0.94555438 -0.10701789 1.8150001 19 20 8 255
-0.91875756 -0.1045324 1.7730001 17 17 7 255
-0.9236387 -0.10564385 1.7920001 20 18 8 255
-0.93098211 -0.10705025 1.8160001 21 19 9 255
-0.92697924 -0.10716007 1.8180001 19 17 7 255
-0.93057626 -0.10815436 1.835 21 17 7 255
-0.93004858 -0.10867739 1.8440001 20 16 6 255
-0.92395741 -0.10855249 1.8420001 15 10 0 255
-0.91738218 -0.10836904 1.8390001 18 13 2 255
-0.91429991 -0.10859847 1.8430001 27 21 5 255
-0.91267943 -0.109005 1.8500001 30 24 7 255
-0.9110238 -0.10941184 1.8570001 33 25 8 255
-0.90786952 -0.10964224 1.8610001 38 33 13 255
-0.90275639 -0.10963734 1.8610001 39 34 14 255
-0.89716429 -0.10957387 1.8600001 29 25 8 255
-0.8920604 -0.10956965 1.8600001 29 25 8 255
-0.88648278 -0.10950686 1.8590001 27 24 8 255
-0.87996531 -0.10932659 1.8560001 25 22 8 255
-0.87346733 -0.10914666 1.853 26 23 9 255
-0.87120646 -0.10949718 1.8590001 26 23 9 255
-0.86938131 -0.1099069 1.8660001 28 25 9 255
-0.86520475 -0.1100224 1.868 30 26 10 255
-0.85825735 -0.10978484 1.8640001 32 26 9 255
-0.85408044 -0.10990096 1.8660001 38 30 13 255
-0.85126007 -0.11019406 1.8710001 45 35 18 255
-0.8461535 -0.11019298 1.8710001 56 44 27 255
-0.83700359 -0.10966214 1.8620001 37 27 10 255
-0.82656467 -0.1089549 1.8500001 226 220 203 255
-0.75425249 -0.10065062 1.7090001 234 242 225 255
-0.73687798 -0.09894295 1.6800001 183 193 178 255
-0.72881699 -0.09847232 1.6720001 211 221 206 255
-0.72253412 -0.098237514 1.6680001 212 222 205 255
-0.71498311 -0.09782622 1.6610001 204 214 197 255
-0.70747161 -0.097415149 1.654 178 189 170 255
-0.70127487 -0.097180985 1.6500001 168 179 160 255
-0.6963681 -0.097123712 1.649 159 171 148 255
-0.69230735 -0.097184464 1.6500001 167 177 154 255
-0.68657494 -0.097009808 1.6470001 173 183 160 255
-0.6821025 -0.097012073 1.6470001 170 180 157 255
-0.67680854 -0.096896715 1.6450001 171 178 156 255
-0.67234385 -0.09689936 1.6450001 167 177 154 255
-0.66706836 -0.096784398 1.6430001 163 173 148 255
-0.66180456 -0.096669599 1.641 156 166 141 255
-0.65655273 -0.096554987 1.6390001 152 162 139 255
-0.65171051 -0.096499451 1.6380001 149 159 136 255
-0.64647937 -0.096385173 1.636 145 155 132 255
-0.64204478 -0.096388899 1.636 142 152 129 255
-0.63800085 -0.096451715 1.6370001 146 156 133 255
-0.63356501 -0.096455768 1.6370001 154 162 137 255
-0.62874573 -0.096401073 1.636 149 157 131 255
-0.62469554 -0.096464373 1.6370001 158 166 140 255
-0.62026173 -0.096468911 1.6370001 159 167 141 255
-0.61658084 -0.09659148 1.6390001 156 164 138 255
-0.61139566 -0.096478447 1.6370001 139 147 121 255
-0.6065926 -0.09642449 1.636 143 151 125 255
-0.60142726 -0.096311718 1.6340001 138 147 118 255
-0.59700382 -0.096316971 1.6340001 136 145 116 255
-0.5925808 -0.096322358 1.6340001 140 149 120 255
-0.58815801 -0.096327879 1.6340001 139 148 119 255
-0.58409274 -0.096392475 1.6350001 138 146 120 255
-0.57931328 -0.096339293 1.6340001 139 147 121 255
-0.57453936 -0.096286222 1.6330001 140 148 122 255
-0.56977105 -0.096233249 1.6320001 142 151 122 255
-0.56535465 -0.096239366 1.6320001 136 147 118 255
-0.56162566 -0.096363537 1.6340001 143 153 127 255
-0.55686307 -0.096310906 1.6330001 143 153 127 255
-0.5527823 -0.096376315 1.6340001 145 155 129 255
-0.54701823 -0.096146919 1.6300001 145 155 129 255
-0.54194146 -0.096035555 1.628 152 163 134 255
-0.53720576 -0.095983282 1.6270001 149 160 129 255
-0.53345764 -0.096108064 1.6290001 148 158 125 255
-0.52969861 -0.096232973 1.631 150 160 127 255
-0.52528435 -0.096239954 1.631 157 167 134 255
-0.52087009 -0.096247025 1.631 150 160 125 255
-0.51550549 -0.096077122 1.628 138 148 115 255
-0.51078486 -0.09602531 1.6270001 137 146 115 255
-0.50606918 -0.095973566 1.626 147 156 125 255
-0.50197583 -0.096039928 1.6270001 151 162 131 255
-0.49726501 -0.095988311 1.626 161 172 143 255
-0.49286234 -0.095995776 1.626 153 164 135 255
-0.48815897 -0.095944263 1.6250001 161 171 145 255
-0.4828651 -0.095774695 1.6220001 172 182 156 255
-0.47817707 -0.095723264 1.6210001 173 184 155 255
-0.47290945 -0.095553756 1.618 180 191 160 255
-0.46794716 -0.095443331 1.6160001 165 176 145 255
-0.46299523 -0.095332935 1.6140001 135 144 113 255
-0.45862192 -0.095340699 1.6140001 141 150 119 255
-0.45396665 -0.095289432 1.613 139 148 117 255
-0.44959497 -0.095297262 1.613 131 140 109 255
-0.44522265 -0.095305122 1.613 129 138 107 255
-0.4411231 -0.095372111 1.6140001 126 135 104 255
-0.4359352 -0.095202759 1.6110001 135 144 113 255
-0.43129861 -0.095151596 1.6100001 150 159 128 255
-0.42666692 -0.095100448 1.6090001 157 166 135 255
-0.4225648 -0.095167525 1.6100001 142 153 122 255
-0.41793713 -0.095116392 1.6090001 135 146 115 255
-0.41382828 -0.095183514 1.6100001 124 135 104 255
-0.40920469 -0.095132396 1.6090001 123 133 100 255
-0.40483737 -0.095140405 1.6090001 127 137 104 255
-0.40022048 -0.095089287 1.608 124 134 101 255
-0.39610058 -0.095156439 1.6090001 127 137 104 255
-0.39173114 -0.095164463 1.6090001 138 147 116 255
-0.3873609 -0.09517248 1.6090001 131 140 109 255
-0.38298985 -0.095180489 1.6090001 136 145 114 255
-0.37885344 -0.095247656 1.6100001 140 149 120 255
-0.37424552 -0.095196471 1.6090001 143 152 123 255
-0.36987215 -0.09520445 1.6090001 142 153 124 255
-0.36527079 -0.095153227 1.608 148 159 130 255
-0.361123 -0.09522035 1.6090001 144 158 126 255
-0.35630378 -0.095109902 1.6070001 151 164 135 255
-0.35193262 -0.095117785 1.6070001 146 159 130 255
-0.34734434 -0.095066443 1.6060001 146 159 130 255
-0.34297422 -0.095074266 1.6060001 136 147 118 255
-0.33818159 -0.094963647 1.6040001 156 167 138 255
-0.333399 -0.094852984 1.6020001 128 137 108 255
-0.32883188 -0.094801471 1.6010001 132 141 112 255
-0.32467473 -0.094868354 1.6020001 134 143 114 255
-0.32011133 -0.094816752 1.6010001 138 147 116 255
-0.31574976 -0.094824322 1.6010001 143 152 121 255
-0.31119284 -0.094772615 1.6 144 151 120 255
-0.30702406 -0.094839327 1.6010001 137 144 113 255
-0.30265999 -0.09484677 1.6010001 134 141 109 255
-0.29829499 -0.094854139 1.6010001 141 148 116 255
-0.29374558 -0.094802208 1.6 140 149 118 255
-0.28938165 -0.094809473 1.6 145 155 122 255
-0.28466058 -0.094698153 1.598 135 145 112 255
-0.28012502 -0.094646029 1.5970001 131 141 106 255
-0.27559403 -0.094593823 1.5960001 130 140 105 255
-0.27140757 -0.094660096 1.5970001 132 139 107 255
-0.26688036 -0.094607748 1.5960001 138 145 113 255
-0.26268679 -0.094673894 1.5970001 140 149 118 255
-0.25848687 -0.094739966 1.598 139 148 117 255
-0.25459877 -0.094924554 1.6010001 131 141 108 255
-0.25038087 -0.094990514 1.6020001 124 134 99 255
-0.24615663 -0.0950564 1.603 130 138 103 255
-0.24177532 -0.095062912 1.603 129 137 101 255
-0.23768939 -0.095187955 1.605 129 137 101 255
-0.2337371 -0.095372245 1.608 130 138 102 255
-0.22976758 -0.09555646 1.6110001 124 132 96 255
-0.22550109 -0.095621988 1.6120001 128 136 100 255
-0.22095405 -0.095568784 1.6110001 125 133 97 255
-0.21641172 -0.09551549 1.6100001 126 134 98 255
-0.21226913 -0.095640071 1.6120001 132 140 105 255
-0.20824377 -0.095823914 1.6150001 139 149 116 255
-0.20521088 -0.096482374 1.626 143 150 119 255
-0.20261091 -0.097378179 1.641 125 132 103 255
-0.20041098 -0.098511361 1.6600001 132 138 112 255
-0.1971623 -0.099169798 1.6710001 95 101 76 255
-0.19339164 -0.099590786 1.6780001 41 47 22 255
-0.18913184 -0.099774301 1.6810001 44 49 27 255
-0.18474515 -0.099898376 1.6830001 46 50 32 255
-0.18034677 -0.10002233 1.6850001 51 55 37 255
-0.1758325 -0.10008685 1.6860001 54 58 40 255
-0.17121045 -0.10009186 1.6860001 56 60 43 255
-0.16658781 -0.10009678 1.6860001 53 57 40 255
-0.16186842 -0.1000422 1.6850001 51 55 38 255
-0.1571539 -0.099987499 1.6840001 50 55 41 255
-0.15253483 -0.099992037 1.6840001 47 52 38 255
-0.14817865 -0.1001746 1.687 44 49 35 255
-0.14380543 -0.10035706 1.6900001 49 54 40 255
-0.13933283 -0.10048002 1.692 48 54 37 255
-0.13460989 -0.10042471 1.6910001 48 52 35 255
-0.1298919 -0.10036926 1.6900001 54 58 41 255
-0.12510476 -0.10025429 1.6880001 56 60 43 255
-0.12039945 -0.10019857 1.687 60 64 47 255
-0.11576777 -0.10020211 1.687 59 63 46 255
-0.11113562 -0.10020553 1.687 61 65 48 255
-0.10650301 -0.10020881 1.687 62 65 51 255
-0.10180958 -0.10015257 1.6860001 65 68 54 255
-0.097178847 -0.10015557 1.6860001 67 72 58 255
-0.092547722 -0.10015845 1.6860001 66 71 59 255
-0.087811925 -0.10004238 1.6840001 66 71 59 255
-0.083136141 -0.099985577 1.6830001 67 72 58 255
-0.078418858 -0.099869221 1.6810001 63 68 54 255
-0.073756136 -0.099812128 1.6800001 61 66 52 255
-0.069057442 -0.099695489 1.6780001 60 65 51 255
-0.064523079 -0.09981636 1.6800001 55 60 46 255
-0.059870478 -0.099758863 1.6790001 53 58 44 255
-0.055288933 -0.099820048 1.6800001 55 61 44 255
-0.050611176 -0.09970285 1.6780001 55 61 44 255
-0.046053845 -0.099823162 1.6800001 54 59 45 255
-0.041411333 -0.099765092 1.6790001 57 62 48 255
-0.0368618 -0.099944562 1.682 57 62 48 255
-0.032238122 -0.09994562 1.682 59 62 48 255
-0.027630722 -0.10000597 1.6830001 59 62 48 255
-0.022990366 -0.099947326 1.682 55 58 44 255
-0.018366331 -0.099947974 1.682 57 60 46 255
-0.01375039 -0.1000079 1.6830001 56 59 45 255
-0.0091397306 -0.10018651 1.6860001 59 62 48 255
-0.0045018503 -0.1001273 1.6850001 61 64 50 255
0.00013047279 -0.10000852 1.6830001 63 66 52 255
0.0047546248 -0.099949017 1.682 64 69 55 255
