ply
format ascii 1.0
comment PCL generated
element vertex 992
property float x
property float y
property float z
property uchar red
property uchar green
property uchar blue
property uchar alpha
element camera 0
property float view_px
property float view_py
property float view_pz
property float x_axisx
property float x_axisy
property float x_axisz
property float y_axisx
property float y_axisy
property float y_axisz
property float z_axisx
property float z_axisy
property float z_axisz
property float focal
property float scalex
property float scaley
property float centerx
property float centery
property int viewportx
property int viewporty
property float k1
property float k2
end_header
0.74453723 0.18344556 1.5880001 187 192 198 255
0.74512035 0.18252818 1.58 188 193 199 255
0.74613649 0.18172683 1.5730001 189 194 200 255
0.74854815 0.1812726 1.5690001 190 195 202 255
0.74902105 0.18035667 1.5610001 192 197 204 255
0.74945283 0.17944124 1.5530001 190 195 202 255
0.7479021 0.17806409 1.5410001 190 195 201 255
0.74726415 0.17691845 1.531 190 195 201 255
0.7485376 0.17623554 1.5250001 191 196 202 255
0.74830008 0.17520639 1.516 192 197 203 255
0.74751955 0.17406213 1.506 193 198 204 255
-0.64771038 0.21449651 1.9000001 180 184 177 255
-0.64188898 0.21428335 1.8980001 182 186 179 255
-0.6360786 0.21407042 1.8960001 185 189 181 255
-0.63061178 0.21397056 1.8950001 179 184 173 255
-0.62647063 0.2143226 1.8980001 119 124 110 255
-0.62198591 0.21456197 1.9000001 106 111 97 255
-0.61749017 0.21480156 1.9020001 103 107 90 255
-0.61330557 0.21515433 1.9050001 103 109 92 255
-0.60814685 0.21516849 1.9050001 117 123 106 255
-0.60362101 0.21540877 1.9070001 129 135 117 255
-0.59877038 0.21553625 1.9080001 133 139 121 255
-0.59484732 0.21600285 1.9120001 150 154 136 255
-0.5893603 0.21590479 1.9110001 140 144 126 255
-0.58387858 0.21580687 1.9100001 126 130 113 255
-0.5777958 0.21548307 1.9070001 163 166 152 255
-0.56992733 0.21448135 1.8980001 142 143 137 255
0.72163206 0.20312649 1.8010001 182 186 188 255
0.72450554 0.20255765 1.7960001 181 185 187 255
0.72938377 0.20255315 1.7960001 180 186 188 255
0.73058361 0.20153405 1.7870001 177 183 185 255
0.731736 0.20051542 1.7780001 171 177 179 255
0.73076934 0.19893333 1.7640001 166 172 175 255
0.73181289 0.19791558 1.7550001 171 176 182 255
0.73196954 0.19667274 1.7440001 171 176 182 255
0.73544729 0.19633253 1.7410001 174 179 185 255
0.73891026 0.19599275 1.738 177 182 188 255
0.74064696 0.19520234 1.7310001 178 183 189 255
0.74148607 0.19418685 1.7220001 177 182 189 255
0.74184459 0.19305906 1.7120001 180 185 192 255
0.74345851 0.19227003 1.705 181 186 192 255
0.74547476 0.19159423 1.6990001 182 187 193 255
0.74746025 0.19091889 1.6930001 183 188 195 255
0.74852645 0.19001849 1.6850001 183 188 194 255
0.74821013 0.1887802 1.674 183 188 194 255
0.74783587 0.18754242 1.6630001 184 189 195 255
0.7478559 0.18641785 1.6530001 185 190 196 255
0.7478236 0.18529375 1.6430001 186 191 197 255
0.74682289 0.18394451 1.631 184 189 195 255
0.74575883 0.18259574 1.6190001 186 191 197 255
0.74648488 0.18169855 1.6110001 186 191 197 255
0.74623734 0.18057625 1.6010001 188 193 199 255
0.74593735 0.1794544 1.5910001 189 194 200 255
0.74652827 0.17855859 1.5830001 185 190 196 255
0.74660343 0.17755044 1.5740001 188 193 199 255
0.74854022 0.17699398 1.5690001 188 193 199 255
0.74949235 0.17621236 1.562 189 194 201 255
0.75040901 0.17543127 1.5550001 190 195 202 255
0.74789262 0.17386086 1.5410001 191 196 202 255
0.74627805 0.17251649 1.529 192 197 203 255
0.74705458 0.17173673 1.5220001 192 197 203 255
0.74779546 0.17095743 1.5150001 193 198 204 255
0.74750799 0.1699529 1.506 193 198 204 255
-0.65108627 0.20709042 1.8800001 194 198 191 255
-0.646339 0.20721239 1.881 190 192 182 255
-0.64056379 0.20700414 1.8790001 184 187 175 255
-0.63547587 0.20701647 1.8790001 175 181 164 255
-0.62971717 0.20680864 1.8770001 167 173 156 255
-0.62396914 0.20660099 1.8750001 160 166 149 255
-0.61922222 0.20672409 1.876 171 177 160 255
-0.6141426 0.20673725 1.876 170 176 159 255
-0.6093874 0.20686078 1.8770001 172 176 159 255
-0.60527068 0.20720497 1.8800001 168 172 155 255
-0.59986067 0.2071085 1.8790001 169 172 158 255
-0.59540534 0.20734285 1.881 157 162 148 255
-0.59062535 0.2074672 1.8820001 171 176 162 255
-0.58770627 0.20825318 1.8890001 155 159 142 255
-0.58320689 0.20848814 1.891 164 168 151 255
-0.57930803 0.20894384 1.8950001 139 143 126 255
-0.574175 0.20895866 1.8950001 153 156 142 255
-0.56754029 0.20842224 1.8900001 154 156 148 255
-0.56033707 0.20766531 1.8830001 146 147 141 255
-0.55287647 0.20679808 1.8750001 157 161 154 255
0.72016054 0.20054211 1.8220001 182 188 190 255
0.71754396 0.19844516 1.8030001 194 198 198 255
0.71883231 0.19744933 1.794 151 155 155 255
0.72370344 0.19744444 1.794 189 194 191 255
0.72938806 0.19766004 1.7960001 187 192 189 255
0.73058754 0.19666545 1.7870001 157 164 161 255
0.73050475 0.19534115 1.7750001 173 180 179 255
0.73035806 0.19401729 1.7630001 155 161 163 255
0.73139846 0.19302399 1.7540001 160 166 168 255
0.73490965 0.19269145 1.751 164 170 173 255
0.73882848 0.19246937 1.7490001 172 177 183 255
0.74358815 0.19246781 1.7490001 173 179 185 255
0.74492657 0.19158635 1.7410001 174 180 186 255
0.74579245 0.19059528 1.7320001 173 179 185 255
0.74531108 0.18927452 1.72 175 180 186 255
0.74476612 0.18795423 1.7080001 177 182 188 255
0.7463513 0.18718459 1.7010001 179 184 190 255
0.74745882 0.18630539 1.6930001 181 186 193 255
0.74852455 0.18542659 1.6850001 180 185 192 255
0.74820769 0.18421814 1.674 182 187 193 255
0.74873233 0.18323025 1.6650001 182 187 193 255
0.74875748 0.18213275 1.6550001 184 189 195 255
0.74736464 0.18070553 1.6420001 185 190 196 255
0.74681866 0.17949885 1.631 184 189 195 255
0.74667531 0.17840268 1.6210001 184 189 195 255
0.74786979 0.17763713 1.6140001 185 190 196 255
0.74762988 0.17654184 1.6040001 188 193 199 255
0.74780655 0.17555708 1.595 189 194 200 255
0.74793631 0.17457275 1.5860001 188 193 199 255
0.74754494 0.1734788 1.5760001 188 193 199 255
0.74853247 0.17271551 1.5690001 189 194 200 255
0.74900442 0.1718426 1.5610001 190 195 201 255
0.74991769 0.17108026 1.554 189 194 200 255
0.74836868 0.16976787 1.5420001 189 194 200 255
0.74822074 0.16878624 1.5330001 191 196 202 255
0.74851692 0.16791512 1.5250001 192 197 203 255
0.74827838 0.16693434 1.516 191 196 202 255
0.74749684 0.16584387 1.506 194 199 205 255
-0.6628266 0.20085862 1.8700001 171 174 170 255
-0.65565187 0.20022497 1.8640001 185 188 184 255
-0.64885902 0.19969894 1.8590001 184 188 181 255
-0.64417136 0.19981766 1.8600001 178 182 174 255
-0.64016563 0.20015146 1.863 180 183 169 255
-0.63546216 0.20027068 1.8640001 177 181 164 255
-0.63007689 0.20017524 1.863 169 173 155 255
-0.62469715 0.20008002 1.8620001 166 172 154 255
-0.61865723 0.19977005 1.8590001 174 180 163 255
-0.61296356 0.19956771 1.8570001 165 170 156 255
-0.60728085 0.19936553 1.8550001 162 167 153 255
-0.60258275 0.19948597 1.8560001 167 170 156 255
-0.5982011 0.19971409 1.858 171 174 160 255
-0.5928508 0.19961996 1.8570001 154 157 145 255
-0.58845526 0.19984844 1.8590001 168 171 159 255
-0.58404881 0.20007716 1.8610001 160 163 149 255
-0.58087569 0.20073612 1.8670001 162 165 151 255
-0.57674456 0.20107274 1.8700001 164 167 153 255
-0.57198554 0.20119448 1.8710001 160 163 151 255
-0.56782669 0.20153147 1.8740001 161 164 152 255
-0.56275046 0.201546 1.8740001 156 159 147 255
-0.55707848 0.20134552 1.8720001 151 153 143 255
-0.55112213 0.20103757 1.8690001 144 149 137 255
-0.54810339 0.20180543 1.876 154 159 147 255
-0.54678279 0.20321898 1.8890001 152 159 147 255
-0.54481786 0.20441766 1.9000001 170 177 166 255
-0.5427928 0.20561662 1.9110001 180 187 176 255
-0.53930086 0.20627783 1.9170001 162 169 157 255
-0.53549731 0.2068316 1.9220001 111 116 104 255
-0.53083825 0.20706268 1.9240001 151 156 142 255
-0.52534813 0.20697095 1.9230001 165 170 156 255
-0.51932192 0.20666403 1.9200001 150 155 141 255
0.49138027 0.19156441 1.7800001 27 26 22 255
0.4998301 0.19294871 1.7930001 35 35 33 255
0.50609797 0.19347204 1.7980001 166 168 168 255
0.51011896 0.19313462 1.7950001 155 159 161 255
0.5043686 0.18913932 1.7580001 160 166 169 255
0.71454257 0.20097977 1.8720001 184 188 190 255
0.71308321 0.19914708 1.8550001 190 194 196 255
0.71269381 0.19763693 1.8410001 198 202 204 255
0.71378863 0.19655661 1.8310001 197 203 205 255
0.71365261 0.19515473 1.8180001 154 158 160 255
0.70988959 0.19278716 1.7960001 4 8 8 255
0.70760012 0.19084944 1.7780001 15 20 17 255
0.7124263 0.19084422 1.7780001 26 29 25 255
0.71685028 0.19073206 1.7770001 22 25 21 255
0.72289437 0.19104961 1.7800001 31 37 30 255
0.72609425 0.19061621 1.7760001 15 22 18 255
0.7292735 0.19018319 1.7720001 17 24 20 255
0.73118967 0.18942863 1.7650001 169 176 173 255
0.73432004 0.18899646 1.761 152 159 158 255
0.7386893 0.18888667 1.7600001 166 172 174 255
0.74389946 0.18899192 1.761 157 163 166 255
0.7469908 0.18856099 1.7570001 158 164 170 255
0.74835056 0.18770124 1.7490001 167 173 179 255
0.74837655 0.18651995 1.738 168 173 179 255
0.74877769 0.18544643 1.728 173 178 184 255
0.74869013 0.18426603 1.7170001 173 178 184 255
0.7498607 0.18340805 1.7090001 175 180 187 255
0.75054801 0.18244316 1.7 177 182 189 255
0.75029975 0.18126412 1.6890001 177 182 189 255
0.75044036 0.18019278 1.6790001 177 182 189 255
0.7505284 0.1791219 1.669 181 186 192 255
0.75146884 0.17826612 1.6610001 181 186 192 255
0.74918157 0.17665951 1.646 183 188 194 255
0.74818826 0.1753753 1.6340001 183 188 194 255
0.74713147 0.1740915 1.6220001 184 189 195 255
0.74879152 0.17345215 1.6160001 186 191 197 255
0.74902272 0.17249121 1.6070001 187 192 198 255
0.75014484 0.17174542 1.6 187 192 198 255
0.75028783 0.1707854 1.5910001 187 193 196 255
0.74943531 0.1696111 1.58 188 193 199 255
0.7485252 0.16843724 1.5690001 189 194 200 255
0.74851668 0.16747847 1.5600001 189 194 200 255
0.74894428 0.16662753 1.552 190 195 201 255
0.74787456 0.16545492 1.5410001 192 197 203 255
0.74723518 0.16439009 1.531 193 198 204 255
0.74899793 0.16386259 1.526 191 196 202 255
0.74974877 0.16312076 1.5190001 191 196 202 255
0.7489751 0.16205724 1.5090001 194 199 205 255
-0.66864759 0.19448531 1.858 184 185 179 255
-0.66254395 0.19418137 1.8550001 179 183 176 255
-0.65681142 0.19398233 1.853 179 183 176 255
-0.65038639 0.19357415 1.8490001 176 180 173 255
-0.64468157 0.19337556 1.8470001 179 183 175 255
-0.64002657 0.19349127 1.848 176 181 170 255
-0.63639736 0.19392137 1.8520001 176 181 167 255
-0.63206476 0.19414231 1.8540001 171 175 158 255
-0.62670678 0.1940493 1.853 159 165 147 255
-0.62101883 0.1938518 1.8510001 175 181 164 255
-0.6153416 0.19365445 1.8490001 168 173 159 255
-0.60967523 0.19345728 1.8470001 167 172 158 255
-0.60401976 0.19326027 1.845 176 181 167 255
-0.59869957 0.19316816 1.8440001 180 185 171 255
-0.59370673 0.19318099 1.8440001 157 160 146 255
-0.58903295 0.19329874 1.845 167 170 156 255
-0.58403707 0.19331191 1.845 163 168 156 255
-0.58029634 0.19374436 1.8490001 155 160 146 255
-0.57591134 0.19396745 1.8510001 177 182 168 255
-0.57120699 0.19408593 1.8520001 168 173 161 255
-0.56588531 0.19399492 1.8510001 171 176 164 255
-0.56087178 0.19400886 1.8510001 167 172 160 255
-0.55615819 0.19412774 1.8520001 150 155 144 255
-0.5511412 0.19414195 1.8520001 168 173 162 255
-0.5461238 0.19415626 1.8520001 171 176 164 255
-0.54227465 0.19459005 1.8560001 158 165 153 255
-0.53985071 0.19554828 1.8650001 161 168 156 255
-0.5368039 0.19629699 1.8720001 160 167 155 255
-0.53457087 0.19736055 1.8820001 156 163 151 255
-0.53200167 0.19831944 1.891 170 178 163 255
-0.53021908 0.19959326 1.9030001 114 120 103 255
-0.52671528 0.20023796 1.909 108 114 97 255
-0.52153909 0.20025346 1.909 162 168 150 255
-0.51636231 0.20026898 1.909 161 167 149 255
-0.51118487 0.20028457 1.909 148 153 139 255
-0.50759721 0.20092979 1.9150001 146 151 139 255
-0.50371385 0.20147021 1.9200001 143 150 139 255
-0.50006229 0.2021157 1.9260001 144 151 140 255
-0.49534974 0.20234151 1.9280001 161 168 157 255
-0.49011707 0.20235747 1.9280001 150 157 146 255
-0.4853867 0.20258339 1.9300001 159 166 155 255
-0.48014712 0.20259941 1.9300001 145 152 141 255
-0.47539887 0.20282541 1.932 153 157 149 255
-0.46966556 0.20263149 1.9300001 155 161 154 255
-0.46514535 0.20296252 1.9330001 156 162 155 255
-0.32319212 0.2068637 1.9660001 157 164 153 255
-0.31798634 0.206983 1.9670001 171 178 167 255
-0.31229737 0.20678648 1.9650002 172 179 167 255
-0.30630597 0.20637929 1.9610001 157 164 152 255
-0.30110282 0.20649815 1.9620001 139 146 134 255
0.48282415 0.1871547 1.784 75 74 68 255
0.49230897 0.18892346 1.8010001 92 91 85 255
0.49884853 0.1895382 1.807 90 91 85 255
0.50402635 0.18962851 1.8080001 77 80 76 255
0.51005334 0.19003348 1.812 90 93 90 255
0.51581734 0.19033362 1.8150001 93 98 95 255
0.52217084 0.19084348 1.8200001 89 94 91 255
0.53232682 0.19091971 1.8210001 123 130 127 255
0.69970244 0.19600813 1.8730001 184 188 188 255
0.69348985 0.19286032 1.8430001 198 201 198 255
0.6928001 0.19128269 1.8280001 126 131 127 255
0.69470161 0.19043793 1.8200001 0 5 0 255
0.69617623 0.18948893 1.8110001 9 13 6 255
0.6991514 0.18895885 1.8060001 11 15 8 255
0.70132041 0.18821986 1.7990001 14 18 11 255
0.69874185 0.18622579 1.7800001 24 28 21 255
0.69843268 0.1848599 1.7670001 29 33 26 255
0.70004386 0.18401751 1.7590001 31 35 28 255
0.70602024 0.18432623 1.7620001 32 36 28 255
0.71161062 0.18453069 1.7640001 33 37 29 255
0.71437007 0.18400322 1.7590001 34 38 30 255
0.71873891 0.18389459 1.7580001 32 38 30 255
0.72433841 0.18410014 1.7600001 26 32 24 255
0.73077846 0.18451522 1.7640001 24 32 25 255
0.73473978 0.18430313 1.7620001 35 43 36 255
0.73953104 0.18430062 1.7620001 99 106 103 255
0.74263406 0.18388012 1.7580001 150 157 156 255
0.74614197 0.18356463 1.7550001 159 166 169 255
0.74835151 0.18293576 1.7490001 164 170 176 255
0.74966884 0.18209815 1.7410001 167 172 178 255
0.75094444 0.18126097 1.733 170 175 181 255
0.75130612 0.18021503 1.723 170 175 181 255
0.75205386 0.17927414 1.7140001 170 175 181 255
0.75142986 0.17801987 1.702 173 178 185 255
0.75163078 0.17697521 1.692 177 182 189 255
0.75177914 0.17593101 1.682 177 182 189 255
0.75187498 0.17488724 1.6720001 179 184 191 255
0.75191832 0.17384389 1.6620001 180 185 192 255
0.74963337 0.17227797 1.6470001 181 186 192 255
0.74910009 0.17113085 1.636 184 189 195 255
0.74943024 0.17019339 1.6270001 184 189 195 255
0.75110358 0.16957018 1.6210001 183 188 194 255
0.75228018 0.16884279 1.6140001 185 190 196 255
0.75248325 0.16790661 1.605 186 191 197 255
0.75169641 0.16676165 1.5940001 187 192 198 255
0.7503773 0.16551246 1.582 189 194 200 255
0.74899513 0.1642637 1.5700001 189 194 200 255
0.74850917 0.16322456 1.5600001 192 197 203 255
0.74990129 0.16260441 1.554 189 194 200 255
0.74980736 0.16167076 1.5450001 190 195 201 255
0.75064272 0.16094686 1.5380001 191 196 202 255
0.75144255 0.16022336 1.531 193 198 204 255
0.75220674 0.15950035 1.524 191 196 202 255
0.75045371 0.15825441 1.5120001 194 199 205 255
0.74863756 0.15700889 1.5000001 196 201 207 255
-0.68522763 0.18980102 1.8620001 171 175 168 255
-0.67762649 0.1890966 1.8550001 186 190 183 255
-0.67115164 0.18869823 1.8510001 184 185 179 255
-0.66577852 0.18860592 1.8500001 178 182 175 255
-0.66041106 0.18851386 1.8490001 177 181 173 255
-0.65504944 0.18842202 1.848 176 180 172 255
-0.64863825 0.18802454 1.8440001 180 187 176 255
-0.64294714 0.18783119 1.8420001 174 181 169 255
-0.63830596 0.18794394 1.8430001 172 179 167 255
-0.63434678 0.18826093 1.8460001 171 176 164 255
-0.62934893 0.18827218 1.8460001 160 165 151 255
-0.62401271 0.18818164 1.845 190 196 179 255
-0.61834663 0.18798931 1.8430001 170 175 161 255
-0.61335689 0.18800116 1.8430001 153 160 148 255
-0.60770696 0.18780918 1.8410001 172 179 167 255
-0.60206789 0.18761735 1.8390001 168 175 164 255
-0.59708887 0.18762973 1.8390001 174 181 169 255
-0.59178764 0.18754023 1.8380001 156 163 151 255
-0.58713037 0.18765497 1.8390001 163 170 158 255
-0.58183426 0.18756579 1.8380001 163 170 158 255
-0.57748497 0.1877829 1.84 160 167 155 255
-0.57219118 0.18769401 1.8390001 179 186 174 255
-0.56751931 0.18780939 1.84 172 177 165 255
-0.56161892 0.18751661 1.8370001 164 169 155 255
-0.55664343 0.18753017 1.8370001 166 171 157 255
-0.55166757 0.18754385 1.8370001 170 175 161 255
-0.5466913 0.18755764 1.8370001 167 172 158 255
-0.54171467 0.18757157 1.8370001 164 169 155 255
-0.53702974 0.18768768 1.8380001 165 172 160 255
-0.53262842 0.18790604 1.84 161 168 156 255
-0.52792895 0.18802239 1.8410001 160 167 155 255
-0.52379179 0.18834315 1.8440001 163 171 156 255
-0.52048171 0.18897043 1.8500001 154 162 147 255
-0.51825315 0.19000655 1.8600001 167 175 158 255
-0.51569378 0.19094069 1.8690001 159 165 148 255
-0.51199216 0.19146639 1.8740001 155 161 144 255
-0.50718087 0.19158351 1.8750001 156 162 145 255
-0.50289905 0.19190508 1.8780001 155 161 144 255
-0.49913049 0.19243112 1.8830001 153 159 142 255
-0.49507162 0.19285508 1.8870001 148 156 139 255
-0.49176925 0.19358577 1.8940001 147 155 138 255
-0.48817137 0.19421442 1.9000001 146 154 139 255
-0.48479429 0.19494539 1.9070001 134 142 127 255
-0.48112696 0.1955743 1.9130001 122 130 115 255
-0.47667998 0.19589657 1.9160001 133 140 128 255
-0.47246188 0.19632116 1.9200001 139 144 132 255
-0.46773455 0.19654128 1.9220001 136 141 129 255
-0.4637174 0.19706823 1.927 135 140 128 255
-0.45872062 0.19718619 1.9280001 152 157 145 255
-0.45418793 0.19750872 1.9310001 147 152 140 255
-0.44847554 0.19731981 1.9290001 133 138 124 255
-0.44392207 0.19764234 1.932 132 137 123 255
-0.43844318 0.19755569 1.9310001 132 138 121 255
-0.43341744 0.19767357 1.932 149 155 138 255
-0.42794216 0.19758683 1.9310001 136 144 127 255
-0.42334697 0.19790934 1.9340001 142 150 135 255
-0.41916689 0.19843654 1.9390001 136 143 131 255
-0.41495872 0.19896378 1.9440001 138 145 133 255
-0.41009009 0.19918396 1.9460001 132 139 127 255
-0.40520963 0.19940409 1.9480001 137 144 132 255
-0.39990681 0.19941947 1.9480001 141 148 136 255
-0.39500809 0.19963953 1.95 142 149 137 255
-0.3892982 0.19944999 1.9480001 138 145 133 255
-0.38359815 0.19926032 1.9460001 139 146 134 255
-0.37888008 0.19958259 1.9490001 156 163 151 255
-0.37356958 0.19959754 1.9490001 168 175 163 255
-0.3686361 0.19981726 1.9510001 176 183 171 255
-0.36275953 0.19952476 1.9480001 143 151 136 255
-0.35799938 0.19984671 1.9510001 150 158 143 255
-0.35267958 0.19986127 1.9510001 144 152 137 255
-0.34789291 0.20018309 1.9540001 149 157 140 255
-0.34238759 0.20009497 1.9530001 178 187 168 255
-0.33740452 0.2003141 1.955 145 154 135 255
-0.33223978 0.20043069 1.9560001 100 107 86 255
-0.3274028 0.20075211 1.9590001 136 143 122 255
-0.32254854 0.20107344 1.9620001 162 167 146 255
-0.3180002 0.20159963 1.9670001 122 128 110 255
-0.31246999 0.20151076 1.9660001 177 183 165 255
-0.30678809 0.20131925 1.9640001 152 158 140 255
-0.30126962 0.20123003 1.9630001 131 137 119 255
-0.29635864 0.20155074 1.9660001 123 129 111 255
-0.2908383 0.20146121 1.9650002 127 133 115 255
-0.28488669 0.2010639 1.9610001 128 134 117 255
-0.2793836 0.20097399 1.96 119 128 107 255
-0.27402487 0.20098644 1.96 123 131 116 255
0.47634396 0.18353944 1.7960001 87 88 84 255
0.48094752 0.18342283 1.7950001 81 82 78 255
0.4868983 0.18381719 1.7990001 77 78 72 255
0.49287012 0.18421151 1.8030001 77 78 72 255
0.4991391 0.18470801 1.8080001 73 76 72 255
0.50431955 0.18479587 1.8090001 73 76 72 255
0.51034921 0.18519023 1.8130001 73 76 72 255
0.51583165 0.18538032 1.8150001 67 72 68 255
0.5213244 0.18557046 1.817 67 72 68 255
0.52624816 0.18555643 1.817 66 71 67 255
0.5302946 0.18523613 1.8140001 65 72 68 255
0.53461927 0.18501806 1.812 57 64 61 255
0.53923035 0.18490228 1.8110001 59 66 65 255
0.67242819 0.187567 1.84 193 197 199 255
0.67446727 0.1867425 1.8320001 200 204 206 255
0.67498016 0.18551062 1.8200001 94 96 96 255
0.67430776 0.18397337 1.8050001 0 2 0 255
0.67694128 0.18335381 1.7990001 9 13 6 255
0.67802691 0.1823269 1.789 27 31 24 255
0.67829567 0.18109658 1.7770001 29 33 25 255
0.67888439 0.17996854 1.766 25 29 22 255
0.68483418 0.18026756 1.7690001 24 28 21 255
0.68612295 0.17934407 1.7600001 23 27 19 255
0.68854141 0.17872663 1.7540001 29 31 23 255
0.69409031 0.17892469 1.756 26 28 20 255
0.69925308 0.17902116 1.7570001 27 29 19 255
0.70562446 0.17942366 1.761 28 33 22 255
0.70919472 0.17911327 1.7580001 27 32 21 255
0.71315593 0.17890511 1.756 29 34 23 255
0.71588093 0.1783917 1.751 30 37 26 255
0.7206378 0.17838803 1.751 26 33 22 255
0.72953874 0.1794035 1.761 37 46 35 255
0.73557645 0.1797062 1.7640001 23 31 23 255
0.7399531 0.17960179 1.7630001 80 88 81 255
0.74221355 0.1789884 1.7570001 145 152 148 255
0.74444282 0.17837542 1.751 157 164 166 255
0.74749696 0.17796659 1.7470001 162 169 172 255
0.74923903 0.17725258 1.7400001 167 172 178 255
0.75094467 0.17653894 1.733 169 174 180 255
0.75174206 0.17562206 1.7240001 169 174 180 255
0.7529307 0.17480741 1.7160001 172 177 183 255
0.75407785 0.17399321 1.7080001 174 179 186 255
0.75429463 0.17297569 1.6980001 174 179 186 255
0.75445902 0.17195858 1.6880001 175 180 187 255
0.75367147 0.17073818 1.6760001 178 183 190 255
0.75282037 0.16951816 1.664 178 183 190 255
0.75008535 0.16789109 1.6480001 179 184 190 255
0.75047016 0.16697749 1.6390001 179 184 190 255
0.75080806 0.16606437 1.6300001 180 185 191 255
0.75248897 0.16545729 1.6240001 183 188 194 255
0.75367343 0.16474879 1.6170001 183 188 194 255
0.75388432 0.16383693 1.608 186 191 197 255
0.75310528 0.16272172 1.5970001 186 191 197 255
0.75179392 0.16150498 1.585 188 193 199 255
0.74946541 0.16008487 1.5710001 188 193 199 255
0.74994135 0.15927655 1.5630001 189 194 200 255
0.75085878 0.15857054 1.5560001 189 194 200 255
0.75174034 0.15786497 1.549 190 195 201 255
0.75161016 0.156956 1.5400001 190 195 201 255
0.75192422 0.15614939 1.5320001 192 197 203 255
0.75219715 0.15534317 1.524 192 197 203 255
0.75093997 0.15423158 1.5130001 193 198 204 255
0.74912602 0.1530184 1.501 194 199 205 255
-0.69569898 0.18480858 1.863 167 170 166 255
-0.68768579 0.18402344 1.8550001 188 192 185 255
-0.6819244 0.1838337 1.853 187 191 184 255
-0.67653978 0.18374348 1.8520001 186 190 182 255
-0.67116112 0.18365349 1.8510001 181 185 177 255
-0.66542822 0.1834645 1.8490001 173 177 169 255
-0.65970665 0.18327577 1.8470001 184 189 178 255
-0.65399623 0.18308723 1.845 181 186 175 255
-0.64759332 0.18270043 1.8410001 184 191 180 255
-0.64225954 0.18261155 1.84 166 173 161 255
-0.63693136 0.18252288 1.8390001 179 186 174 255
-0.63229609 0.18263295 1.84 179 186 174 255
-0.62595081 0.18224688 1.8360001 190 195 183 255
-0.62030369 0.18205954 1.8340001 173 178 166 255
-0.61500305 0.18197162 1.8330001 143 150 138 255
-0.61103904 0.18228103 1.8360001 179 186 175 255
-0.60573834 0.18219349 1.835 175 182 171 255
-0.60077041 0.18220544 1.835 179 186 175 255
-0.59515297 0.18201892 1.8330001 150 157 146 255
-0.59019023 0.18203117 1.8330001 162 169 158 255
-0.58490807 0.18194428 1.8320001 156 163 152 255
-0.57931453 0.1817582 1.83 174 181 170 255
-0.57435942 0.18177088 1.83 163 170 158 255
-0.56909269 0.18168437 1.8290001 169 176 164 255
-0.56444812 0.18179667 1.83 163 168 154 255
-0.5591864 0.18171044 1.8290001 171 176 162 255
-0.55423266 0.18172364 1.8290001 156 162 145 255
-0.54867798 0.18153825 1.8270001 167 173 156 255
-0.54402655 0.18165106 1.8280001 159 164 150 255
-0.53907436 0.18166459 1.8280001 154 159 145 255
-0.53441405 0.18177764 1.8290001 141 148 136 255
-0.52916867 0.18169199 1.8280001 159 166 154 255
-0.52364153 0.18150702 1.8260001 154 161 149 255
-0.519261 0.18171974 1.8280001 149 157 142 255
-0.51486903 0.18193255 1.83 147 155 138 255
-0.51102298 0.18234436 1.8340001 160 166 149 255
-0.50632691 0.18245797 1.835 148 154 137 255
-0.5021711 0.18277054 1.8380001 152 158 141 255
-0.49799854 0.18308322 1.8410001 151 157 140 255
-0.49407676 0.18349545 1.845 147 153 136 255
-0.4898676 0.18380833 1.848 152 160 143 255
-0.48537907 0.18402185 1.8500001 153 161 144 255
-0.48165795 0.18453385 1.8550001 153 161 144 255
-0.477909 0.18504594 1.8600001 157 165 148 255
-0.47514904 0.18595617 1.8690001 155 163 146 255
-0.47158492 0.18656802 1.8750001 152 160 145 255
-0.46773863 0.18708044 1.8800001 157 165 150 255
-0.46386442 0.187593 1.8850001 149 154 140 255
-0.46020558 0.18820514 1.891 146 151 137 255
-0.45747602 0.18921554 1.9010001 141 146 132 255
-0.45373949 0.1898279 1.9070001 149 154 140 255
-0.44996953 0.19044037 1.9130001 131 134 120 255
-0.44546852 0.19075423 1.9160001 130 136 119 255
-0.44186956 0.19146639 1.9230001 136 142 124 255
-0.4375504 0.19187991 1.927 145 151 133 255
-0.43343288 0.19239302 1.932 140 146 128 255
-0.42840078 0.19250785 1.9330001 136 142 124 255
-0.42423794 0.19302101 1.9380001 138 144 127 255
-0.41961461 0.19333503 1.9410001 131 139 122 255
-0.41540092 0.19384824 1.9460001 129 137 122 255
-0.41010538 0.19386338 1.9460001 140 148 133 255
-0.40522486 0.19407769 1.9480001 135 143 126 255
-0.39971668 0.19399308 1.9470001 148 156 139 255
-0.39461806 0.19410768 1.9480001 143 151 134 255
-0.38951308 0.19422221 1.9490001 144 152 135 255
-0.38459873 0.19443634 1.9510001 143 151 134 255
-0.37986693 0.19475007 1.9540001 139 147 130 255
-0.37435108 0.19466504 1.9530001 159 165 148 255
-0.36883971 0.19457994 1.9520001 179 185 168 255
-0.36258784 0.19409594 1.9470001 132 138 120 255
-0.35727981 0.19411024 1.9470001 153 159 141 255
-0.35179001 0.19402474 1.9460001 149 155 137 255
-0.34648272 0.19403882 1.9460001 136 145 126 255
-0.34117445 0.1940528 1.9460001 174 181 160 255
-0.33672819 0.19456527 1.9510001 154 161 139 255
-0.33208379 0.19497795 1.955 104 109 87 255
-0.32691523 0.19509137 1.9560001 101 107 82 255
-0.32174018 0.19520463 1.9570001 174 179 157 255
-0.31672037 0.19541755 1.9590001 102 107 86 255
-0.31168866 0.19563033 1.9610001 172 177 156 255
-0.30602026 0.19544393 1.9590001 148 153 132 255
-0.30097574 0.19565645 1.9610001 132 137 116 255
-0.29591933 0.19586883 1.9630001 131 134 110 255
-0.29085106 0.19608109 1.9650002 127 130 106 255
-0.28518981 0.19589403 1.9630001 126 132 107 255
-0.27968112 0.19580659 1.9620001 133 140 119 255
-0.27417693 0.19571896 1.9610001 140 146 128 255
-0.26867732 0.19563115 1.96 153 161 144 255
-0.26304796 0.19544333 1.9580001 141 151 136 255
-0.25769189 0.19545496 1.9580001 136 143 131 255
-0.25220606 0.19536655 1.9570001 128 135 124 255
0.42665169 0.1783797 1.7920001 80 84 84 255
0.43103805 0.17816637 1.7900001 86 88 88 255
0.43541276 0.17795309 1.7880001 81 84 81 255
0.44051453 0.17803837 1.789 81 84 81 255
0.44512305 0.17792465 1.7880001 76 79 76 255
0.45022878 0.17800996 1.789 79 82 79 255
0.45533913 0.17809525 1.7900001 83 86 83 255
0.46045426 0.17818056 1.7910001 79 79 77 255
0.46583381 0.17836532 1.7930001 81 81 79 255
0.47148603 0.1786496 1.7960001 78 78 76 255
0.47688872 0.17883438 1.7980001 77 80 76 255
0.48149759 0.17872079 1.7970001 75 78 74 255
0.48718315 0.17900507 1.8000001 74 77 73 255
0.49288431 0.17928936 1.8030001 74 77 73 255
0.49915329 0.17977253 1.8080001 70 73 69 255
0.50405484 0.17975853 1.8080001 70 73 69 255
0.5095188 0.17994346 1.8100001 71 75 68 255
0.51499295 0.1801284 1.812 68 72 65 255
0.52019066 0.18021403 1.8130001 67 71 64 255
0.52510351 0.18020031 1.8130001 69 73 66 255
0.52884662 0.17978916 1.8090001 70 75 71 255
0.53315759 0.17957687 1.807 75 80 77 255
0.53656405 0.17906664 1.802 84 88 88 255
0.54114491 0.17895405 1.8010001 80 87 86 255
0.6443553 0.18170744 1.8310001 190 194 196 255
0.64647621 0.18090351 1.8230001 188 192 194 255
0.6467675 0.17960374 1.8100001 137 141 141 255
0.64950895 0.17899892 1.8040001 88 92 92 255
0.65221822 0.17839438 1.7980001 34 37 34 255
0.6574536 0.17848465 1.7990001 1 4 1 255
0.66085398 0.17807913 1.7950001 14 18 11 255
0.66274983 0.17727709 1.7870001 26 27 21 255
0.66385555 0.176277 1.7770001 27 29 19 255
0.66829437 0.17616999 1.7760001 26 28 18 255
0.67007536 0.17536895 1.7680001 22 27 15 255
0.67143196 0.17446908 1.7590001 25 28 16 255
0.6735093 0.17376792 1.7520001 23 26 14 255
0.68019515 0.17425726 1.7570001 22 25 13 255
0.68456972 0.17415179 1.756 24 27 15 255
0.68933231 0.17414582 1.756 25 28 16 255
0.69488639 0.1743385 1.7580001 26 28 18 255
0.70164633 0.17482899 1.7630001 24 27 15 255
0.70202315 0.17373317 1.7520001 23 26 14 255
0.70476174 0.17323269 1.7470001 25 27 17 255
0.70950502 0.17322835 1.7470001 30 33 21 255
0.71588475 0.17362097 1.751 27 32 20 255
0.7194066 0.17331986 1.748 35 40 28 255
0.72912771 0.17450641 1.7600001 35 42 30 255
0.73432827 0.17460261 1.761 31 40 29 255
0.73953569 0.17469919 1.7620001 40 48 40 255
0.74052584 0.17380467 1.7530001 111 119 112 255
0.74316895 0.17330714 1.748 157 165 164 255
0.74578655 0.17280999 1.743 157 163 165 255
0.74880916 0.17241241 1.7390001 165 171 174 255
0.74921179 0.17142037 1.7290001 167 172 178 255
0.74999774 0.17052788 1.72 170 175 181 255
0.74985892 0.16943753 1.7090001 170 175 181 255
0.75231093 0.16894242 1.7040001 172 177 183 255
0.75340492 0.16815032 1.6960001 174 179 185 255
0.75445724 0.16735862 1.6880001 175 180 186 255
0.75501829 0.16646819 1.6790001 176 181 187 255
0.75327021 0.16508245 1.6650001 176 181 187 255
0.75190282 0.16379623 1.6520001 178 183 189 255
0.75229824 0.16290703 1.6430001 180 183 189 255
0.75264663 0.16201822 1.6340001 181 184 190 255
0.75387478 0.16132818 1.6270001 181 186 192 255
0.75413471 0.16044019 1.618 183 188 194 255
0.75481677 0.15965182 1.6100001 185 190 196 255
0.75404269 0.15856634 1.5990001 186 191 197 255
0.75321078 0.15748127 1.5880001 187 192 198 255
0.75232118 0.15639657 1.577 188 193 199 255
0.75137377 0.15531227 1.5660001 189 194 200 255
0.75278151 0.15472429 1.5600001 188 193 199 255
0.75367367 0.15403752 1.5530001 189 194 200 255
0.75404209 0.15325198 1.5450001 192 197 203 255
0.75289702 0.15216929 1.534 192 197 203 255
0.75268137 0.15128537 1.5250001 193 198 204 255
0.75142652 0.15020342 1.5140001 194 199 205 255
0.75061309 0.14922106 1.5040001 193 198 204 255
-0.70353037 0.17913698 1.8570001 169 170 164 255
-0.69774598 0.17895178 1.8550001 188 192 184 255
-0.69197291 0.17876685 1.853 186 190 182 255
-0.68621141 0.17858218 1.8510001 184 189 178 255
-0.68082917 0.17849423 1.8500001 182 186 178 255
-0.67545289 0.17840654 1.8490001 179 184 173 255
-0.66971999 0.1782226 1.8470001 180 184 176 255
-0.66471797 0.17823187 1.8470001 182 186 178 255
-0.65900201 0.17804837 1.845 185 190 179 255
-0.65329719 0.17786507 1.8430001 179 186 175 255
-0.64619648 0.17729597 1.8370001 179 186 175 255
-0.64052469 0.17711309 1.835 184 191 180 255
-0.63451755 0.17683385 1.8320001 179 188 176 255
-0.62887037 0.17665131 1.83 176 185 173 255
-0.62255245 0.17627592 1.8260001 163 170 158 255
-0.61828548 0.17647989 1.8280001 159 166 154 255
-0.61367232 0.17658754 1.8290001 141 148 136 255
-0.6093865 0.17679195 1.8310001 176 183 171 255
-0.60343927 0.17651375 1.8280001 182 189 177 255
-0.59816313 0.17642881 1.8270001 148 155 144 255
-0.5932169 0.17644061 1.8270001 157 164 153 255
-0.58859247 0.17654914 1.8280001 161 167 159 255
-0.58332407 0.17646468 1.8270001 162 168 160 255
-0.57742763 0.17618716 1.8240001 177 183 175 255
-0.57217497 0.17610292 1.8230001 163 169 161 255
-0.56692743 0.17601882 1.8220001 159 166 155 255
-0.56230181 0.17612806 1.8230001 161 166 154 255
-0.55736488 0.17614082 1.8230001 154 159 145 255
-0.55273056 0.17625034 1.8240001 150 156 138 255
-0.54748994 0.17616671 1.8230001 168 172 154 255
-0.54225421 0.17608316 1.8220001 165 169 151 255
-0.53731841 0.17609639 1.8220001 150 156 138 255
-0.53267437 0.17620635 1.8230001 161 167 150 255
-0.52744544 0.17612308 1.8220001 158 165 153 255
-0.52193457 0.17594321 1.8200001 160 165 151 255
-0.51728636 0.17605345 1.8210001 152 157 143 255
-0.51291341 0.17626044 1.8230001 155 161 144 255
-0.50825053 0.17637086 1.8240001 160 169 150 255
-0.5030297 0.17628793 1.8230001 145 154 135 255
-0.49808693 0.17630179 1.8230001 161 167 150 255
-0.49341404 0.17641239 1.8240001 162 168 150 255
-0.48900288 0.17661981 1.8260001 150 156 138 255
-0.48458028 0.17682728 1.8280001 154 160 142 255
-0.47962123 0.17684135 1.8280001 154 160 143 255
-0.47570023 0.17724244 1.8320001 153 161 144 255
-0.4714998 0.17754687 1.835 148 156 139 255
-0.46779087 0.17804492 1.84 146 154 137 255
-0.46304792 0.17815596 1.8410001 150 158 143 255
-0.45879647 0.17846058 1.8440001 159 165 148 255
-0.45452785 0.17876528 1.8470001 137 143 126 255
-0.45097229 0.17936039 1.853 150 156 139 255
-0.44810531 0.18024603 1.8620001 168 172 155 255
-0.44542658 0.18122859 1.8720001 146 150 133 255
-0.44175172 0.18182403 1.8780001 148 152 135 255
-0.43874088 0.18271001 1.8870001 151 153 135 255
-0.43636963 0.18388662 1.899 136 140 122 255
-0.43415937 0.18516022 1.9120001 135 139 121 255
-0.43098009 0.18604662 1.9210001 122 127 105 255
-0.42752931 0.18683626 1.9290001 142 147 126 255
-0.42337736 0.18733539 1.9340001 130 134 116 255
-0.41919726 0.18783453 1.9390001 137 143 125 255
-0.41477549 0.18823683 1.9430001 127 133 115 255
-0.40990955 0.18844536 1.9450001 127 133 115 255
-0.40482372 0.18855697 1.9460001 130 136 118 255
-0.39952615 0.18857162 1.9460001 133 139 121 255
-0.39402506 0.1884893 1.9450001 140 146 128 255
-0.38892815 0.18860072 1.9460001 126 132 114 255
-0.38382474 0.18871208 1.9470001 133 142 123 255
-0.37929821 0.18911415 1.9510001 132 141 122 255
-0.37379044 0.18903151 1.95 142 148 130 255
-0.36847612 0.1890457 1.95 150 156 138 255
-0.36241582 0.18867199 1.9460001 123 129 111 255
-0.35674337 0.18849203 1.9440001 134 140 122 255
-0.35108089 0.18831196 1.9420002 143 149 131 255
-0.34578437 0.18832566 1.9420002 118 124 106 255
-0.34048688 0.18833928 1.9420002 121 128 107 255
-0.33587885 0.18874072 1.9460001 114 119 97 255
-0.33107814 0.18904512 1.9490001 111 117 92 255
-0.32626006 0.1893494 1.9520001 104 110 85 255
-0.32126024 0.18955661 1.9540001 130 135 113 255
-0.3160868 0.18966667 1.955 164 169 148 255
-0.31090698 0.18977663 1.9560001 120 125 104 255
-0.30556446 0.18978941 1.9560001 148 151 129 255
-0.30052805 0.18999614 1.9580001 132 135 111 255
-0.29547966 0.19020271 1.96 131 133 105 255
-0.29041946 0.19040918 1.9620001 126 128 100 255
-0.2850568 0.19042139 1.9620001 126 129 105 255
-0.27969325 0.19043344 1.9620001 142 149 128 255
-0.27418891 0.19034828 1.9610001 158 165 144 255
-0.26882619 0.19035998 1.9610001 178 187 168 255
-0.26332825 0.19027443 1.96 155 163 146 255
-0.25796649 0.19028577 1.96 150 158 141 255
-0.25260386 0.19029696 1.96 113 121 106 255
-0.2473665 0.19040506 1.9610001 120 128 113 255
-0.24175259 0.19022165 1.9590001 135 140 128 255
0.3262293 0.17483267 1.8030001 81 85 85 255
0.33096203 0.17472285 1.802 93 97 97 255
0.33624762 0.17490384 1.8040001 91 95 95 255
0.34154314 0.17508467 1.8060001 86 90 90 255
0.3455058 0.17458682 1.8010001 81 86 83 255
0.34905118 0.17389509 1.794 92 95 92 255
0.35354388 0.17368801 1.7920001 95 98 95 255
0.35822484 0.1735778 1.7910001 90 94 94 255
0.36289945 0.17346753 1.7900001 87 91 91 255
0.36777321 0.17345412 1.7900001 91 95 95 255
0.37243786 0.17334375 1.789 92 96 96 255
0.37709621 0.17323335 1.7880001 89 93 93 255
0.38196176 0.17321976 1.7880001 86 90 90 255
0.38682655 0.17320612 1.7880001 83 88 85 255
0.39103317 0.17290184 1.7850001 83 88 85 255
0.39566615 0.17279127 1.784 84 88 88 255
0.4007419 0.17287439 1.7850001 80 85 82 255
0.40582228 0.17295748 1.7860001 82 86 86 255
0.41090718 0.17304049 1.7870001 80 84 84 255
0.41599673 0.17312349 1.7880001 80 85 82 255
0.42132619 0.17330325 1.7900001 81 86 83 255
0.42642763 0.17338617 1.7910001 82 87 84 255
0.43105215 0.17327546 1.7900001 80 85 82 255
0.43567038 0.17316476 1.789 79 82 79 255
0.4402824 0.17305407 1.7880001 79 82 79 255
0.44513714 0.1730402 1.7880001 81 84 81 255
0.4504945 0.17321983 1.7900001 80 83 79 255
0.45560756 0.17330272 1.7910001 79 82 78 255
0.46098238 0.17348234 1.7930001 77 80 76 255
0.46636742 0.17366199 1.7950001 77 78 74 255
0.47202507 0.17393835 1.7980001 74 75 71 255
0.4771679 0.17402127 1.7990001 70 73 69 255
0.48231539 0.17410417 1.8000001 72 75 71 255
0.48746774 0.17418712 1.8010001 69 72 68 255
0.4931716 0.17446354 1.8040001 70 73 69 255
0.49833885 0.17454652 1.8050001 70 73 69 255
0.50351101 0.17462958 1.8060001 70 73 69 255
0.50840652 0.17461599 1.8060001 70 74 67 255
0.51386982 0.17479585 1.8080001 67 71 64 255
0.51848269 0.17468572 1.807 71 75 68 255
0.52337927 0.17467235 1.807 73 77 70 255
0.52681357 0.1741758 1.802 78 83 79 255
0.53081048 0.17387269 1.7990001 87 92 89 255
0.53389728 0.17327982 1.7930001 92 96 96 255
0.5384537 0.17317028 1.7920001 92 96 96 255
0.54361045 0.17325413 1.7930001 85 89 89 255
0.5506078 0.17391782 1.8000001 76 80 80 255
0.57274228 0.17318004 1.7930001 193 200 199 255
0.57952958 0.17374763 1.7990001 195 199 199 255
0.58699882 0.17450845 1.807 186 190 192 255
0.59254611 0.17468995 1.8090001 84 88 88 255
0.59744346 0.17467844 1.8090001 68 73 70 255
0.6016748 0.17447399 1.807 32 37 34 255
0.60690236 0.1745594 1.8080001 75 80 77 255
0.61315048 0.1749346 1.812 128 135 132 255
0.61805588 0.17492378 1.812 77 81 81 255
0.62364912 0.17510624 1.8140001 66 70 70 255
0.6268276 0.17461319 1.8090001 72 76 76 255
0.63067764 0.17431344 1.8060001 74 78 80 255
0.63310403 0.1736279 1.7990001 70 74 74 255
0.63620186 0.17313564 1.794 80 84 84 255
0.63855839 0.17245066 1.7870001 84 89 86 255
0.64159721 0.17195898 1.7820001 95 98 95 255
0.64497221 0.17156407 1.7780001 99 102 99 255
0.65015316 0.17165187 1.779 11 14 10 255
0.6538673 0.171354 1.7760001 23 24 18 255
0.65756571 0.17105637 1.7730001 25 27 19 255
0.66012752 0.17046963 1.7670001 27 30 18 255
0.66529167 0.17055848 1.7680001 26 29 17 255
0.66932458 0.17035817 1.766 21 24 12 255
0.67258406 0.16996525 1.7620001 21 24 12 255
0.67620701 0.16966909 1.7590001 24 27 15 255
0.68058866 0.16956615 1.7580001 23 26 14 255
0.68496561 0.16946352 1.7570001 24 27 15 255
0.68698269 0.16878249 1.7500001 24 27 15 255
0.69054383 0.16848758 1.7470001 23 26 14 255
0.69488567 0.16838588 1.7460001 24 27 15 255
0.69721955 0.16780232 1.7400001 26 29 17 255
0.69831151 0.16692978 1.7310001 25 28 16 255
0.70463556 0.16731127 1.7350001 24 27 13 255
0.71139127 0.16778947 1.7400001 25 28 16 255
0.71899855 0.16846088 1.7470001 27 32 20 255
0.72747368 0.16932543 1.756 31 36 24 255
0.73433101 0.1698046 1.761 33 40 28 255
0.73995787 0.16999488 1.7630001 22 30 22 255
0.7413727 0.16922127 1.7550001 91 99 92 255
0.74317056 0.16854446 1.748 152 159 158 255
0.7453599 0.16796449 1.7420001 159 165 167 255
0.74837935 0.16757773 1.738 164 169 175 255
0.74921227 0.16670929 1.7290001 166 171 177 255
0.7504338 0.16593766 1.7210001 169 174 180 255
0.75029731 0.16487716 1.71 170 175 181 255
0.75275171 0.1643956 1.705 172 177 183 255
0.75473642 0.16381802 1.6990001 173 178 184 255
0.75534952 0.16295156 1.6900001 174 179 185 255
0.75501633 0.1618927 1.6790001 175 180 186 255
0.75462496 0.16083419 1.6680001 177 182 188 255
0.75372064 0.15967968 1.6560001 177 182 188 255
0.7550422 0.15900768 1.649 182 185 191 255
0.75402468 0.15785396 1.6370001 180 185 191 255
0.75433397 0.15698992 1.628 180 185 191 255
0.75366408 0.15593342 1.6170001 182 187 193 255
0.75434291 0.1551666 1.6090001 183 188 194 255
0.75498039 0.1544002 1.6010001 183 188 194 255
0.75510222 0.15353775 1.5920001 183 188 194 255
0.75470012 0.15257925 1.582 187 192 198 255
0.75520551 0.15181406 1.5740001 187 192 198 255
0.75518703 0.15095279 1.5650001 188 193 199 255
0.75657791 0.15038131 1.559 189 194 200 255
0.75598627 0.1494244 1.549 190 195 201 255
0.75583333 0.14856434 1.5400001 189 194 200 255
0.75365961 0.14731877 1.5270001 190 195 201 255
0.75191355 0.14617002 1.5150001 194 197 203 255
0.75060338 0.1451181 1.5040001 195 198 204 255
-0.71162313 0.17481901 1.8650001 189 190 184 255
-0.70315903 0.17398269 1.8560001 185 187 179 255
-0.69587302 0.17342784 1.8500001 176 181 170 255
-0.69011372 0.17324817 1.848 179 184 172 255
-0.68473679 0.17316253 1.8470001 185 190 178 255
-0.6789977 0.17298338 1.845 183 188 177 255
-0.67400044 0.17299198 1.845 187 192 181 255
-0.667916 0.17271952 1.8420001 185 190 179 255
-0.66220796 0.17254105 1.84 184 188 180 255
-0.65615404 0.17226902 1.8370001 183 188 177 255
-0.64976221 0.1719034 1.8330001 179 186 175 255
-0.64339221 0.17153795 1.8290001 179 186 175 255
-0.63809133 0.17145404 1.8280001 179 186 175 255
-0.63279611 0.17137034 1.8270001 163 172 161 255
-0.62716264 0.171193 1.825 167 174 162 255
-0.62119943 0.17092207 1.8220001 164 171 159 255
-0.61660516 0.17102651 1.8230001 139 146 134 255
-0.61133474 0.17094354 1.8220001 178 185 173 255
-0.6064024 0.17095454 1.8220001 179 184 170 255
-0.60047972 0.17068422 1.8190001 168 173 161 255
-0.59621024 0.17088322 1.8210001 150 157 145 255
-0.59128046 0.17089471 1.8210001 166 173 162 255
-0.58699447 0.17109407 1.8230001 155 161 153 255
-0.58078182 0.17073044 1.8190001 168 174 167 255
-0.57585686 0.17074238 1.8190001 173 179 172 255
-0.57030398 0.17056669 1.817 155 161 153 255
-0.56569517 0.17067276 1.8180001 161 167 159 255
-0.56046373 0.17059119 1.817 161 168 157 255
-0.55615467 0.17079143 1.8190001 154 159 147 255
-0.55183429 0.17099178 1.8210001 157 163 146 255
-0.54660183 0.17091055 1.8200001 161 167 149 255
-0.54107678 0.17073551 1.8180001 162 166 148 255
-0.53615183 0.1707484 1.8180001 157 163 145 255
-0.53122658 0.17076136 1.8180001 162 168 151 255
-0.52659023 0.17086835 1.8190001 165 170 156 255
-0.52080077 0.17059965 1.8160001 158 164 147 255
-0.5164476 0.17080078 1.8180001 161 166 152 255
-0.51152015 0.17081407 1.8180001 163 171 156 255
-0.50687093 0.17092139 1.8190001 153 161 144 255
-0.50166368 0.17084083 1.8180001 157 165 148 255
-0.4970077 0.1709483 1.8190001 155 163 146 255
-0.4926163 0.17114981 1.8210001 152 161 142 255
-0.48767766 0.17116342 1.8210001 151 157 139 255
-0.48300362 0.17127107 1.8220001 141 147 129 255
-0.47832328 0.17137876 1.8230001 147 153 136 255
-0.47363684 0.17148651 1.8240001 160 166 149 255
-0.46894434 0.17159431 1.825 153 159 142 255
-0.46399134 0.17160811 1.825 153 159 142 255
-0.4592891 0.17171596 1.8260001 148 154 137 255
-0.45408317 0.17163576 1.825 135 141 124 255
-0.44937399 0.17174365 1.8260001 163 171 154 255
-0.44490197 0.17194562 1.8280001 172 178 161 255
-0.44114029 0.17242983 1.8330001 147 151 134 255
-0.43711266 0.17282003 1.8370001 144 148 131 255
-0.43282723 0.17311619 1.84 144 146 128 255
-0.42945468 0.17378877 1.8470001 147 149 131 255
-0.42719227 0.17493191 1.8590001 143 145 127 255
-0.42668036 0.1768281 1.8790001 125 130 109 255
-0.42628315 0.17881866 1.9000001 124 129 107 255
-0.42488426 0.18043302 1.9170001 120 125 103 255
-0.42185953 0.18138866 1.927 135 140 119 255
-0.41813087 0.18206201 1.9340001 116 121 100 255
-0.41372272 0.18245298 1.9380001 120 124 106 255
-0.40887031 0.18265565 1.9400001 127 131 113 255
-0.40379801 0.18276411 1.9410001 126 130 112 255
-0.39851406 0.18277839 1.9410001 129 135 117 255
-0.39322907 0.18279257 1.9410001 128 134 116 255
-0.38814294 0.18290086 1.9420002 127 134 113 255
-0.38324752 0.18310331 1.9440001 128 135 114 255
-0.3783403 0.18330568 1.9460001 141 146 124 255
-0.37303779 0.1833196 1.9460001 172 177 155 255
-0.36754522 0.18323919 1.9450001 110 115 93 255
-0.36187094 0.18306448 1.9430001 122 129 108 255
-0.35620654 0.18288963 1.9410001 139 146 125 255
-0.35073289 0.18280889 1.9400001 143 150 129 255
-0.34544176 0.18282226 1.9400001 117 123 105 255
-0.3405003 0.183024 1.9420002 115 120 98 255
-0.33554697 0.18322569 1.9440001 114 120 95 255
-0.33058169 0.18342724 1.9460001 133 136 114 255
-0.32560456 0.18362872 1.9480001 110 113 91 255
-0.32061553 0.1838301 1.95 107 112 90 255
-0.31512952 0.18374853 1.9490001 148 151 129 255
-0.30996594 0.18385537 1.95 139 142 118 255
-0.3046397 0.18386781 1.95 132 136 108 255
-0.29977298 0.18416297 1.9530001 133 137 111 255
-0.29473814 0.18436377 1.955 130 133 102 255
-0.2899875 0.18475303 1.9590001 126 128 100 255
-0.28477821 0.18485923 1.96 122 126 100 255
-0.27927735 0.18477665 1.9590001 151 157 132 255
-0.27378103 0.1846939 1.9580001 150 156 131 255
-0.2682893 0.18461098 1.9570001 174 183 162 255
-0.2629365 0.18462221 1.9570001 160 169 150 255
-0.257846 0.18482195 1.9590001 166 172 154 255
-0.25274372 0.18502155 1.9610001 113 119 101 255
-0.24750344 0.18512663 1.9620001 127 133 115 255
-0.24188659 0.18494844 1.96 147 153 135 255
-0.23627985 0.18477005 1.9580001 143 149 131 255
-0.23080117 0.18468584 1.9570001 119 125 107 255
-0.22555755 0.18479019 1.9580001 117 123 105 255
0.27794865 0.17058353 1.8090001 81 85 87 255
0.28289059 0.17057212 1.8090001 116 120 122 255
0.28767255 0.17046629 1.8080001 82 86 88 255
0.29277182 0.1705489 1.8090001 94 98 98 255
0.29787564 0.17063138 1.8100001 82 86 86 255
0.30281675 0.17061944 1.8100001 81 86 83 255
0.30724683 0.17032461 1.807 85 90 87 255
0.31183243 0.17012399 1.8050001 99 104 101 255
0.31623065 0.169829 1.802 84 88 88 255
0.32114625 0.16981667 1.802 86 90 90 255
0.32551816 0.16952156 1.7990001 80 84 86 255
0.33060744 0.16960327 1.8000001 87 91 93 255
0.33570126 0.16968489 1.8010001 95 99 99 255
0.3407996 0.1697664 1.802 82 84 84 255
0.34494326 0.16937679 1.7980001 76 78 78 255
0.34867501 0.16879874 1.7920001 89 91 91 255
0.35296509 0.16850327 1.789 91 93 93 255
0.35803801 0.16858453 1.7900001 88 90 90 255
0.36270994 0.16847731 1.789 87 89 91 255
0.3671701 0.16827591 1.7870001 91 93 93 255
0.37161842 0.16807444 1.7850001 86 90 90 255
0.37689865 0.16824958 1.7870001 87 91 91 255
0.3821888 0.16842461 1.789 81 83 83 255
0.38727275 0.16850546 1.7900001 82 86 86 255
0.39126575 0.16811557 1.7860001 81 85 85 255
0.39567974 0.16791396 1.784 83 88 85 255
0.40053096 0.16790055 1.784 82 87 84 255
0.40538141 0.16788712 1.784 84 87 84 255
0.41046095 0.16796777 1.7850001 81 84 81 255
0.41531241 0.16795428 1.7850001 80 85 82 255
0.42039838 0.16803487 1.7860001 79 84 81 255
0.42548898 0.16811541 1.7870001 80 83 80 255
0.43034345 0.16810186 1.7870001 78 83 80 255
0.4354406 0.16818237 1.7880001 76 81 78 255
0.44029611 0.16816881 1.7880001 77 82 78 255
0.44539982 0.16824931 1.789 79 82 78 255
0.45025653 0.16823573 1.789 79 83 76 255
0.45562127 0.16841027 1.7910001 76 80 73 255
0.46099612 0.16858476 1.7930001 75 78 74 255
0.46664095 0.16885328 1.7960001 76 77 73 255
0.4723013 0.16912179 1.7990001 74 75 71 255
0.47744685 0.16920228 1.8000001 69 73 66 255
0.48259699 0.16928278 1.8010001 71 75 68 255
0.48748133 0.16926932 1.8010001 73 77 70 255
0.49318516 0.16953786 1.8040001 70 74 67 255
0.49780017 0.16943051 1.8030001 71 75 68 255
0.50268805 0.16941722 1.8030001 69 73 66 255
0.50673085 0.1691221 1.8000001 70 74 67 255
0.51189357 0.16920289 1.8010001 71 75 68 255
0.51648742 0.16909584 1.8000001 74 77 73 255
0.52107525 0.16898891 1.7990001 76 81 78 255
0.52448779 0.16850635 1.794 87 92 89 255
0.52816778 0.16811788 1.7900001 95 99 99 255
0.53152788 0.16763565 1.7850001 90 95 92 255
0.53606242 0.1675292 1.784 72 77 74 255
0.54089433 0.16751678 1.784 82 85 82 255
0.54694957 0.16788004 1.7880001 84 87 84 255
0.55302602 0.16824335 1.7920001 87 90 87 255
0.56036913 0.16898225 1.8000001 61 66 63 255
0.56555706 0.16906406 1.8010001 37 42 39 255
