ply
format ascii 1.0
comment PCL generated
element vertex 972
property float x
property float y
property float z
property uchar red
property uchar green
property uchar blue
property uchar alpha
element camera 0
property float view_px
property float view_py
property float view_pz
property float x_axisx
property float x_axisy
property float x_axisz
property float y_axisx
property float y_axisy
property float y_axisz
property float z_axisx
property float z_axisy
property float z_axisz
property float focal
property float scalex
property float scaley
property float centerx
property float centery
property int viewportx
property int viewporty
property float k1
property float k2
end_header
0.66216803 -0.027329199 1.7850001 19 22 10 255
0.66513115 -0.027251162 1.7800001 19 22 10 255
0.66994965 -0.027249716 1.7800001 17 20 8 255
0.67590582 -0.027294235 1.7830001 19 22 10 255
0.68111527 -0.027308181 1.784 17 20 8 255
0.68594623 -0.027306857 1.784 19 22 10 255
0.68961626 -0.027259666 1.7810001 18 21 9 255
0.69599998 -0.027319655 1.7850001 18 21 9 255
0.70162106 -0.027349079 1.7870001 18 21 9 255
0.70606774 -0.027332639 1.7860001 18 20 10 255
0.71767467 -0.027591705 1.8030001 17 20 8 255
0.7277717 -0.027789589 1.8160001 14 19 7 255
0.73269504 -0.027788585 1.8160001 21 28 16 255
0.73599476 -0.027726425 1.812 33 42 30 255
0.73641157 -0.027557217 1.8010001 67 76 65 255
0.73882794 -0.027464576 1.7950001 89 97 89 255
0.74038434 -0.027341396 1.7870001 109 117 110 255
0.74314958 -0.027264178 1.7820001 123 131 124 255
0.74337053 -0.027095223 1.771 127 135 128 255
0.74480057 -0.026972234 1.7630001 131 139 132 255
0.74533808 -0.026818708 1.7530001 135 143 136 255
0.74710649 -0.026711142 1.7460001 139 147 140 255
0.74754643 -0.026557747 1.7360001 141 149 142 255
0.74880028 -0.026435012 1.728 145 153 146 255
0.75001228 -0.02631234 1.72 150 158 151 255
0.75030488 -0.026159139 1.71 152 160 153 255
0.75231075 -0.026067195 1.7040001 156 164 157 255
0.75384152 -0.025960017 1.697 158 166 159 255
0.75488913 -0.025837608 1.6890001 160 168 161 255
0.7549957 -0.025684668 1.6790001 164 172 165 255
0.75459725 -0.025516493 1.6680001 165 172 168 255
0.7564165 -0.025424875 1.6620001 168 175 171 255
0.75591576 -0.025256831 1.651 171 178 174 255
0.75673896 -0.02513475 1.6430001 173 181 174 255
0.7561307 -0.024966836 1.6320001 174 181 177 255
0.75919288 -0.024921376 1.6290001 177 184 180 255
0.7603659 -0.024814792 1.6220001 178 185 181 255
0.76244605 -0.024738871 1.6170001 179 186 183 255
0.76118141 -0.02455592 1.605 179 186 183 255
0.76223862 -0.024449531 1.598 181 188 184 255
0.76326001 -0.024343215 1.5910001 183 190 186 255
0.76424569 -0.024236962 1.5840001 183 190 186 255
0.7632547 -0.024069568 1.5730001 184 191 187 255
0.76318198 -0.023932844 1.5640001 185 192 188 255
0.76257199 -0.023780882 1.554 185 192 189 255
0.76141649 -0.02361368 1.5430001 186 193 190 255
0.75921082 -0.023415927 1.5300001 186 193 190 255
0.75793451 -0.023248842 1.5190001 187 194 191 255
0.75710255 -0.023097128 1.5090001 187 194 191 255
-0.99817967 -0.030855263 1.705 35 37 20 255
-1.0055665 -0.031229556 1.7260001 28 27 11 255
-0.98827189 -0.030983405 1.7130001 28 25 9 255
-1.0017923 -0.031556863 1.7450001 26 20 4 255
-1.006569 -0.031859063 1.7620001 55 45 28 255
-1.0038666 -0.031926304 1.766 72 58 41 255
-0.99831969 -0.031903293 1.7650001 102 79 57 255
-0.99391007 -0.031916585 1.766 116 88 63 255
-0.98726094 -0.03185774 1.7630001 144 116 91 255
-0.97784877 -0.031708717 1.7550001 149 124 101 255
-0.97292221 -0.031704396 1.7550001 132 111 91 255
-0.97020757 -0.031772468 1.7590001 52 40 23 255
-0.96802473 -0.031858727 1.7640001 38 30 14 255
-0.95380801 -0.031547815 1.7470001 62 55 42 255
-0.93969178 -0.031237118 1.7300001 37 25 15 255
-0.9370234 -0.031305756 1.7340001 229 208 196 255
-0.93164986 -0.031284247 1.733 187 164 152 255
-0.92521697 -0.031226773 1.7300001 152 127 113 255
-0.91720957 -0.03111529 1.7240001 168 144 128 255
-0.91082782 -0.031058092 1.7210001 117 94 72 255
-0.90499371 -0.031019073 1.7190001 107 87 63 255
-0.90022254 -0.031016266 1.7190001 37 21 0 255
-0.89649749 -0.031049665 1.7210001 65 52 28 255
-0.89276552 -0.031083174 1.723 47 36 15 255
-0.88902652 -0.031116793 1.725 34 24 5 255
-0.88374281 -0.03109641 1.7240001 55 41 22 255
-0.87846833 -0.031076143 1.723 51 37 18 255
-0.87269622 -0.031037955 1.7210001 93 79 60 255
-0.86593026 -0.030963814 1.7170001 46 32 13 255
-0.86169767 -0.030979948 1.7180001 40 30 13 255
-0.86045587 -0.03110438 1.725 30 24 7 255
-0.8591792 -0.031228906 1.7320001 40 38 20 255
-0.85293412 -0.031173222 1.7290001 39 37 19 255
-0.84670889 -0.031117648 1.7260001 33 31 13 255
-0.84099108 -0.031080207 1.7240001 31 31 13 255
-0.83771276 -0.031133005 1.7270001 27 26 10 255
-0.8324917 -0.03111379 1.7260001 25 24 8 255
-0.82584023 -0.031040598 1.7220001 25 24 10 255
-0.82207459 -0.031075653 1.7240001 27 24 8 255
-0.82209355 -0.031254999 1.7340001 27 24 10 255
-0.82583141 -0.031578623 1.7520001 29 26 12 255
-0.76708102 -0.032117281 1.7820001 175 183 166 255
-0.75838739 -0.03195557 1.7730001 181 192 173 255
-0.75356948 -0.031956136 1.7730001 201 212 193 255
-0.75086445 -0.032046899 1.7780001 129 136 114 255
-0.74897295 -0.032173775 1.7850001 84 92 57 255
-0.7437098 -0.032156534 1.784 67 73 47 255
-0.7380392 -0.03212133 1.7820001 166 172 146 255
-0.73238069 -0.03208619 1.7800001 104 108 82 255
-0.72796041 -0.032105193 1.7810001 112 118 92 255
-0.72231781 -0.032070175 1.779 118 126 100 255
-0.71547711 -0.031981137 1.774 121 127 102 255
-0.7086646 -0.031892154 1.7690001 128 134 109 255
-0.70108443 -0.031767163 1.7620001 179 186 165 255
-0.69433337 -0.031678278 1.7570001 202 208 190 255
-0.68604028 -0.031517319 1.748 216 222 204 255
-0.67896628 -0.031410504 1.7420001 211 217 199 255
-0.67153829 -0.031285696 1.7350001 202 211 192 255
-0.66568643 -0.031233061 1.7320001 195 204 185 255
-0.65985137 -0.031180469 1.7290001 193 202 183 255
-0.65403312 -0.031127922 1.7260001 211 220 201 255
-0.64823169 -0.03107542 1.723 201 208 187 255
-0.64282042 -0.031040993 1.7210001 209 216 194 255
-0.63742059 -0.031006612 1.7190001 185 193 168 255
-0.63166374 -0.030954231 1.7160001 165 173 148 255
-0.62519282 -0.030865809 1.7110001 214 222 196 255
-0.61874926 -0.030777419 1.7060001 188 196 171 255
-0.61377293 -0.030761227 1.705 183 193 168 255
-0.60844487 -0.030727031 1.7030001 182 190 164 255
-0.60348266 -0.030710915 1.702 179 188 157 255
-0.59852582 -0.030694829 1.7010001 170 179 148 255
-0.59392387 -0.030696832 1.7010001 157 166 135 255
-0.58966821 -0.030716913 1.702 173 182 151 255
-0.58506358 -0.030718982 1.702 203 210 189 255
-0.57943583 -0.030666936 1.6990001 190 201 172 255
-0.57416254 -0.030632965 1.697 177 188 151 255
-0.5692358 -0.030617079 1.6960001 183 192 161 255
-0.56464726 -0.030619271 1.6960001 199 208 177 255
-0.55972826 -0.030603437 1.6950001 196 205 176 255
-0.55415958 -0.030551516 1.692 194 205 176 255
-0.54893178 -0.030517675 1.6900001 192 203 174 255
-0.54435873 -0.030519966 1.6900001 200 209 180 255
-0.53946608 -0.03050423 1.6890001 200 209 180 255
-0.5345785 -0.030488512 1.6880001 189 198 169 255
-0.52969617 -0.030472815 1.687 185 193 167 255
-0.52450752 -0.030439073 1.6850001 149 159 133 255
-0.519638 -0.030423414 1.6840001 121 131 105 255
-0.5144676 -0.030389702 1.682 127 137 111 255
-0.50961083 -0.030374076 1.6810001 137 147 122 255
-0.50445855 -0.030340392 1.6790001 161 171 146 255
-0.49931657 -0.030306719 1.677 159 169 144 255
-0.494185 -0.030273059 1.6750001 159 169 144 255
-0.48935613 -0.030257482 1.674 180 192 167 255
-0.48395294 -0.030205768 1.6710001 182 194 169 255
-0.47856537 -0.030154055 1.6680001 182 194 169 255
-0.47376195 -0.030138504 1.6670001 177 189 164 255
-0.46868181 -0.030104883 1.6650001 167 180 153 255
-0.46389079 -0.030089345 1.664 160 173 146 255
-0.45882839 -0.030055732 1.6620001 165 178 151 255
-0.45432296 -0.030058291 1.6620001 165 177 152 255
-0.44954631 -0.030042775 1.6610001 164 177 150 255
-0.44450638 -0.030009169 1.659 173 183 157 255
-0.4394767 -0.029975571 1.6570001 154 167 140 255
-0.43445709 -0.029941967 1.6550001 155 165 139 255
-0.42970738 -0.029926453 1.654 170 180 154 255
-0.42496246 -0.029910944 1.6530001 173 183 158 255
-0.4204765 -0.029913524 1.6530001 163 173 148 255
-0.41523486 -0.029861815 1.6500001 164 174 149 255
-0.41050667 -0.029846301 1.649 146 156 131 255
-0.40602928 -0.029848881 1.649 146 156 131 255
-0.40179464 -0.02986956 1.6500001 139 149 123 255
-0.39755377 -0.029890245 1.651 134 145 114 255
-0.3933067 -0.029910933 1.6520001 131 140 109 255
-0.38858262 -0.029895402 1.651 129 139 106 255
-0.38409576 -0.029897973 1.651 129 141 96 255
-0.37914819 -0.029864321 1.649 136 145 105 255
-0.37466508 -0.029866876 1.649 140 148 112 255
-0.37040564 -0.029887544 1.6500001 143 154 117 255
-0.36613986 -0.029908199 1.651 141 152 115 255
-0.36164871 -0.02991074 1.651 136 147 110 255
-0.35715675 -0.029913273 1.651 138 148 113 255
-0.35309109 -0.029952031 1.6530001 136 146 111 255
-0.34880278 -0.029972665 1.654 132 142 107 255
-0.34450811 -0.029993294 1.6550001 129 139 106 255
-0.3400017 -0.029995788 1.6550001 132 140 105 255
-0.33589983 -0.030034518 1.6570001 131 139 104 255
-0.33158615 -0.030055115 1.6580001 132 140 105 255
-0.32785785 -0.030130081 1.6620001 128 136 100 255
-0.32371783 -0.03016879 1.664 125 132 93 255
-0.31975782 -0.030225622 1.6670001 117 124 85 255
-0.31578055 -0.03028244 1.6700001 73 78 38 255
-0.31141329 -0.030302987 1.6710001 119 124 84 255
-0.30667233 -0.030287243 1.6700001 136 140 102 255
-0.30175507 -0.030253341 1.6680001 131 135 100 255
-0.29702595 -0.030237548 1.6670001 36 38 10 255
-0.29230142 -0.030221742 1.6660001 28 29 7 255
-0.28758138 -0.030205902 1.6650001 29 28 12 255
-0.28252599 -0.030153753 1.6620001 25 22 6 255
-0.27748606 -0.030101577 1.659 28 25 9 255
-0.27328432 -0.030140102 1.6610001 28 25 9 255
-0.26923251 -0.030196751 1.664 30 27 11 255
-0.26452717 -0.030180791 1.6630001 32 29 13 255
-0.2595138 -0.030128507 1.6600001 28 26 8 255
-0.25482312 -0.030112488 1.659 29 26 10 255
-0.25074053 -0.030169049 1.6620001 30 27 11 255
-0.24678881 -0.030243753 1.6660001 22 21 7 255
-0.24295977 -0.030336585 1.6710001 26 25 11 255
-0.23838922 -0.030338624 1.6710001 28 29 15 255
-0.23381779 -0.030340634 1.6710001 49 52 40 255
-0.22910838 -0.030324459 1.6700001 46 51 40 255
-0.22440362 -0.030308252 1.669 66 72 64 255
-0.21944012 -0.03025569 1.6660001 94 100 93 255
-0.21436323 -0.030184928 1.6620001 83 89 81 255
-0.2094337 -0.03013229 1.659 90 98 90 255
-0.20464334 -0.030097777 1.6570001 82 91 80 255
-0.19974241 -0.030045062 1.654 82 91 80 255
-0.19497518 -0.030010477 1.6520001 70 79 67 255
-0.19044875 -0.030012185 1.6520001 74 81 69 255
-0.18614669 -0.030050199 1.654 75 80 68 255
-0.18172315 -0.030070012 1.6550001 66 71 59 255
-0.17707928 -0.030053454 1.654 70 75 63 255
-0.17275321 -0.030091375 1.6560001 68 73 61 255
-0.16861862 -0.030165602 1.6600001 65 70 56 255
-0.16456027 -0.030257976 1.6650001 70 75 63 255
-0.16047384 -0.030350324 1.6700001 65 70 58 255
-0.15673274 -0.030515343 1.6790001 69 74 62 255
-0.15312286 -0.030716689 1.6900001 66 71 59 255
-0.14910053 -0.030845312 1.697 59 64 52 255
-0.14418802 -0.030792132 1.6940001 60 65 51 255
-0.13937375 -0.03075709 1.692 58 63 49 255
-0.13488843 -0.030794719 1.6940001 63 68 54 255
-0.13031465 -0.030814132 1.6950001 52 57 43 255
-0.1255866 -0.030797146 1.6940001 51 56 42 255
-0.1209349 -0.030798297 1.6940001 57 62 48 255
-0.11635136 -0.030817589 1.6950001 66 71 57 255
-0.11176183 -0.030836845 1.6960001 54 59 45 255
-0.10704003 -0.030819688 1.6950001 56 60 43 255
-0.10250448 -0.030857041 1.697 61 64 50 255
-0.09830346 -0.031003458 1.705 67 70 58 255
-0.09411297 -0.031168031 1.7140001 67 72 60 255
-0.089820467 -0.03131438 1.7220001 65 70 59 255
-0.085236534 -0.031369768 1.725 66 71 60 255
-0.080635764 -0.031425115 1.728 66 69 57 255
-0.076018155 -0.03148042 1.7310001 66 69 57 255
-0.071383722 -0.031535681 1.7340001 60 63 49 255
-0.066578828 -0.031518154 1.733 57 61 44 255
-0.061814796 -0.031518769 1.733 54 60 43 255
-0.057083432 -0.031537529 1.7340001 51 56 42 255
-0.052406657 -0.031592615 1.7370001 53 56 42 255
-0.047630895 -0.031593096 1.7370001 49 52 38 255
-0.042854927 -0.031593531 1.7370001 49 52 40 255
-0.038034923 -0.031557541 1.7350001 51 54 40 255
-0.033283282 -0.031576075 1.7360001 49 52 38 255
-0.028525986 -0.031594563 1.7370001 53 56 44 255
-0.023763068 -0.031613003 1.738 56 61 49 255
-0.018983621 -0.031613208 1.738 58 63 51 255
-0.01422044 -0.03164975 1.7400001 60 65 53 255
-0.0094570406 -0.03172262 1.7440001 59 64 50 255
-0.0046796161 -0.031850018 1.751 58 63 49 255
0.00013594107 -0.031886421 1.7530001 58 63 49 255
0.0049624983 -0.031922773 1.7550001 60 65 51 255
0.0097944569 -0.031940892 1.756 60 65 51 255
0.014648529 -0.031995345 1.7590001 58 63 49 255
0.019474726 -0.03197699 1.7580001 58 63 51 255
0.024281504 -0.031940397 1.756 57 62 48 255
0.029126916 -0.031958334 1.7570001 58 63 51 255
0.033958372 -0.031958025 1.7570001 55 60 46 255
0.038811758 -0.031975865 1.7580001 57 62 48 255
0.043670472 -0.031993657 1.7590001 57 62 48 255
0.048562068 -0.032029588 1.761 61 64 50 255
0.05343413 -0.032047287 1.7620001 62 65 51 255
0.058311462 -0.032064941 1.7630001 66 69 55 255
0.063265681 -0.03211892 1.766 66 71 57 255
0.068158977 -0.032136474 1.7670001 62 67 53 255
0.07305748 -0.03215399 1.7680001 63 68 54 255
0.077873021 -0.032135084 1.7670001 62 67 53 255
0.082823195 -0.032170687 1.7690001 58 65 53 255
0.087684862 -0.032169875 1.7690001 59 64 52 255
0.092546158 -0.032169022 1.7690001 54 61 49 255
0.097407065 -0.032168116 1.7690001 53 60 48 255
0.10226755 -0.03216717 1.7690001 55 62 50 255
0.10712761 -0.032166183 1.7690001 56 63 51 255
0.11217712 -0.032219697 1.7720001 64 72 57 255
0.1171766 -0.032254983 1.774 67 75 60 255
0.12239298 -0.032344766 1.779 66 74 59 255
0.12720706 -0.032325421 1.7780001 66 74 59 255
0.13194078 -0.032287847 1.7760001 64 71 59 255
0.13658597 -0.032232054 1.7730001 66 71 59 255
0.14161302 -0.03226712 1.7750001 68 73 59 255
0.146733 -0.032320317 1.7780001 69 74 60 255
0.15195413 -0.032391645 1.7820001 63 68 54 255
0.15702054 -0.032426573 1.784 66 71 57 255
0.16209732 -0.032461457 1.7860001 67 72 58 255
0.1669974 -0.032459952 1.7860001 63 70 58 255
0.17189685 -0.032458402 1.7860001 61 68 56 255
0.17669657 -0.032438643 1.7850001 63 71 56 255
0.18169361 -0.032455191 1.7860001 62 70 55 255
0.1866954 -0.032471694 1.7870001 60 68 53 255
0.19170193 -0.03248816 1.7880001 61 69 54 255
0.19682321 -0.032522757 1.7900001 63 68 54 255
0.20184198 -0.032539144 1.7910001 62 67 53 255
0.20674999 -0.032537322 1.7910001 59 64 50 255
0.21118452 -0.032462802 1.7870001 55 62 50 255
0.21571723 -0.032406416 1.784 55 62 50 255
0.22048002 -0.032386333 1.7830001 57 64 52 255
0.22523654 -0.032366216 1.7820001 65 72 60 255
0.23063238 -0.032436881 1.7860001 69 77 62 255
0.23604931 -0.032507494 1.7900001 69 77 62 255
0.24121805 -0.032541756 1.7920001 67 72 58 255
0.24571016 -0.032485183 1.789 65 70 58 255
0.25018498 -0.032428592 1.7860001 65 70 58 255
0.25521374 -0.032444593 1.7870001 67 72 61 255
0.26097488 -0.032551341 1.7930001 70 75 64 255
0.26661959 -0.032639887 1.7980001 66 71 59 255
0.27244174 -0.032746542 1.8040001 60 65 51 255
0.27675828 -0.032671649 1.8000001 59 64 50 255
0.28152144 -0.032651182 1.7990001 62 67 55 255
0.28580055 -0.032576248 1.7950001 64 69 55 255
0.29119053 -0.032628328 1.7980001 65 70 58 255
0.29626656 -0.032644078 1.7990001 67 72 60 255
0.30168191 -0.032696091 1.802 68 73 59 255
0.30762318 -0.032802504 1.8080001 65 70 56 255
0.31428769 -0.032981437 1.8180001 68 73 61 255
0.32030341 -0.03308776 1.8240001 61 66 54 255
0.32492423 -0.033048935 1.8220001 47 52 41 255
0.32917106 -0.032973818 1.8180001 43 48 37 255
0.33394632 -0.032953095 1.817 43 48 37 255
0.33871526 -0.032932363 1.8160001 60 67 56 255
0.34385616 -0.032947872 1.817 65 72 61 255
0.3488096 -0.032945234 1.817 64 71 60 255
0.35356739 -0.032924443 1.8160001 61 67 59 255
0.3585161 -0.032921769 1.8160001 63 70 59 255
0.36346382 -0.032919079 1.8160001 64 71 60 255
0.3684105 -0.032916371 1.8160001 65 72 60 255
0.37356186 -0.032931771 1.817 66 73 61 255
0.37871766 -0.032947157 1.8180001 68 75 63 255
0.38387793 -0.032962527 1.8190001 68 75 63 255
0.38925642 -0.032995999 1.8210001 66 73 62 255
0.3944284 -0.03301134 1.8220001 65 72 61 255
0.39938554 -0.033008549 1.8220001 65 72 61 255
0.40367603 -0.0329514 1.8190001 65 72 60 255
0.40839851 -0.032930482 1.8180001 66 73 62 255
0.41311455 -0.032909553 1.817 68 75 64 255
0.41805434 -0.032906733 1.817 71 78 67 255
0.42252761 -0.032867692 1.8150001 70 77 66 255
0.42722458 -0.03284676 1.8140001 69 75 67 255
0.43191519 -0.032825824 1.8130001 69 75 67 255
0.43635854 -0.032786779 1.8110001 69 75 67 255
0.44079015 -0.032747742 1.8090001 70 76 68 255
0.44570279 -0.032744914 1.8090001 71 77 69 255
0.45161086 -0.03281448 1.8130001 69 75 67 255
0.45804349 -0.03292023 1.8190001 73 78 67 255
0.46374422 -0.032971676 1.8220001 71 76 64 255
0.4684315 -0.032950733 1.8210001 71 76 64 255
0.47337246 -0.03294789 1.8210001 69 74 60 255
0.47778729 -0.032908868 1.8190001 72 77 63 255
0.48245588 -0.032887943 1.8180001 75 80 66 255
0.48631397 -0.032812767 1.8140001 69 77 62 255
0.49069121 -0.032773778 1.812 68 75 63 255
0.49478346 -0.032716721 1.8090001 68 75 63 255
0.49968728 -0.032713935 1.8090001 65 72 60 255
0.5048694 -0.032729242 1.8100001 65 72 60 255
0.51033789 -0.032762635 1.812 62 69 57 255
0.5155322 -0.032777954 1.8130001 61 68 56 255
0.52015722 -0.032757126 1.812 56 63 51 255
0.52448636 -0.032718241 1.8100001 55 64 53 255
0.52880418 -0.032679375 1.8080001 58 67 56 255
0.53340578 -0.032658607 1.807 63 71 63 255
0.53770345 -0.032619782 1.8050001 60 66 58 255
0.54289168 -0.032635201 1.8060001 61 67 59 255
0.548388 -0.032668695 1.8080001 61 67 59 255
0.55450684 -0.032738339 1.812 62 66 58 255
0.55972075 -0.032753799 1.8130001 57 61 53 255
0.56493962 -0.032769278 1.8140001 60 67 56 255
0.56922114 -0.032730587 1.812 25 31 23 255
0.5731746 -0.032673862 1.8090001 56 62 54 255
0.57743096 -0.032635231 1.807 62 68 61 255
0.58135414 -0.032578573 1.8040001 61 67 60 255
0.58526069 -0.032521952 1.8010001 67 73 66 255
0.58980614 -0.032501478 1.8000001 70 76 68 255
0.59467638 -0.03249909 1.8000001 71 78 67 255
0.59987956 -0.032514792 1.8010001 56 63 52 255
0.60441643 -0.032494411 1.8000001 70 77 65 255
0.60894775 -0.032474071 1.7990001 70 77 65 255
0.61347359 -0.032453761 1.7980001 56 63 51 255
0.61765027 -0.032415442 1.7960001 63 70 59 255
0.62181592 -0.032377161 1.794 67 74 63 255
0.62562156 -0.032320879 1.7910001 68 74 66 255
0.63011515 -0.032300733 1.7900001 63 69 61 255
0.63460338 -0.032280624 1.789 75 79 71 255
0.63980132 -0.03229665 1.7900001 11 15 7 255
0.64464468 -0.032294668 1.7900001 16 18 8 255
0.64912546 -0.032274686 1.789 18 21 9 255
0.65433228 -0.032290835 1.7900001 18 21 9 255
0.65954477 -0.032307021 1.7910001 19 22 10 255
0.66290832 -0.032233067 1.7870001 19 22 10 255
0.66625065 -0.032159168 1.7830001 20 23 11 255
0.6699481 -0.032103356 1.7800001 20 23 11 255
0.67552531 -0.032137774 1.7820001 17 20 8 255
0.68111372 -0.032172233 1.784 17 20 8 255
0.6859448 -0.032170687 1.784 19 22 10 255
0.68961489 -0.032115091 1.7810001 17 20 8 255
0.69365919 -0.032077581 1.779 18 21 9 255
0.69730097 -0.0320221 1.7760001 18 21 9 255
0.70369458 -0.032092892 1.7800001 20 23 11 255
0.712897 -0.032289933 1.7910001 20 23 11 255
0.72576678 -0.032649275 1.8110001 16 19 7 255
0.72986978 -0.032612041 1.8090001 11 16 4 255
0.73436898 -0.0325929 1.8080001 36 43 31 255
0.73436618 -0.032375529 1.7960001 45 54 42 255
0.73800391 -0.032320473 1.7930001 93 102 91 255
0.73914063 -0.032157332 1.784 99 107 100 255
0.74273187 -0.032102413 1.7810001 117 125 118 255
0.74253035 -0.031885341 1.7690001 126 134 127 255
0.74353254 -0.031722423 1.7600001 131 139 132 255
0.74363679 -0.031523533 1.7490001 137 145 138 255
0.74625015 -0.03143286 1.7440001 140 148 141 255
0.74711537 -0.031270169 1.7350001 142 150 143 255
0.74836659 -0.031125573 1.7270001 146 154 147 255
0.7487039 -0.030945012 1.7170001 152 160 153 255
0.74986589 -0.030800572 1.7090001 152 160 153 255
0.75275213 -0.030728297 1.705 154 162 155 255
0.75472993 -0.030620052 1.6990001 156 164 157 255
0.75488913 -0.030439798 1.6890001 160 167 163 255
0.7549957 -0.030259617 1.6790001 165 173 166 255
0.75369263 -0.030025451 1.6660001 168 175 171 255
0.75505131 -0.029899489 1.659 169 176 172 255
0.75454259 -0.029701518 1.6480001 171 179 172 255
0.75673938 -0.029611763 1.6430001 172 180 173 255
0.75705773 -0.02944999 1.6340001 173 181 174 255
0.75919342 -0.029360389 1.6290001 175 182 178 255
0.75989771 -0.029216798 1.6210001 175 182 178 255
0.76197523 -0.029127356 1.6160001 178 185 182 255
0.76118213 -0.028929841 1.605 179 186 183 255
0.76223946 -0.028804511 1.598 172 179 175 255
0.76278114 -0.028661231 1.59 182 189 185 255
0.76328164 -0.028518029 1.582 183 190 186 255
0.76228535 -0.028320823 1.5710001 184 191 187 255
0.76123124 -0.02812369 1.5600001 184 191 187 255
0.76159179 -0.027980715 1.552 184 191 187 255
0.76092428 -0.02780176 1.5420001 187 194 190 255
0.75921214 -0.027586814 1.5300001 186 193 190 255
0.75793594 -0.027389975 1.5190001 186 193 190 255
0.75760573 -0.027229266 1.5100001 184 191 188 255
0.75672448 -0.027050603 1.5000001 187 194 191 255
-1.0292146 -0.036624648 1.7580001 31 33 16 255
-0.98385864 -0.035340991 1.697 28 27 11 255
-0.99800569 -0.036363814 1.7470001 28 20 3 255
-1.0055773 -0.036815871 1.7690001 38 26 9 255
-1.0079404 -0.037080683 1.7820001 83 64 44 255
-1.0006689 -0.036991905 1.7780001 104 81 59 255
-0.9906258 -0.036799304 1.7690001 129 103 77 255
-0.98286813 -0.036690127 1.7640001 148 123 100 255
-0.97957927 -0.036747515 1.7670001 125 102 80 255
-0.97462457 -0.036742672 1.7670001 81 69 52 255
-0.9724192 -0.03684194 1.7720001 38 35 19 255
-0.9543581 -0.036338475 1.748 52 45 34 255
-0.94784319 -0.036271799 1.7450001 56 47 36 255
-0.94135034 -0.036205288 1.7420001 36 20 11 255
-0.93380386 -0.036097381 1.7370001 231 211 203 255
-0.92735964 -0.036031198 1.7340001 231 210 198 255
-0.91934097 -0.035902843 1.728 228 205 191 255
-0.91083115 -0.035753891 1.7210001 143 120 100 255
-0.90447026 -0.035688192 1.7180001 101 81 57 255
-0.89970177 -0.035684962 1.7180001 89 71 45 255
-0.89910495 -0.035848022 1.7260001 68 54 30 255
-0.89743149 -0.035969656 1.7320001 45 34 13 255
-0.89675987 -0.036132935 1.7400001 37 25 6 255
-0.88938391 -0.036026385 1.7350001 49 35 16 255
-0.88051003 -0.035857692 1.7270001 49 35 16 255
-0.87371254 -0.035772193 1.723 89 75 58 255
-0.86946255 -0.035790637 1.7240001 70 56 39 255
-0.86671531 -0.03587148 1.728 40 30 13 255
-0.8649472 -0.035993952 1.7340001 42 34 17 255
-0.86066926 -0.03601275 1.7350001 49 45 28 255
-0.85490906 -0.035969391 1.733 51 47 30 255
-0.84671038 -0.035822388 1.7260001 43 41 23 255
-0.84050477 -0.035758529 1.723 35 33 15 255
-0.83480364 -0.035715543 1.7210001 27 26 10 255
-0.82911658 -0.035672672 1.7190001 25 25 7 255
-0.82296377 -0.03560916 1.7160001 28 27 11 255
-0.81730717 -0.035566516 1.7140001 35 32 16 255
-0.81687933 -0.035752229 1.723 26 23 9 255
-0.75824404 -0.037015788 1.784 175 186 167 255
-0.75170839 -0.03693353 1.7800001 213 220 199 255
-0.74729383 -0.036955092 1.7810001 65 72 50 255
-0.74329203 -0.036997486 1.7830001 64 72 47 255
-0.7392807 -0.037039958 1.7850001 159 165 140 255
-0.73525977 -0.037082504 1.7870001 218 223 201 255
-0.73082054 -0.037104379 1.7880001 217 224 203 255
-0.72434682 -0.037022568 1.784 215 225 202 255
-0.71789581 -0.036940821 1.7800001 217 224 203 255
-0.71066636 -0.036817629 1.774 216 223 202 255
-0.70307255 -0.036673743 1.7670001 211 217 199 255
-0.6970982 -0.036612932 1.7640001 211 217 199 255
-0.6899637 -0.036489915 1.7580001 224 230 212 255
-0.68325222 -0.036387708 1.7530001 222 228 210 255
-0.6746332 -0.036181763 1.743 207 216 197 255
-0.66760653 -0.036058892 1.7370001 195 204 185 255
-0.66099459 -0.035956834 1.7320001 201 210 191 255
-0.65592605 -0.035937868 1.7310001 208 217 198 255
-0.64973485 -0.035856664 1.7270001 215 224 203 255
-0.64431274 -0.035817035 1.725 205 212 190 255
-0.63816035 -0.035735924 1.7210001 204 212 187 255
-0.63276625 -0.035696395 1.7190001 163 171 146 255
-0.6262871 -0.035594605 1.7140001 213 221 196 255
-0.62019801 -0.035513617 1.71 200 208 183 255
-0.61521083 -0.035494979 1.7090001 190 200 175 255
-0.60951477 -0.035434842 1.7060001 183 193 167 255
-0.60454428 -0.035416286 1.705 175 184 155 255
-0.59922749 -0.035377003 1.7030001 166 175 144 255
-0.59496915 -0.035400078 1.7040001 162 171 140 255
-0.59035891 -0.035402421 1.7040001 165 174 143 255
-0.58609253 -0.035425581 1.705 192 201 170 255
-0.58079773 -0.035386451 1.7030001 189 198 169 255
-0.57517523 -0.035326563 1.7 184 193 164 255
-0.56990474 -0.035287492 1.6980001 176 185 154 255
-0.56531066 -0.035290014 1.6980001 191 200 171 255
-0.5603863 -0.035271786 1.697 173 181 155 255
-0.55513972 -0.035232801 1.6950001 186 196 170 255
-0.54957891 -0.035173055 1.692 186 196 170 255
-0.54467839 -0.035154913 1.6910001 195 206 177 255
-0.53946364 -0.035116002 1.6890001 191 200 171 255
-0.534576 -0.035097901 1.6880001 175 184 155 255
-0.5296936 -0.035079829 1.687 173 181 155 255
-0.52543885 -0.035103373 1.6880001 185 195 169 255
-0.51994395 -0.03504375 1.6850001 181 191 165 255
-0.5150767 -0.035025742 1.6840001 155 165 140 255
-0.51021445 -0.035007749 1.6830001 160 170 145 255
-0.5050568 -0.034968976 1.6810001 182 192 167 255
-0.49961168 -0.034909409 1.6780001 186 196 171 255
-0.49477237 -0.034891464 1.677 188 198 173 255
-0.48993811 -0.034873538 1.6760001 182 194 169 255
-0.48481905 -0.03483481 1.674 173 185 160 255
-0.47942334 -0.034775283 1.6710001 163 175 150 255
-0.47461179 -0.034757379 1.6700001 158 170 145 255
-0.46952361 -0.034718681 1.6680001 165 178 151 255
-0.46472436 -0.034700796 1.6670001 167 180 153 255
-0.4593778 -0.034641284 1.664 160 173 146 255
-0.45486695 -0.034644235 1.664 160 173 146 255
-0.45008489 -0.034626376 1.6630001 163 176 149 255
-0.44557542 -0.034629337 1.6630001 167 177 151 255
-0.44106528 -0.03463231 1.6630001 158 168 143 255
-0.43629184 -0.034614459 1.6620001 161 173 148 255
-0.4315232 -0.034596611 1.6610001 160 170 145 255
-0.42675927 -0.034578767 1.6600001 169 179 154 255
-0.42199993 -0.034560915 1.659 171 181 156 255
-0.41749701 -0.034563903 1.659 168 178 153 255
-0.4124954 -0.034525216 1.6570001 168 178 152 255
-0.4079963 -0.034528196 1.6570001 158 171 144 255
-0.40325296 -0.034510341 1.6560001 156 169 142 255
-0.39899582 -0.034534164 1.6570001 159 169 146 255
-0.39425623 -0.034516297 1.6560001 159 166 145 255
-0.38975665 -0.03451927 1.6560001 153 160 138 255
-0.3847909 -0.034480538 1.654 148 159 122 255
-0.3802951 -0.0344835 1.654 145 154 115 255
-0.37557122 -0.034465604 1.6530001 143 151 115 255
-0.37130085 -0.034489393 1.654 144 152 116 255
-0.36702421 -0.034513183 1.6550001 148 158 123 255
-0.36252221 -0.034516111 1.6550001 154 164 129 255
-0.35801935 -0.034519028 1.6550001 161 171 138 255
-0.35372922 -0.034542792 1.6560001 158 168 135 255
-0.34964362 -0.034587409 1.6580001 133 143 110 255
-0.34533808 -0.034611154 1.659 132 142 109 255
-0.34082073 -0.03461403 1.659 129 136 104 255
-0.33650529 -0.034637757 1.6600001 118 126 91 255
-0.33238342 -0.034682337 1.6620001 130 138 103 255
-0.32844704 -0.034747779 1.6650001 128 136 100 255
-0.32410434 -0.034771472 1.6660001 123 130 91 255
-0.32033065 -0.034857765 1.6700001 133 140 101 255
-0.31615612 -0.034902304 1.6720001 138 143 101 255
-0.3117834 -0.034925956 1.6730001 132 137 95 255
-0.30685344 -0.034886956 1.6710001 126 131 91 255
-0.30211434 -0.034868807 1.6700001 112 116 80 255
-0.29737979 -0.034850631 1.669 38 40 12 255
-0.29264981 -0.034832429 1.6680001 27 28 6 255
-0.28792438 -0.034814201 1.6670001 26 26 8 255
-0.2833735 -0.034816828 1.6670001 27 24 8 255
-0.27848724 -0.034777656 1.6650001 28 25 9 255
-0.27394006 -0.034780234 1.6650001 27 24 8 255
-0.26939195 -0.034782782 1.6650001 29 26 10 255
-0.26500204 -0.034806196 1.6660001 29 27 9 255
-0.25998047 -0.034746006 1.6630001 29 27 9 255
-0.25528166 -0.03472757 1.6620001 29 26 10 255
-0.25088912 -0.034750894 1.6630001 29 26 10 255
-0.24693471 -0.034836885 1.6670001 24 21 5 255
-0.24281214 -0.034901954 1.6700001 25 24 8 255
-0.23881499 -0.0349879 1.674 23 24 10 255
-0.23409548 -0.034969319 1.6730001 39 42 28 255
-0.22938064 -0.034950696 1.6720001 60 65 53 255
-0.22440153 -0.034890231 1.669 65 72 61 255
-0.2197015 -0.034871537 1.6680001 95 101 93 255
-0.21474816 -0.034810983 1.6650001 77 85 77 255
-0.20955797 -0.034708574 1.6600001 91 99 91 255
-0.2043944 -0.03460611 1.6550001 82 91 80 255
-0.19961976 -0.034566335 1.6530001 94 103 92 255
-0.19497333 -0.03454743 1.6520001 69 78 66 255
-0.19056223 -0.03457031 1.6530001 76 83 71 255
-0.1861449 -0.034593154 1.654 81 88 76 255
-0.18172139 -0.034615964 1.6550001 65 70 58 255
-0.17718463 -0.034617815 1.6550001 76 81 69 255
-0.17296016 -0.034682386 1.6580001 70 75 61 255
-0.16882011 -0.03476784 1.6620001 67 72 58 255
-0.16495399 -0.034916021 1.669 71 76 62 255
-0.16095273 -0.035043251 1.6750001 67 72 58 255
-0.15738465 -0.035275068 1.6860001 71 76 62 255
-0.15357436 -0.035465013 1.6950001 68 73 59 255
-0.14936262 -0.035571236 1.7 60 65 51 255
-0.1442717 -0.035468169 1.6950001 58 63 49 255
-0.1395371 -0.035448752 1.6940001 61 66 52 255
-0.13480744 -0.035429288 1.6930001 54 59 45 255
-0.13015959 -0.035430707 1.6930001 61 69 54 255
-0.12551121 -0.035432078 1.6930001 62 70 55 255
-0.12093369 -0.035454337 1.6940001 57 65 50 255
-0.11635017 -0.035476539 1.6950001 56 64 49 255
-0.11169479 -0.035477776 1.6950001 56 62 45 255
-0.10703894 -0.035478957 1.6950001 55 61 44 255
-0.10262426 -0.035563827 1.6990001 61 66 52 255
-0.098533086 -0.035774242 1.7090001 67 72 58 255
-0.094386555 -0.035984628 1.7190001 66 71 59 255
-0.08997602 -0.036111232 1.725 61 66 54 255
-0.085334495 -0.036154065 1.7270001 63 66 54 255
-0.080634937 -0.036175903 1.728 64 67 55 255
-0.075885631 -0.036176763 1.728 57 60 48 255
-0.071177155 -0.036198504 1.7290001 57 60 46 255
-0.066501297 -0.036241136 1.7310001 54 57 43 255
-0.061778497 -0.03626278 1.7320001 55 58 44 255
-0.057017002 -0.036263436 1.7320001 54 57 43 255
-0.052255262 -0.036264036 1.7320001 48 53 41 255
-0.047493301 -0.036264591 1.7320001 48 53 41 255
-0.042731125 -0.03626509 1.7320001 50 55 43 255
-0.037968766 -0.036265533 1.7320001 49 54 42 255
-0.033187076 -0.036244992 1.7310001 53 58 46 255
-0.028460002 -0.036287211 1.733 56 61 49 255
-0.023694457 -0.036287501 1.733 54 59 47 255
-0.018939734 -0.036308672 1.7340001 56 61 49 255
-0.014187601 -0.036350738 1.7360001 59 64 52 255
-0.0094515188 -0.036497444 1.743 60 65 51 255
-0.0046768952 -0.036644101 1.7500001 62 67 53 255
0.00013593967 -0.036706943 1.7530001 58 63 49 255
0.0049567916 -0.036706917 1.7530001 58 63 49 255
0.0097776223 -0.036706839 1.7530001 59 64 50 255
0.014615065 -0.036748577 1.7550001 57 62 48 255
0.019419136 -0.036706515 1.7530001 58 63 51 255
0.024212115 -0.036664389 1.751 57 62 50 255
0.029027149 -0.036664095 1.751 56 61 49 255
0.033900037 -0.036726564 1.7540001 56 61 49 255
0.038789276 -0.036788974 1.7570001 57 62 48 255
0.043670021 -0.036830395 1.7590001 59 64 50 255
0.048589148 -0.036892701 1.7620001 61 66 52 255
0.05346391 -0.036913075 1.7630001 63 68 54 255
0.058410078 -0.036975265 1.766 62 67 53 255
0.063336678 -0.03701647 1.7680001 66 71 57 255
0.06823542 -0.037036683 1.7690001 62 67 53 255
0.073015407 -0.036994033 1.7670001 63 68 54 255
0.077828154 -0.036972269 1.766 60 68 53 255
0.082681887 -0.036971387 1.766 55 63 48 255
0.087634392 -0.037012324 1.7680001 58 63 51 255
0.092440583 -0.036990408 1.7670001 58 65 53 255
0.097351015 -0.037010305 1.7680001 57 64 52 255
0.10226651 -0.037030149 1.7690001 60 68 53 255
0.1073082 -0.03709181 1.7720001 64 72 57 255
0.11230259 -0.037132476 1.774 65 73 58 255
0.11737359 -0.037194032 1.7770001 66 74 59 255
0.12232294 -0.037213665 1.7780001 68 76 61 255
0.12706268 -0.037170462 1.7760001 68 75 63 255
0.13171659 -0.037106287 1.7730001 63 70 58 255
0.13650756 -0.037083916 1.7720001 66 71 59 255
0.14145204 -0.037103359 1.7730001 67 72 60 255
0.146649 -0.037185524 1.7770001 70 75 63 255
0.15186733 -0.03726764 1.7810001 67 72 58 255
0.15693098 -0.037307855 1.7830001 67 72 58 255
0.1619142 -0.037327088 1.784 67 72 58 255
0.16671525 -0.037304431 1.7830001 64 69 55 255
0.17151015 -0.037281733 1.7820001 66 71 57 255
0.17639787 -0.037279915 1.7820001 64 69 55 255
0.18128489 -0.037278045 1.7820001 68 73 59 255
0.18648463 -0.037338894 1.7850001 66 71 57 255
0.19137846 -0.037336931 1.7850001 64 69 55 255
0.19649142 -0.037376761 1.7870001 64 69 55 255
0.20138924 -0.037374713 1.7870001 64 69 57 255
0.20640168 -0.037393536 1.7880001 57 64 52 255
0.21106434 -0.037349585 1.7860001 56 63 51 255
0.21571517 -0.037305586 1.784 59 66 55 255
0.22035429 -0.037261561 1.7820001 59 68 57 255
0.22510803 -0.037238408 1.7810001 65 72 60 255
0.23063025 -0.037340663 1.7860001 69 76 64 255
0.23644271 -0.037484676 1.7930001 66 73 61 255
0.24188884 -0.037565917 1.7970001 66 71 59 255
0.24625728 -0.037479889 1.7930001 61 66 54 255
0.25032276 -0.037352029 1.7870001 60 65 53 255
0.25506857 -0.037328649 1.7860001 62 67 55 255
0.26053581 -0.037409734 1.7900001 70 75 63 255
0.26602402 -0.037490778 1.794 67 72 60 255
0.27198628 -0.037634466 1.8010001 61 66 52 255
0.27660203 -0.037590045 1.7990001 59 66 54 255
0.28151894 -0.037587382 1.7990001 60 67 55 255
0.28595725 -0.037522011 1.7960001 63 70 58 255
0.29118794 -0.03756107 1.7980001 65 72 60 255
0.29593462 -0.037537429 1.7970001 64 72 57 255
0.30117708 -0.037576422 1.7990001 64 72 57 255
0.30796084 -0.037803359 1.8100001 66 71 57 255
0.31463075 -0.038009342 1.8200001 70 75 63 255
0.3203007 -0.038089976 1.8240001 49 54 42 255
0.32438648 -0.037982639 1.8190001 41 46 35 255
0.32916826 -0.037958808 1.8180001 39 44 33 255
0.33412737 -0.037955835 1.8180001 53 58 47 255
0.33889893 -0.037931964 1.817 60 67 56 255
0.34385332 -0.037928946 1.817 62 69 58 255
0.34861478 -0.037905041 1.8160001 65 71 63 255
0.35336977 -0.03788111 1.8150001 64 70 62 255
0.35831577 -0.037878033 1.8150001 62 69 58 255
0.36366099 -0.037916675 1.817 64 69 58 255
0.36881337 -0.03793443 1.8180001 69 74 63 255
0.37376451 -0.037931293 1.8180001 67 72 60 255
0.37850642 -0.03790728 1.817 67 72 60 255
0.38366395 -0.037924979 1.8180001 70 75 64 255
0.3890397 -0.037963517 1.8200001 68 73 62 255
0.39442539 -0.038002037 1.8220001 68 74 66 255
0.39960176 -0.038019679 1.8230001 65 71 63 255
0.40433875 -0.037995599 1.8220001 66 73 62 255
0.40906939 -0.037971515 1.8210001 64 71 60 255
0.41356626 -0.03792657 1.8190001 67 74 62 255
0.41851151 -0.037923325 1.8190001 68 75 63 255
0.42322296 -0.037899226 1.8180001 71 78 67 255
0.42792809 -0.03787512 1.817 70 77 66 255
0.4323886 -0.037830174 1.8150001 71 78 67 255
0.43683743 -0.037785232 1.8130001 69 76 65 255
0.44151807 -0.037761129 1.812 73 80 69 255
0.4469316 -0.037799548 1.8140001 73 79 71 255
0.45384967 -0.037962969 1.8220001 71 78 67 255
0.46055853 -0.038105529 1.8290001 70 77 65 255
0.46628636 -0.038164731 1.8320001 68 73 61 255
0.47100085 -0.03814061 1.8310001 68 73 61 255
0.47648877 -0.038178973 1.8330001 67 72 58 255
0.48146147 -0.038175691 1.8330001 68 73 59 255
0.48616812 -0.038151585 1.8320001 70 75 63 255
0.48952797 -0.038023368 1.8260001 69 74 62 255
0.49366701 -0.03795765 1.8230001 74 79 68 255
0.49724203 -0.037850313 1.8180001 72 79 67 255
0.50134158 -0.037784632 1.8150001 71 78 67 255
0.50514537 -0.037698168 1.8110001 71 78 67 255
0.51005328 -0.037694983 1.8110001 67 74 63 255
0.5152449 -0.037712622 1.812 68 75 64 255
0.51958013 -0.037667837 1.8100001 66 73 62 255
0.5241937 -0.037643891 1.8090001 59 66 55 255
0.52850878 -0.037599154 1.807 59 67 59 255
0.53340286 -0.037596054 1.807 66 74 66 255
0.5379985 -0.037572172 1.8060001 63 71 63 255
0.54318935 -0.037589915 1.807 64 71 60 255
0.54777861 -0.037566081 1.8060001 67 72 61 255
0.55358601 -0.037625462 1.8090001 59 64 52 255
0.55971795 -0.037705656 1.8130001 60 65 53 255
0.56555974 -0.037765075 1.8160001 52 57 45 255
0.57016081 -0.037741322 1.8150001 47 54 42 255
0.57380557 -0.037655227 1.8110001 66 73 61 255
0.57774788 -0.037589964 1.8080001 63 70 59 255
0.58199596 -0.037545536 1.8060001 62 69 58 255
0.5862329 -0.037501141 1.8040001 67 74 63 255
0.59111428 -0.037498359 1.8040001 69 76 65 255
0.59599537 -0.037495606 1.8040001 65 72 60 255
0.60054314 -0.037472107 1.8030001 56 63 51 255
0.60508543 -0.037448648 1.802 67 74 62 255
0.60928375 -0.037404452 1.8000001 75 80 68 255
0.61381245 -0.037381075 1.7990001 56 63 51 255
0.61764789 -0.037316188 1.7960001 69 76 64 255
0.6218136 -0.037272129 1.794 66 73 62 255
0.62561929 -0.037207335 1.7910001 70 74 66 255
0.62976092 -0.037163373 1.789 71 75 67 255
0.63424653 -0.037140232 1.7880001 79 83 75 255
0.63872689 -0.037117139 1.7870001 13 15 7 255
0.64320207 -0.037094101 1.7860001 16 18 8 255
0.64767212 -0.037071113 1.7850001 20 22 12 255
0.65323365 -0.03711047 1.7870001 20 23 11 255
0.65806985 -0.037108347 1.7870001 19 22 10 255
0.66179353 -0.037043981 1.784 20 23 11 255
0.66550142 -0.036979679 1.7810001 20 23 11 255
0.66881716 -0.036894675 1.7770001 18 21 9 255
0.67324907 -0.036872022 1.7760001 17 19 9 255
0.67767596 -0.036849421 1.7750001 19 21 11 255
0.68286723 -0.036868408 1.7760001 15 20 9 255
0.68806446 -0.036887448 1.7770001 17 19 9 255
0.69170815 -0.036823522 1.774 18 20 10 255
0.69494373 -0.036738906 1.7700001 16 18 8 255
0.69934446 -0.036716629 1.7690001 18 21 9 255
0.70811909 -0.036922719 1.779 21 24 12 255
0.72215867 -0.037398662 1.802 19 22 10 255
0.72865808 -0.037480332 1.8060001 11 16 4 255
0.7327432 -0.037437551 1.8040001 32 37 25 255
0.73395628 -0.03724958 1.7950001 35 44 32 255
0.73800284 -0.037206952 1.7930001 68 77 65 255
0.7399683 -0.037060652 1.7860001 90 98 90 255
0.74147987 -0.036893684 1.7780001 109 117 110 255
0.7416901 -0.036664546 1.7670001 126 134 127 255
0.74226451 -0.036456253 1.7570001 131 139 132 255
0.74278581 -0.036248047 1.7470001 134 142 135 255
0.74539381 -0.036143668 1.7420001 138 146 139 255
0.74668431 -0.035977133 1.7340001 141 149 141 255
0.74793291 -0.035810683 1.7260001 146 154 147 255
0.74826747 -0.035602823 1.7160001 151 159 152 255
0.7503044 -0.035478044 1.71 153 161 154 255
0.75363499 -0.035415594 1.7070001 153 161 154 255
0.75517404 -0.03527024 1.7 157 164 160 255
0.75533605 -0.035062734 1.6900001 161 168 164 255
0.75499582 -0.034834571 1.6790001 161 168 164 255
0.75414515 -0.034585752 1.6670001 164 171 167 255
0.75550669 -0.034440752 1.6600001 169 176 172 255
0.75545859 -0.0342336 1.6500001 171 179 172 255
0.75720036 -0.034109529 1.6440001 172 180 173 255
0.75659496 -0.033881806 1.6330001 171 179 172 255
0.75826192 -0.033757918 1.6270001 174 181 177 255
0.75802326 -0.033551116 1.6170001 177 184 180 255
0.76056141 -0.033468902 1.613 180 187 183 255
0.76023453 -0.033262283 1.603 178 185 181 255
0.76128644 -0.033118006 1.5960001 180 187 183 255
0.76230246 -0.032973815 1.5890001 179 186 182 255
0.76135296 -0.03274671 1.5780001 180 187 183 255
0.76083088 -0.032540441 1.5680001 182 189 185 255
0.75928068 -0.03229275 1.5560001 186 193 189 255
0.75963038 -0.032128159 1.5480001 185 192 188 255
0.75845838 -0.031901389 1.5370001 184 191 187 255
0.75822133 -0.03171622 1.5280001 186 193 189 255
0.75693965 -0.031489614 1.5170001 186 193 190 255
0.75760752 -0.031346135 1.5100001 184 191 188 255
-1.0023786 -0.041123074 1.7460001 32 29 13 255
-1.0209559 -0.042492334 1.8050001 35 23 4 255
-1.0102423 -0.042250574 1.7950001 71 57 37 255
-0.99903131 -0.041985545 1.784 106 86 62 255
-0.99123138 -0.04186197 1.779 142 119 96 255
-0.98679137 -0.041879788 1.7800001 146 120 101 255
-0.97738755 -0.041686062 1.7720001 128 104 86 255
-0.97352165 -0.041727778 1.774 63 67 49 255
-0.96091443 -0.041393366 1.7600001 58 57 43 255
-0.95545214 -0.041364923 1.7590001 60 57 43 255
-0.95162189 -0.041407201 1.761 58 49 38 255
-0.94402224 -0.04128506 1.756 40 28 18 255
-0.93859476 -0.041257162 1.7550001 105 89 79 255
-0.92466515 -0.040853325 1.738 232 217 204 255
-0.91348094 -0.04056726 1.7260001 135 117 101 255
-0.90500033 -0.040398911 1.7190001 96 77 57 255
-0.90389472 -0.040559743 1.7260001 92 72 46 255
-0.90275455 -0.040720701 1.733 39 21 0 255
-0.902098 -0.040905282 1.7410001 40 26 2 255
-0.8998552 -0.041019503 1.7460001 36 22 2 255
-0.89810127 -0.041157346 1.7520001 34 20 1 255
-0.88663089 -0.040849015 1.7390001 41 29 10 255
-0.87929314 -0.040728778 1.7340001 46 34 17 255
-0.87400401 -0.040702645 1.733 83 71 54 255
-0.87173331 -0.04081757 1.738 69 57 40 255
-0.86744344 -0.040838689 1.7390001 73 63 46 255
-0.8626554 -0.040836453 1.7390001 61 53 36 255
-0.85589761 -0.040740438 1.7350001 64 58 41 255
-0.84867448 -0.04062108 1.7300001 59 57 39 255
-0.84196979 -0.04052534 1.7260001 38 35 19 255
-0.83577538 -0.040453225 1.723 29 31 14 255
-0.82815337 -0.040310804 1.7170001 26 28 11 255
-0.82536298 -0.040403284 1.7210001 29 28 12 255
-0.7493909 -0.041925862 1.7860001 183 188 174 255
-0.74412471 -0.041903391 1.7850001 221 227 210 255
-0.74259287 -0.04209229 1.7930001 237 243 226 255
-0.7406075 -0.042257816 1.8000001 221 227 210 255
-0.73531532 -0.042235613 1.7990001 217 225 208 255
-0.72921771 -0.042166539 1.7960001 212 222 205 255
-0.72152424 -0.04200362 1.789 210 220 205 255
-0.71427023 -0.041864254 1.7830001 211 221 206 255
-0.70665199 -0.041701473 1.7760001 211 221 204 255
-0.6998629 -0.041585721 1.771 211 221 204 255
-0.69231671 -0.04142306 1.7640001 210 220 203 255
-0.68480951 -0.04126047 1.7570001 213 223 206 255
-0.67617965 -0.041027471 1.7470001 210 220 203 255
-0.66914207 -0.04088847 1.7410001 201 211 194 255
-0.66251922 -0.040773008 1.7360001 205 215 198 255
-0.65706086 -0.040728059 1.7340001 207 217 200 255
-0.65048528 -0.040612701 1.7290001 225 234 215 255
-0.64431065 -0.040520888 1.725 189 198 179 255
-0.6381582 -0.040429119 1.7210001 197 206 187 255
-0.63350022 -0.040431377 1.7210001 215 224 205 255
-0.62774646 -0.040363204 1.7180001 210 219 200 255
-0.62200916 -0.040295079 1.715 203 212 191 255
-0.6166485 -0.040250503 1.7130001 191 200 179 255
-0.61094153 -0.040182471 1.71 179 189 166 255
-0.6056056 -0.04013798 1.7080001 163 173 148 255
-0.60028064 -0.040093537 1.7060001 169 180 151 255
-0.59566498 -0.040096138 1.7060001 170 181 152 255
-0.59104931 -0.040098786 1.7060001 179 187 161 255
-0.58609003 -0.040077977 1.705 191 199 173 255
-0.58113617 -0.040057208 1.7040001 196 204 179 255
-0.57584929 -0.040012963 1.702 188 195 173 255
-0.57090896 -0.039992277 1.7010001 208 216 191 255
-0.56630677 -0.039995126 1.7010001 191 199 174 255
-0.56137425 -0.039974507 1.7 191 199 174 255
-0.55546445 -0.039883375 1.6960001 152 162 137 255
-0.54990095 -0.03981578 1.6930001 193 203 178 255
-0.54467553 -0.039771728 1.6910001 194 202 177 255
-0.54009956 -0.039774746 1.6910001 177 185 159 255
-0.53488988 -0.03973075 1.6890001 175 183 157 255
-0.53000474 -0.039710298 1.6880001 179 187 161 255
-0.52543586 -0.039713401 1.6880001 186 195 166 255
-0.52055812 -0.039693005 1.687 192 199 170 255
-0.51537961 -0.039649103 1.6850001 161 170 139 255
-0.51081771 -0.039652273 1.6850001 161 170 139 255
-0.50535417 -0.039584875 1.682 182 191 160 255
-0.50050187 -0.039564561 1.6810001 179 188 159 255
-0.4947693 -0.039473645 1.677 198 207 178 255
-0.48993501 -0.039453354 1.6760001 176 187 158 255
-0.48481593 -0.039409541 1.674 174 184 158 255
-0.47999406 -0.039389279 1.6730001 200 210 184 255
-0.47517705 -0.039369028 1.6720001 191 201 175 255
-0.47092789 -0.039395891 1.6730001 190 203 176 255
-0.46583635 -0.039352112 1.6710001 181 193 168 255
-0.46103105 -0.039331894 1.6700001 149 162 135 255
-0.45595726 -0.039288133 1.6680001 143 156 129 255
-0.45116422 -0.039267927 1.6670001 134 147 120 255
-0.4461081 -0.03922417 1.6650001 130 140 114 255
-0.44106206 -0.039180413 1.6630001 122 133 104 255
-0.43655124 -0.039183781 1.6630001 103 114 85 255
-0.43255916 -0.039234277 1.6650001 107 118 89 255
-0.42829862 -0.039261226 1.6660001 122 132 106 255
-0.42377737 -0.039264612 1.6660001 131 141 115 255
-0.41900373 -0.039244425 1.6650001 116 126 100 255
-0.41398588 -0.039200671 1.6630001 98 111 84 255
-0.40947053 -0.039204057 1.6630001 120 133 106 255
-0.40471083 -0.039183859 1.6620001 135 148 121 255
-0.39995581 -0.039163664 1.6610001 105 118 89 255
-0.39520535 -0.039143451 1.6600001 103 114 83 255
-0.39069489 -0.039146818 1.6600001 112 122 89 255
-0.38595095 -0.039126597 1.659 137 147 114 255
-0.38121161 -0.039106365 1.6580001 141 151 116 255
-0.37647682 -0.039086118 1.6570001 145 152 120 255
-0.37197119 -0.039089452 1.6570001 149 159 126 255
-0.36768639 -0.039116371 1.6580001 156 166 131 255
-0.36317626 -0.039119683 1.6580001 153 163 128 255
-0.35888156 -0.039146584 1.659 154 164 129 255
-0.3543669 -0.039149873 1.659 146 156 121 255
-0.35027316 -0.039200354 1.6610001 121 131 96 255
-0.34554315 -0.039180022 1.6600001 111 121 88 255
-0.34102315 -0.039183274 1.6600001 110 117 85 255
-0.33670497 -0.039210115 1.6610001 110 118 82 255
-0.33278039 -0.039284155 1.664 137 145 109 255
-0.32883853 -0.039358187 1.6670001 136 144 108 255
-0.32468492 -0.039408606 1.669 135 142 103 255
-0.32071131 -0.039482623 1.6720001 134 141 101 255
-0.31672043 -0.03955663 1.6750001 136 141 99 255
-0.31252587 -0.039607007 1.677 129 134 92 255
-0.30758503 -0.039562892 1.6750001 124 129 89 255
-0.30265415 -0.03951874 1.6730001 118 122 86 255
-0.29791147 -0.03949818 1.6720001 41 43 15 255
-0.29299784 -0.039453965 1.6700001 29 32 8 255
-0.28826699 -0.039433345 1.669 17 17 0 255
-0.28371072 -0.039436322 1.669 26 25 9 255
-0.27898625 -0.039415639 1.6680001 28 27 11 255
-0.27426636 -0.039394919 1.6670001 29 26 10 255
-0.26955107 -0.039374173 1.6660001 29 26 10 255
-0.26515841 -0.039400656 1.6670001 29 27 9 255
-0.26044685 -0.039379839 1.6660001 29 27 9 255
-0.25589344 -0.039382622 1.6660001 30 27 11 255
-0.25133914 -0.039385371 1.6660001 28 25 9 255
-0.2472284 -0.039459016 1.669 20 19 3 255
-0.2433912 -0.03957992 1.674 28 27 11 255
-0.23952582 -0.039700806 1.6790001 26 27 13 255
-0.23507251 -0.039727081 1.6800001 56 59 45 255
-0.23047572 -0.039729673 1.6800001 69 74 62 255
-0.22547479 -0.039661277 1.677 68 75 64 255
-0.22048941 -0.039592825 1.674 87 93 85 255
-0.21551971 -0.039524335 1.6710001 88 96 88 255
-0.20993443 -0.03933752 1.6630001 91 99 91 255
-0.2048862 -0.039245259 1.659 86 94 86 255
-0.19997987 -0.039176606 1.6560001 89 98 87 255
-0.19567935 -0.0392262 1.6580001 77 86 74 255
-0.19102128 -0.039204769 1.6570001 80 87 75 255
-0.18659303 -0.039230619 1.6580001 76 84 69 255
-0.18193899 -0.039209098 1.6570001 69 76 64 255
-0.17761092 -0.039258529 1.659 73 78 64 255
-0.17327119 -0.039307911 1.6610001 70 75 61 255
-0.16922455 -0.039428256 1.6660001 71 76 62 255
-0.16524866 -0.039572231 1.6720001 69 74 60 255
-0.16143137 -0.03976351 1.6800001 71 76 62 255
-0.15775624 -0.0400021 1.6900001 67 72 58 255
-0.15375383 -0.040169649 1.697 62 67 53 255
-0.14936094 -0.040242478 1.7 61 66 52 255
-0.14444029 -0.040173225 1.697 61 66 52 255
-0.13961789 -0.040127583 1.6950001 54 59 45 255
-0.13488552 -0.040105563 1.6940001 50 55 41 255
