ply
format ascii 1.0
comment PCL generated
element vertex 983
property float x
property float y
property float z
property uchar red
property uchar green
property uchar blue
property uchar alpha
element camera 0
property float view_px
property float view_py
property float view_pz
property float x_axisx
property float x_axisy
property float x_axisz
property float y_axisx
property float y_axisy
property float y_axisz
property float z_axisx
property float z_axisy
property float z_axisz
property float focal
property float scalex
property float scaley
property float centerx
property float centery
property int viewportx
property int viewporty
property float k1
property float k2
end_header
-0.44627744 0.055849284 1.649 154 165 134 255
-0.44153798 0.055820171 1.6480001 153 162 133 255
-0.43706846 0.055824928 1.6480001 147 157 131 255
-0.43233579 0.055795822 1.6470001 148 158 133 255
-0.42760774 0.055766713 1.646 147 157 132 255
-0.42288455 0.055737615 1.6450001 146 156 133 255
-0.41765723 0.055640742 1.6420001 153 163 140 255
-0.41294873 0.055611629 1.641 148 160 135 255
-0.40849388 0.055616405 1.641 147 159 134 255
-0.40379205 0.055587292 1.6400001 150 160 135 255
-0.39933836 0.055592064 1.6400001 147 157 131 255
-0.39464307 0.055562932 1.6390001 148 159 130 255
-0.39042857 0.055601601 1.6400001 148 157 128 255
-0.3855018 0.055538546 1.6380001 141 152 121 255
-0.38105032 0.0555433 1.6380001 155 166 135 255
-0.37636811 0.055514123 1.6370001 147 158 127 255
-0.37169045 0.055484932 1.636 146 157 128 255
-0.36701748 0.055455729 1.6350001 140 151 122 255
-0.36279249 0.055494335 1.636 141 151 125 255
-0.35899937 0.055600796 1.6390001 138 149 120 255
-0.35497275 0.055673316 1.641 134 143 112 255
-0.35093436 0.055745844 1.6430001 133 142 111 255
-0.34688419 0.055818353 1.6450001 132 141 110 255
-0.34240597 0.055822987 1.6450001 136 143 111 255
-0.33813229 0.055861536 1.646 137 144 112 255
-0.33385232 0.055900071 1.6470001 137 144 113 255
-0.32996595 0.056006473 1.6500001 128 135 104 255
-0.3256678 0.056044962 1.651 121 126 94 255
-0.32155782 0.056117386 1.6530001 113 119 84 255
-0.31724429 0.056155834 1.654 112 118 83 255
-0.31311348 0.056228228 1.6560001 114 120 84 255
-0.30859816 0.056232668 1.6560001 117 123 87 255
-0.3038983 0.056203123 1.6550001 124 129 98 255
-0.29884121 0.056105614 1.6520001 64 71 42 255
-0.2939778 0.056042019 1.6500001 62 67 45 255
-0.28947526 0.056046307 1.6500001 72 76 58 255
-0.28445369 0.055948652 1.6470001 16 19 5 255
-0.27978757 0.05591888 1.646 56 61 47 255
-0.27529332 0.055923045 1.646 76 79 65 255
-0.27079815 0.055927157 1.646 46 51 37 255
-0.26614034 0.055897258 1.6450001 69 74 60 255
-0.2613281 0.055833325 1.6430001 81 86 72 255
-0.25683856 0.055837303 1.6430001 81 86 72 255
-0.25296253 0.055977188 1.6470001 69 77 62 255
-0.24936548 0.056185018 1.6530001 59 64 50 255
-0.24499416 0.056222867 1.654 35 40 26 255
-0.24032581 0.056192685 1.6530001 58 63 51 255
-0.23580469 0.056196447 1.6530001 60 65 54 255
-0.23100294 0.056132153 1.651 99 106 95 255
-0.22607416 0.056033801 1.6480001 86 92 84 255
-0.22102652 0.055901375 1.6440001 73 81 73 255
-0.21652682 0.055904891 1.6440001 71 79 71 255
-0.21189737 0.055874351 1.6430001 101 109 101 255
-0.2072726 0.055843744 1.6420001 95 103 95 255
-0.2024056 0.055745061 1.6390001 89 97 89 255
-0.19779578 0.055714328 1.6380001 77 86 75 255
-0.19330871 0.05571755 1.6380001 75 82 71 255
-0.18893617 0.055754725 1.6390001 61 68 57 255
-0.18512015 0.05596194 1.6450001 62 69 58 255
-0.1811607 0.056135092 1.6500001 63 68 57 255
-0.17695907 0.056240156 1.6530001 59 64 52 255
-0.17253169 0.056277115 1.654 60 65 53 255
-0.16830127 0.05638206 1.6570001 60 65 53 255
-0.16425142 0.05655501 1.6620001 58 63 51 255
-0.16017349 0.056727909 1.6670001 57 62 50 255
-0.15597415 0.056866728 1.6710001 58 63 51 255
-0.15157105 0.056937411 1.6730001 57 62 50 255
-0.1470685 0.056974001 1.674 56 61 47 255
-0.14247479 0.05697649 1.674 58 63 49 255
-0.13779812 0.056944873 1.6730001 57 62 48 255
-0.13312638 0.056913171 1.6720001 58 63 49 255
-0.12861334 0.056949478 1.6730001 57 62 48 255
-0.12409429 0.056985717 1.674 58 63 49 255
-0.11949784 0.056987833 1.674 62 67 55 255
-0.11510684 0.057092015 1.677 63 68 56 255
-0.11089654 0.057298265 1.6830001 64 69 55 255
-0.10652652 0.057436354 1.687 60 65 51 255
-0.10177171 0.057370096 1.6850001 62 67 53 255
-0.097027443 0.057303745 1.6830001 62 67 53 255
-0.092293769 0.05723732 1.6810001 62 68 51 255
-0.087779306 0.057307009 1.6830001 65 70 56 255
-0.083401717 0.057478778 1.6880001 64 70 53 255
-0.079042949 0.057684526 1.6940001 67 71 54 255
-0.074475229 0.057754003 1.6960001 62 65 51 255
-0.069649197 0.057619065 1.692 64 69 55 255
-0.064960115 0.057586219 1.6910001 65 70 58 255
-0.060383249 0.057655443 1.6930001 66 71 59 255
-0.055926796 0.057860821 1.6990001 65 70 58 255
-0.051467281 0.058100168 1.7060001 63 68 56 255
-0.046859376 0.058203217 1.7090001 60 65 53 255
-0.042210102 0.058272135 1.7110001 57 62 48 255
-0.037505805 0.058272842 1.7110001 66 69 55 255
-0.032839697 0.058341589 1.7130001 62 66 49 255
-0.028178865 0.058444314 1.7160001 62 68 51 255
-0.023501413 0.058546957 1.7190001 63 67 50 255
-0.01881828 0.058683567 1.723 64 70 53 255
-0.014104894 0.058786042 1.7260001 62 68 51 255
-0.0093641076 0.058820315 1.7270001 61 66 52 255
-0.0046177786 0.058854494 1.728 61 66 52 255
0.00013399166 0.058854539 1.728 60 65 51 255
0.004891417 0.058922615 1.7300001 64 69 55 255
0.009665397 0.059024654 1.733 59 64 50 255
0.014439181 0.059058502 1.7340001 59 64 50 255
0.019207325 0.059058197 1.7340001 64 67 53 255
0.024003036 0.059125926 1.7360001 60 66 49 255
0.028859371 0.059295747 1.7410001 59 65 48 255
0.033723753 0.059431419 1.7450001 60 66 49 255
0.038543761 0.059464827 1.7460001 62 68 51 255
0.043369096 0.059498146 1.7470001 61 67 50 255
0.048172172 0.059497334 1.7470001 63 67 50 255
0.053096328 0.059632644 1.751 64 67 53 255
0.057976104 0.05969977 1.7530001 67 70 56 255
0.062902451 0.059800852 1.756 66 69 55 255
0.067690745 0.059765637 1.7550001 62 67 53 255
0.072473243 0.059730332 1.7540001 61 66 52 255
0.07733807 0.059763055 1.7550001 58 63 49 255
0.082301699 0.059863798 1.7580001 56 63 51 255
0.087182328 0.059896342 1.7590001 58 65 54 255
0.091911159 0.059826657 1.7570001 56 62 54 255
0.096628606 0.05975689 1.7550001 55 61 53 255
0.10145027 0.059755143 1.7550001 57 63 55 255
0.10651372 0.059889503 1.7590001 58 65 54 255
0.11134548 0.059887581 1.7590001 58 65 54 255
0.116441 0.06002178 1.7630001 58 65 54 255
0.12142038 0.060087785 1.7650001 60 69 58 255
0.73026377 0.061102569 1.8100001 135 143 135 255
0.73070461 0.060729198 1.7990001 132 141 130 255
0.73149574 0.060389731 1.789 131 140 129 255
0.7322337 0.060050394 1.779 135 144 133 255
0.73374736 0.059778716 1.771 139 145 137 255
0.73480165 0.059473407 1.7620001 142 148 141 255
0.73538882 0.059134502 1.7520001 140 148 141 255
0.7355004 0.058761973 1.7410001 138 146 139 255
0.73682916 0.058490846 1.733 147 155 148 255
0.73854393 0.058253612 1.7260001 153 161 154 255
0.7410832 0.058084004 1.7210001 159 168 161 255
0.7414304 0.057745803 1.7110001 163 172 165 255
0.74216068 0.057441477 1.702 169 178 171 255
0.74152744 0.05703605 1.6900001 170 179 174 255
0.74215508 0.056732014 1.6810001 174 181 177 255
0.74362385 0.056495618 1.674 176 183 179 255
0.7423749 0.056056883 1.6610001 177 184 180 255
0.74285537 0.055753265 1.6520001 177 184 180 255
0.74283648 0.055416048 1.6420001 179 186 182 255
0.74458557 0.055213969 1.636 179 186 182 255
0.74584603 0.054978281 1.6290001 181 188 185 255
0.74522805 0.054607738 1.618 180 187 184 255
0.74408883 0.054203581 1.6060001 181 188 184 255
0.74381846 0.053867076 1.5960001 182 189 185 255
0.74490201 0.053631958 1.5890001 184 191 187 255
0.74594945 0.053396977 1.582 183 190 186 255
0.74553829 0.053060882 1.572 185 192 188 255
0.74459791 0.05269118 1.5610001 186 193 189 255
0.74407941 0.052355368 1.5510001 185 192 188 255
0.74350864 0.052019686 1.5410001 185 192 188 255
0.74434131 0.051785417 1.534 188 195 191 255
0.74562627 0.051585056 1.5280001 186 193 190 255
0.74639022 0.051351082 1.521 188 195 192 255
0.7461316 0.05104972 1.5120001 189 196 193 255
0.74533004 0.050714731 1.5020001 189 196 193 255
-1.04577 0.055131882 1.7690001 34 36 19 255
-1.0189574 0.053968225 1.7320001 28 30 13 255
-0.99294794 0.052836444 1.6960001 29 28 14 255
-0.99336827 0.053107012 1.705 26 25 11 255
-0.98272854 0.052786041 1.6950001 25 22 6 255
-1.0021533 0.054084565 1.7370001 27 23 6 255
-1.00929 0.054729141 1.7580001 32 24 7 255
-1.0026035 0.054626737 1.7550001 62 48 28 255
-0.9982146 0.054649111 1.756 80 60 34 255
-0.99099803 0.054516159 1.7520001 88 66 40 255
-0.98437268 0.054414604 1.7490001 91 73 49 255
-0.97553056 0.054188907 1.7420001 87 73 50 255
-0.96840507 0.054056823 1.738 104 94 75 255
-0.96629715 0.054204915 1.743 61 55 38 255
-0.96637332 0.054477584 1.7520001 35 32 12 255
-0.9631117 0.054563876 1.7550001 43 41 21 255
-0.95710886 0.054494947 1.7530001 48 45 24 255
-0.94949269 0.054333013 1.748 46 43 22 255
-0.94136953 0.054140273 1.7420001 40 35 15 255
-0.93651032 0.054134253 1.7420001 53 43 24 255
-0.93219078 0.05415953 1.743 67 53 30 255
-0.92787051 0.054185018 1.7440001 65 47 23 255
-0.9240787 0.054241788 1.7460001 100 76 48 255
-0.91870081 0.05420557 1.7450001 113 87 59 255
-0.91280919 0.054138504 1.743 109 83 51 255
-0.90589142 0.054009546 1.7390001 110 84 52 255
-0.90107238 0.054005031 1.7390001 102 77 45 255
-0.89677316 0.054031771 1.7400001 100 77 47 255
-0.89247221 0.054058708 1.7410001 103 79 51 255
-0.88714999 0.054023743 1.7400001 97 75 47 255
-0.88234442 0.054020017 1.7400001 96 77 48 255
-0.8785513 0.054078575 1.7420001 92 73 44 255
-0.87374753 0.054075222 1.7420001 85 68 39 255
-0.86994487 0.054134142 1.7440001 85 68 39 255
-0.86464667 0.054100119 1.743 85 68 39 255
-0.86083728 0.054159399 1.7450001 82 67 38 255
-0.85800135 0.054280911 1.7490001 78 65 36 255
-0.85661 0.054495692 1.756 73 61 34 255
-0.85372829 0.054617543 1.7600001 66 53 29 255
-0.84938067 0.054646447 1.761 60 50 25 255
-0.84598964 0.054737583 1.7640001 56 46 21 255
-0.8444925 0.054952998 1.771 50 42 17 255
-0.84201163 0.055106509 1.7760001 49 41 16 255
-0.8399775 0.055291198 1.7820001 49 41 16 255
-0.8351016 0.055289887 1.7820001 48 40 15 255
-0.83115995 0.05535078 1.784 56 46 19 255
-0.82674664 0.055380803 1.7850001 70 58 31 255
-0.82325143 0.055473037 1.7880001 73 61 32 255
-0.82065755 0.055627465 1.7930001 74 61 34 255
-0.81667376 0.055688962 1.7950001 77 64 35 255
-0.81087232 0.055626512 1.7930001 71 59 32 255
-0.80238694 0.055378068 1.7850001 179 172 142 255
-0.79484081 0.055191811 1.779 163 162 134 255
-0.7886616 0.055098768 1.7760001 162 162 132 255
-0.78382474 0.05509894 1.7760001 156 161 130 255
-0.77723527 0.054975137 1.7720001 156 160 132 255
-0.77241296 0.054975573 1.7720001 143 147 119 255
-0.76715922 0.054945111 1.771 134 140 114 255
-0.76234311 0.054945808 1.771 149 155 129 255
-0.75367886 0.054667391 1.7620001 154 160 135 255
-0.74421513 0.054327041 1.751 158 166 141 255
-0.73692405 0.054141924 1.7450001 156 163 141 255
-0.73134536 0.054081034 1.743 158 167 146 255
-0.72536212 0.053989228 1.7400001 162 171 150 255
-0.71939629 0.05389753 1.7370001 173 182 161 255
-0.71344811 0.053805936 1.7340001 176 185 164 255
-0.70669985 0.053652383 1.7290001 179 188 167 255
-0.70038581 0.053529959 1.725 185 194 175 255
-0.69288462 0.053314533 1.7180001 185 194 175 255
-0.68622351 0.053161256 1.7130001 189 198 179 255
-0.67919272 0.05297704 1.7070001 190 199 180 255
-0.67338067 0.052886009 1.7040001 194 200 182 255
-0.66719329 0.052764025 1.7 192 198 180 255
-0.6614182 0.052673165 1.697 191 200 181 255
-0.65488595 0.052520301 1.692 195 204 185 255
-0.64876586 0.052398562 1.6880001 190 199 180 255
-0.64381284 0.052370019 1.687 185 194 175 255
-0.63886595 0.052341565 1.6860001 186 195 174 255
-0.63354874 0.05228214 1.6840001 183 190 168 255
-0.62786937 0.052191738 1.6810001 168 176 151 255
-0.62257743 0.052132454 1.6790001 163 171 145 255
-0.61766475 0.052104287 1.6780001 167 176 147 255
-0.61312336 0.052107248 1.6780001 165 174 143 255
-0.60821962 0.052079223 1.677 165 174 143 255
-0.60440147 0.052144442 1.6790001 162 171 140 255
-0.59914356 0.052085493 1.677 163 172 143 255
-0.59460592 0.052088726 1.677 151 161 135 255
-0.5900684 0.052092027 1.677 158 168 143 255
-0.58588022 0.052126456 1.6780001 155 165 140 255
-0.58064735 0.052067749 1.6760001 155 163 138 255
-0.57611281 0.052071232 1.6760001 153 161 136 255
-0.57123721 0.052043691 1.6750001 148 156 130 255
-0.56636709 0.052016217 1.674 163 169 143 255
-0.56150234 0.051988784 1.6730001 159 167 141 255
-0.55697578 0.051992476 1.6730001 153 161 135 255
-0.55244911 0.051996224 1.6730001 151 159 134 255
-0.54792231 0.052000012 1.6730001 147 155 130 255
-0.54274577 0.051941685 1.6710001 146 156 131 255
-0.53822392 0.051945563 1.6710001 153 163 138 255
-0.53370202 0.051949494 1.6710001 163 173 147 255
-0.52917969 0.051953454 1.6710001 155 165 140 255
-0.52434319 0.051926367 1.6700001 163 173 147 255
-0.51982296 0.051930405 1.6700001 146 156 130 255
-0.51499385 0.051903382 1.669 158 168 142 255
-0.51016986 0.051876392 1.6680001 173 183 157 255
-0.50504768 0.05181833 1.6660001 158 168 142 255
-0.49993593 0.051760282 1.664 164 174 149 255
-0.49483451 0.051702257 1.6620001 166 176 151 255
-0.49003857 0.051675364 1.6610001 169 179 156 255
-0.48524749 0.05164849 1.6600001 165 175 152 255
-0.47988212 0.051559404 1.6570001 145 155 130 255
-0.4745324 0.051470321 1.654 171 181 156 255
-0.4691985 0.051381253 1.651 177 187 162 255
-0.46388024 0.051292185 1.6480001 177 187 162 255
-0.4591352 0.051265374 1.6470001 170 180 154 255
-0.45467097 0.051269699 1.6470001 161 171 145 255
-0.45020616 0.051274043 1.6470001 159 170 141 255
-0.44601139 0.051309537 1.6480001 151 162 133 255
-0.44127458 0.051282771 1.6470001 150 160 134 255
-0.43707308 0.051318295 1.6480001 149 159 134 255
-0.43207788 0.051260401 1.646 150 160 135 255
-0.42709276 0.05120251 1.6440001 148 158 133 255
-0.42186084 0.05111346 1.641 146 156 131 255
-0.41689867 0.051055547 1.6390001 148 158 133 255
-0.41245002 0.051059943 1.6390001 151 161 135 255
-0.40800062 0.051064335 1.6390001 145 155 129 255
-0.40355042 0.051068727 1.6390001 143 153 127 255
-0.39934295 0.051104281 1.6400001 142 153 124 255
-0.39464763 0.051077504 1.6390001 145 156 127 255
-0.3901951 0.051081896 1.6390001 155 166 137 255
-0.38550636 0.051055104 1.6380001 138 149 118 255
-0.38105482 0.05105947 1.6380001 144 155 124 255
-0.37614268 0.051001482 1.636 138 149 118 255
-0.3714678 0.050974652 1.6350001 141 152 121 255
-0.36724648 0.051010169 1.636 148 157 126 255
-0.36324057 0.051076863 1.6380001 144 153 122 255
-0.35922292 0.051143542 1.6400001 127 136 105 255
-0.35497719 0.051179033 1.641 132 141 110 255
-0.35093883 0.051245708 1.6430001 134 143 112 255
-0.34667772 0.051281177 1.6440001 127 136 105 255
-0.34241039 0.051316638 1.6450001 128 135 104 255
-0.33813673 0.05135208 1.646 134 141 110 255
-0.33426213 0.05144991 1.649 140 147 116 255
-0.33017027 0.051516518 1.651 129 136 104 255
-0.32606664 0.05158313 1.6530001 132 138 103 255
-0.3215622 0.051587302 1.6530001 125 131 95 255
-0.31744042 0.051653866 1.6550001 130 134 96 255
-0.3131178 0.0516892 1.6560001 122 129 89 255
-0.30878875 0.051724501 1.6570001 110 115 84 255
-0.30371889 0.051634919 1.654 71 76 44 255
-0.29848361 0.051514063 1.6500001 22 26 0 255
-0.29362556 0.051455598 1.6480001 36 38 18 255
-0.28947935 0.051521994 1.6500001 17 19 1 255
-0.28428501 0.051400993 1.646 16 19 5 255
-0.27962163 0.051373634 1.6450001 12 15 1 255
-0.27496278 0.051346224 1.6440001 67 68 54 255
-0.27096665 0.051443718 1.6470001 14 17 3 255
-0.26630601 0.051416233 1.646 20 23 9 255
-0.26165006 0.051388707 1.6450001 34 37 23 255
-0.25731131 0.051423613 1.646 40 43 29 255
-0.25311989 0.051489729 1.6480001 56 59 45 255
-0.24936923 0.051649552 1.6530001 36 39 25 255
-0.24514599 0.051715598 1.6550001 36 39 25 255
-0.24047481 0.051687852 1.654 61 64 50 255
-0.2360936 0.051722568 1.6550001 53 58 46 255
-0.23100646 0.051600967 1.651 95 102 91 255
-0.2262148 0.051541813 1.649 84 91 80 255
-0.2212988 0.051451333 1.646 76 84 76 255
-0.21692529 0.05148584 1.6470001 78 86 78 255
-0.21215862 0.051426519 1.6450001 99 107 99 255
-0.20752832 0.051398389 1.6440001 93 101 93 255
-0.20265578 0.051307678 1.641 88 96 88 255
-0.19779891 0.051216897 1.6380001 72 80 72 255
-0.19307572 0.051157322 1.636 74 80 72 255
-0.18882389 0.05122276 1.6380001 66 72 64 255
-0.18467295 0.051319435 1.641 66 73 62 255
-0.18061465 0.051447336 1.6450001 70 75 64 255
-0.17631958 0.051512633 1.6470001 64 69 57 255
-0.1720129 0.051577877 1.649 59 64 52 255
-0.16779613 0.051674351 1.6520001 61 66 54 255
-0.16375995 0.051833332 1.6570001 61 66 52 255
-0.15969567 0.051992271 1.6620001 59 64 50 255
-0.15550998 0.052119877 1.6660001 61 66 52 255
-0.15121114 0.052216139 1.669 54 59 45 255
-0.14680737 0.052281067 1.6710001 58 63 49 255
-0.14239204 0.052345928 1.6730001 56 61 47 255
-0.13796513 0.052410726 1.6750001 58 63 49 255
-0.13344711 0.052444175 1.6760001 56 61 47 255
-0.128923 0.052477557 1.677 57 62 48 255
-0.12424463 0.052448291 1.6760001 56 61 47 255
-0.11964262 0.052450243 1.6760001 56 61 47 255
-0.11524606 0.052546021 1.6790001 60 65 51 255
-0.11109608 0.052766919 1.6860001 62 67 53 255
-0.10659146 0.052831266 1.6880001 60 65 51 255
-0.10195462 0.05283295 1.6880001 59 64 50 255
-0.097144388 0.052740667 1.6850001 62 68 51 255
-0.092514947 0.052742209 1.6850001 62 68 51 255
-0.08798942 0.052806277 1.687 61 67 50 255
-0.083600767 0.052964184 1.692 63 69 52 255
-0.079137616 0.053090733 1.6960001 65 69 52 255
-0.074520409 0.053123292 1.697 65 68 54 255
-0.069650397 0.052967947 1.692 65 68 54 255
-0.06499964 0.05296905 1.692 64 69 55 255
-0.060455617 0.053064004 1.6950001 65 70 58 255
-0.056026503 0.053284105 1.702 63 68 56 255
-0.05155867 0.053504139 1.7090001 61 66 54 255
-0.046942439 0.05359887 1.7120001 58 63 51 255
-0.042284839 0.053662226 1.7140001 61 66 52 255
-0.03759414 0.053694192 1.715 62 65 51 255
-0.032916952 0.053757392 1.7170001 64 68 51 255
-0.028245039 0.053851824 1.72 61 67 50 255
-0.023529161 0.053883556 1.7210001 63 67 50 255
-0.018840449 0.054009147 1.725 61 67 50 255
-0.014121483 0.054103345 1.728 63 69 52 255
-0.0093805362 0.054166161 1.7300001 62 67 53 255
-0.004625876 0.054197587 1.7310001 61 66 52 255
0.00013422663 0.054197624 1.7310001 59 66 54 255
0.0048999838 0.054260205 1.733 59 64 50 255
0.0096822958 0.054354012 1.7360001 58 63 49 255
0.014456085 0.054353811 1.7360001 57 62 48 255
0.019229811 0.054353535 1.7360001 60 65 51 255
0.024058759 0.054478418 1.7400001 58 64 47 255
0.028942753 0.054665837 1.7460001 59 65 48 255
0.033859618 0.054853171 1.7520001 56 64 47 255
0.038698953 0.054883879 1.7530001 54 62 45 255
0.043543622 0.054914512 1.7540001 57 63 46 255
0.048366021 0.054913748 1.7540001 60 66 49 255
0.05324886 0.054975525 1.756 62 66 49 255
0.058208611 0.055099841 1.7600001 57 61 44 255
0.063154288 0.055192769 1.7630001 61 65 48 255
0.068039037 0.055222988 1.7640001 60 65 51 255
0.072846361 0.05519053 1.7630001 63 68 54 255
0.077691935 0.0551893 1.7630001 62 70 55 255
0.082443543 0.055125386 1.761 66 73 61 255
0.087282941 0.055123992 1.761 57 64 53 255
0.73111266 0.055857241 1.8000001 132 140 132 255
0.7302708 0.055421047 1.7860001 132 141 130 255
0.73058897 0.055078074 1.7750001 135 143 135 255
0.73333454 0.054921404 1.7700001 139 147 139 255
0.73438597 0.05464074 1.761 140 148 141 255
0.73497021 0.054329183 1.751 141 149 142 255
0.73465663 0.0539557 1.7390001 143 151 144 255
0.73555475 0.053675432 1.7300001 149 157 150 255
0.73597741 0.053364258 1.72 155 163 156 255
0.73893094 0.053239372 1.7160001 161 170 163 255
0.74013102 0.052990511 1.7080001 165 174 167 255
0.74085307 0.052710753 1.6990001 170 179 172 255
0.74021143 0.052338049 1.687 173 180 176 255
0.74127239 0.052089579 1.6790001 174 181 177 255
0.74229133 0.051841233 1.6710001 175 183 176 255
0.7419278 0.051499952 1.6600001 176 184 177 255
0.74285525 0.051251866 1.6520001 177 184 180 255
0.74328858 0.05097289 1.6430001 178 185 181 255
0.74504018 0.050787117 1.6370001 180 187 184 255
0.74538755 0.050508399 1.628 182 189 186 255
0.74476677 0.050167769 1.6170001 181 188 185 255
0.74362463 0.049796227 1.605 182 189 185 255
0.7442835 0.049548935 1.5970001 183 190 186 255
0.74583834 0.049363811 1.5910001 183 190 187 255
0.74594814 0.049085747 1.582 185 192 189 255
0.74553686 0.048776783 1.572 183 190 187 255
0.74364233 0.048374858 1.559 184 191 188 255
0.74311817 0.048066143 1.549 186 193 190 255
0.74157679 0.047695491 1.5370001 187 194 191 255
0.74385411 0.047573227 1.5330001 189 196 193 255
0.74464804 0.047357991 1.526 188 195 192 255
0.74491572 0.047111861 1.5180001 187 194 191 255
0.74366176 0.046772745 1.5070001 190 197 193 255
0.74433506 0.046557907 1.5000001 189 196 193 255
-1.0297984 0.04952167 1.7420001 31 33 16 255
-1.0183591 0.049199369 1.7310001 24 26 9 255
-1.0333352 0.050156217 1.7650001 21 23 6 255
-1.0108374 0.049294598 1.7350001 27 26 12 255
-1.0151869 0.049740259 1.751 25 22 6 255
-1.0119523 0.049816784 1.7540001 30 24 7 255
-1.0092813 0.049921926 1.7580001 40 30 13 255
-0.9991675 0.049658172 1.7490001 72 58 35 255
-0.99479556 0.049678616 1.7500001 86 64 38 255
-0.9892931 0.049642526 1.7490001 95 71 43 255
-0.98267663 0.049549915 1.7460001 97 79 55 255
-0.97384304 0.04934407 1.7390001 82 68 45 255
-0.96616906 0.049195241 1.7340001 96 89 69 255
-0.96296394 0.049273614 1.7370001 39 35 18 255
-0.9625054 0.049493998 1.7450001 33 31 11 255
-0.95926362 0.049572743 1.748 44 42 22 255
-0.95601046 0.04965169 1.751 51 49 29 255
-0.94677073 0.049418937 1.743 29 26 6 255
-0.93920201 0.049271502 1.738 68 63 43 255
-0.93489188 0.049294379 1.7390001 52 45 25 255
-0.93111575 0.049345799 1.7410001 71 57 34 255
-0.9257372 0.049312383 1.7400001 70 52 28 255
-0.91983968 0.049250837 1.738 99 75 47 255
-0.91606361 0.049302831 1.7400001 113 87 59 255
-0.91018617 0.049241681 1.738 110 84 52 255
-0.90276134 0.049095739 1.733 106 81 49 255
-0.89847749 0.049119975 1.7340001 102 79 49 255
-0.89367676 0.049116064 1.7340001 104 81 51 255
-0.89093053 0.049225621 1.738 101 82 53 255
-0.88459718 0.049137108 1.7350001 94 74 48 255
-0.87929839 0.049105406 1.7340001 94 76 50 255
-0.87451327 0.049102202 1.7340001 90 72 46 255
-0.86923021 0.049070854 1.733 87 69 43 255
-0.86495382 0.049096309 1.7340001 86 68 42 255
-0.86017936 0.049093615 1.7340001 84 69 40 255
-0.85787487 0.049232639 1.7390001 80 67 38 255
-0.85505551 0.049343497 1.743 72 60 33 255
-0.85172963 0.049426198 1.7460001 66 56 31 255
-0.84887546 0.049537364 1.7500001 63 55 30 255
-0.8450377 0.049592055 1.7520001 57 49 24 255
-0.84311038 0.049760126 1.7580001 51 43 18 255
-0.84210658 0.049984928 1.766 46 37 14 255
-0.84058791 0.050181583 1.7730001 47 38 15 255
-0.83856213 0.050350063 1.779 46 38 13 255
-0.83416313 0.050377175 1.7800001 48 40 15 255
-0.83022702 0.05043273 1.7820001 54 44 19 255
-0.82581949 0.05046013 1.7830001 58 46 19 255
-0.82232982 0.050544266 1.7860001 70 58 29 255
-0.81791067 0.050571941 1.7870001 74 61 34 255
-0.81348848 0.050599746 1.7880001 76 63 34 255
-0.80725414 0.050514497 1.7850001 69 57 28 255
-0.80013913 0.050372779 1.7800001 168 159 129 255
-0.79260677 0.050202888 1.774 158 155 125 255
-0.78599727 0.050089728 1.7700001 157 157 127 255
-0.78073555 0.050061587 1.7690001 154 159 128 255
-0.77504247 0.050005272 1.7670001 152 157 126 255
-0.76979798 0.049977373 1.766 134 139 108 255
-0.76456082 0.049949598 1.7650001 128 132 104 255
-0.75976104 0.049950238 1.7650001 150 157 128 255
-0.75196874 0.04975288 1.7580001 147 153 127 255
-0.74336594 0.049499024 1.7490001 156 164 139 255
-0.73650277 0.04935848 1.7440001 159 166 144 255
-0.73092699 0.049302951 1.7420001 160 170 147 255
-0.72452956 0.049190905 1.738 160 170 147 255
-0.71815521 0.049078964 1.7340001 167 176 155 255
-0.71180373 0.048967116 1.7300001 173 182 161 255
-0.70588392 0.048883669 1.7270001 181 190 171 255
-0.69957542 0.048772 1.723 183 192 173 255
-0.69207972 0.048575494 1.7160001 184 193 174 255
-0.68582481 0.048464 1.7120001 188 197 178 255
-0.67879671 0.048295964 1.7060001 189 197 180 255
-0.67259234 0.048184622 1.702 190 199 180 255
-0.66601801 0.04804505 1.697 187 196 177 255
-0.6606409 0.047990486 1.6950001 190 199 180 255
-0.65450126 0.047879376 1.6910001 191 200 181 255
-0.64876819 0.047796641 1.6880001 188 197 178 255
-0.64343369 0.0477423 1.6860001 184 193 174 255
-0.63848948 0.047716346 1.6850001 177 186 165 255
-0.63317508 0.047662143 1.6830001 175 184 163 255
-0.62787199 0.047608007 1.6810001 148 158 135 255
-0.62220937 0.047525615 1.6780001 160 170 145 255
-0.61766762 0.047528256 1.6780001 164 172 146 255
-0.61276084 0.047502637 1.677 167 176 147 255
-0.60785991 0.047477081 1.6760001 162 171 142 255
-0.60368448 0.047508243 1.677 173 182 151 255
-0.5991466 0.047511134 1.677 164 173 144 255
-0.59425449 0.047485765 1.6760001 147 156 127 255
-0.58936793 0.047460444 1.6750001 157 166 137 255
-0.58518517 0.047491852 1.6760001 157 165 139 255
-0.58065063 0.047494981 1.6760001 155 164 135 255
-0.57611614 0.047498163 1.6760001 158 165 134 255
-0.57158172 0.047501396 1.6760001 158 165 134 255
-0.56637049 0.047447987 1.674 149 156 125 255
-0.56150585 0.047422979 1.6730001 157 164 133 255
-0.55731219 0.047454696 1.674 161 168 139 255
-0.55278289 0.04745812 1.674 158 166 140 255
-0.54792601 0.047433242 1.6730001 158 166 140 255
-0.5427494 0.047380041 1.6710001 161 169 143 255
-0.53790557 0.047355231 1.6700001 149 159 133 255
-0.53338635 0.047358811 1.6700001 160 170 144 255
-0.52855009 0.047334068 1.669 174 184 159 255
-0.52403307 0.047337726 1.669 162 172 146 255
-0.518893 0.047284685 1.6670001 154 164 138 255
-0.51407212 0.047260039 1.6660001 164 173 144 255
-0.50956208 0.04726379 1.6660001 162 171 142 255
-0.50444531 0.047210824 1.664 177 186 157 255
-0.49903864 0.047129508 1.6610001 177 187 161 255
-0.49364763 0.0470482 1.6580001 171 181 156 255
-0.48856744 0.046995282 1.6560001 163 173 148 255
-0.48408228 0.046999145 1.6560001 182 192 167 255
-0.47901738 0.046946261 1.654 149 159 133 255
-0.4742496 0.046921775 1.6530001 150 161 132 255
-0.46863425 0.046812139 1.649 160 169 140 255
-0.46388435 0.046787679 1.6480001 184 193 162 255
-0.45886052 0.046734832 1.646 184 193 162 255
-0.45439905 0.046738781 1.646 180 191 160 255
-0.44966361 0.046714354 1.6450001 161 172 141 255
-0.44520363 0.046718329 1.6450001 163 174 145 255
-0.44074291 0.046722319 1.6450001 146 157 128 255
-0.43628165 0.046726316 1.6450001 152 162 136 255
-0.43129456 0.046673506 1.6430001 149 159 133 255
-0.42657742 0.046649102 1.6420001 148 158 133 255
-0.42160797 0.046596289 1.6400001 146 156 131 255
-0.41664854 0.046543464 1.6380001 141 151 126 255
-0.41169924 0.046490636 1.636 146 156 130 255
-0.40750697 0.046523064 1.6370001 144 154 128 255
-0.40281594 0.046498649 1.636 141 152 123 255
-0.39861664 0.046531077 1.6370001 144 155 124 255
-0.39417028 0.046535082 1.6370001 148 157 126 255
-0.38996121 0.046567511 1.6380001 148 157 126 255
-0.38551056 0.046571512 1.6380001 143 154 123 255
-0.38105905 0.046575502 1.6380001 138 147 116 255
-0.37637681 0.046551052 1.6370001 135 144 113 255
-0.37169915 0.046526581 1.636 135 144 113 255
-0.36747506 0.046558984 1.6370001 134 144 111 255
-0.36324468 0.046591375 1.6380001 142 152 119 255
-0.35922706 0.046652213 1.6400001 135 145 112 255
-0.35519767 0.046713043 1.6420001 129 139 106 255
-0.35115653 0.046773866 1.6440001 129 139 104 255
-0.34689274 0.046806231 1.6450001 126 136 101 255
-0.34241447 0.04681012 1.6450001 128 136 101 255
-0.33814079 0.04684246 1.646 131 139 104 255
-0.33406344 0.046903241 1.6480001 135 143 108 255
-0.3301743 0.04699247 1.651 126 134 99 255
-0.32607064 0.047053229 1.6530001 128 136 101 255
-0.32176068 0.047085505 1.654 123 131 96 255
-0.31706074 0.047060821 1.6530001 127 134 95 255
-0.31274354 0.047093052 1.654 125 132 93 255
-0.30823359 0.047096789 1.654 125 132 93 255
-0.30353913 0.047072016 1.6530001 125 130 88 255
-0.29848742 0.046990249 1.6500001 28 31 0 255
-0.29362938 0.046936929 1.6480001 21 20 4 255
-0.28913221 0.046940532 1.6480001 23 22 8 255
-0.28428873 0.046887126 1.646 26 23 7 255
-0.2796253 0.04686217 1.6450001 33 30 14 255
-0.2751337 0.046865668 1.6450001 36 33 17 255
-0.2712993 0.046983097 1.649 31 30 16 255
-0.26679498 0.046986528 1.649 23 21 10 255
-0.26228982 0.046989925 1.649 22 20 9 255
-0.2577838 0.046993278 1.649 23 21 10 255
-0.25343055 0.047025099 1.6500001 16 14 3 255
-0.24922176 0.047085382 1.6520001 25 23 12 255
-0.24485312 0.047117129 1.6530001 18 19 7 255
-0.24033277 0.047120333 1.6530001 66 67 55 255
-0.23595421 0.047151994 1.654 54 59 48 255
-0.23114964 0.047098096 1.6520001 91 96 85 255
-0.22635518 0.047044139 1.6500001 84 91 80 255
-0.22130194 0.0469331 1.646 76 84 76 255
-0.21692841 0.046964582 1.6470001 79 87 79 255
-0.21241961 0.046967499 1.6470001 98 106 98 255
-0.20778376 0.046941847 1.646 94 102 94 255
-0.20265868 0.046802066 1.641 84 92 85 255
-0.19780177 0.046719261 1.6380001 71 79 72 255
-0.19319655 0.046693444 1.6370001 73 79 72 255
-0.18894194 0.046753146 1.6390001 65 71 64 255
-0.18456312 0.046784278 1.6400001 67 72 61 255
-0.1803977 0.046872418 1.6430001 71 76 65 255
-0.17610809 0.046931982 1.6450001 64 69 57 255
-0.17180683 0.046991497 1.6470001 61 66 54 255
-0.16759549 0.0470795 1.6500001 63 68 54 255
-0.16326824 0.047138914 1.6520001 59 64 50 255
-0.15902545 0.04722682 1.6550001 61 66 52 255
-0.15476555 0.04731467 1.6580001 61 66 52 255
-0.15066983 0.047459554 1.6630001 61 66 52 255
-0.14637031 0.047547311 1.6660001 60 65 51 255
-0.14213885 0.047663555 1.6700001 59 64 50 255
-0.13780251 0.047751211 1.6730001 58 63 49 255
-0.13360836 0.047895886 1.6780001 57 62 48 255
-0.12915562 0.047954895 1.6800001 55 60 46 255
-0.12446894 0.047928199 1.6790001 54 57 43 255
-0.11993 0.047958534 1.6800001 58 61 47 255
-0.11545373 0.048017353 1.682 58 61 47 255
-0.11116368 0.048161764 1.687 62 65 51 255
-0.1067194 0.048249014 1.6900001 64 67 53 255
-0.1020166 0.048222005 1.6890001 59 65 48 255
-0.097318858 0.04819493 1.6880001 61 65 48 255
-0.092626192 0.048167784 1.687 63 69 52 255
-0.088095114 0.048226234 1.6890001 62 68 51 255
-0.083700903 0.048370279 1.6940001 66 69 55 255
-0.079185523 0.048457157 1.697 66 69 55 255
-0.074521571 0.048458301 1.697 61 64 52 255
-0.069733813 0.048373718 1.6940001 64 67 53 255
-0.065039076 0.048346166 1.6930001 63 68 56 255
-0.060492232 0.048432779 1.6960001 65 70 56 255
-0.05599447 0.048576444 1.7010001 65 70 56 255
-0.051559478 0.048805714 1.7090001 62 67 53 255
-0.046998017 0.048949242 1.7140001 60 65 51 255
-0.042334847 0.049007032 1.7160001 61 67 50 255
-0.037660494 0.049064748 1.7180001 60 66 49 255
-0.032994155 0.049150962 1.7210001 58 64 47 255
-0.02832759 0.049265664 1.725 59 65 48 255
-0.023584221 0.049266059 1.725 60 66 49 255
-0.018862592 0.049323503 1.7270001 62 68 51 255
-0.014138052 0.04940943 1.7300001 60 66 49 255
-0.0093861073 0.049438167 1.7310001 61 66 52 255
-0.0046312939 0.049495395 1.733 63 66 52 255
0.00013430629 0.049466871 1.7320001 61 66 54 255
0.0049057161 0.049552511 1.7350001 60 65 51 255
0.0096880272 0.049609523 1.7370001 60 65 51 255
0.014481297 0.049666461 1.7390001 59 64 50 255
0.019263348 0.049666207 1.7390001 58 63 49 255
0.02410062 0.049780119 1.743 58 64 47 255
0.028976362 0.049922515 1.748 60 66 49 255
0.033918135 0.050121963 1.7550001 60 65 51 255
0.038787872 0.050178532 1.7570001 58 63 49 255
0.043718088 0.050292142 1.761 58 63 49 255
0.048587386 0.050320007 1.7620001 61 66 52 255
0.05352262 0.050404914 1.7650001 64 69 55 255
0.058474116 0.05048975 1.7680001 65 69 52 255
0.063370205 0.050517388 1.7690001 63 67 50 255
0.06827154 0.050544966 1.7700001 63 68 54 255
0.07317806 0.050572455 1.771 53 60 48 255
0.077957556 0.050514214 1.7690001 50 57 45 255
0.73190796 0.050666824 1.7900001 125 133 125 255
0.73100215 0.050269056 1.7760001 135 143 135 255
0.73416454 0.050154436 1.7720001 140 148 141 255
0.73438728 0.04984181 1.761 142 150 143 255
0.73455179 0.049529307 1.7500001 141 149 142 255
0.73508024 0.049245223 1.7400001 146 154 147 255
0.73640603 0.049017858 1.7320001 153 161 154 255
0.73640609 0.048705705 1.7210001 157 165 158 255
0.73807037 0.048506878 1.7140001 161 170 163 255
0.73926491 0.048279863 1.7060001 163 172 165 255
0.7395454 0.047996372 1.6960001 168 177 170 255
0.73977304 0.047712993 1.6860001 174 181 177 255
0.73994803 0.047429737 1.6760001 174 182 175 255
0.74229145 0.047288094 1.6710001 175 183 176 255
0.74148083 0.046948478 1.659 176 184 177 255
0.74330473 0.046778776 1.6530001 176 183 179 255
0.74283588 0.046467695 1.6420001 180 187 183 255
0.74458468 0.046298228 1.636 179 186 183 255
0.74447137 0.046015684 1.626 181 188 185 255
0.74430549 0.045733258 1.6160001 182 189 186 255
0.74408722 0.045450948 1.6060001 183 190 186 255
0.74428248 0.045197062 1.5970001 182 189 185 255
0.74489969 0.044971589 1.5890001 183 190 186 255
0.74453253 0.04468964 1.5790001 182 189 186 255
0.744587 0.044436101 1.5700001 184 191 188 255
0.74268681 0.044069465 1.557 184 191 188 255
0.74215704 0.043787856 1.5470001 187 194 191 255
0.74205762 0.04353467 1.5380001 185 192 189 255
0.74385226 0.04339483 1.5330001 187 194 191 255
0.74464613 0.043198492 1.526 187 194 191 255
0.74393213 0.042917348 1.516 188 195 192 255
0.7421791 0.042579696 1.5040001 187 194 190 255
-1.0075158 0.043383341 1.6880001 21 24 10 255
-1.0169439 0.043991134 1.7120001 22 23 9 255
-0.99845803 0.043391455 1.6890001 22 23 9 255
-1.0001127 0.043665543 1.7 24 25 11 255
-1.0216172 0.044812903 1.7450001 25 24 10 255
-1.0184028 0.044881664 1.748 24 21 7 255
-1.0360503 0.045874804 1.7870001 23 20 4 255
-1.0119442 0.045019798 1.7540001 38 28 11 255
-1.0035324 0.044858199 1.748 61 44 24 255
-0.99573213 0.044722524 1.743 78 58 34 255
-0.99137741 0.044741035 1.7440001 89 65 37 255
-0.98476088 0.044657152 1.7410001 101 77 49 255
-0.97985548 0.044650439 1.7410001 114 90 64 255
-0.97327632 0.044567004 1.738 77 63 40 255
-0.96671987 0.044483807 1.7350001 85 83 65 255
-0.96184886 0.044477727 1.7350001 36 34 16 255
-0.95698351 0.044471845 1.7350001 37 37 19 255
-0.95486766 0.044594314 1.7400001 41 41 23 255
-0.95109093 0.044640061 1.7420001 44 42 22 255
-0.94241983 0.044455379 1.7350001 26 24 4 255
-0.93649477 0.044399027 1.733 72 69 49 255
-0.93327403 0.044470962 1.7360001 54 46 29 255
-0.93057603 0.044568677 1.7400001 74 59 39 255
-0.9252004 0.044538487 1.7390001 70 51 29 255
-0.9182474 0.04443166 1.7350001 100 76 48 255
-0.91342688 0.044427451 1.7350001 112 85 57 255
-0.90808713 0.044397809 1.7340001 110 84 52 255
-0.90171552 0.044317141 1.7310001 108 82 53 255
-0.89743733 0.044339057 1.7320001 104 85 56 255
-0.89315772 0.044361129 1.733 98 81 52 255
-0.89092714 0.044485748 1.738 73 59 36 255
-0.88306433 0.044328976 1.7320001 53 40 17 255
-0.87726694 0.044274751 1.7300001 59 45 21 255
-0.87249309 0.044271875 1.7300001 74 58 32 255
-0.86671954 0.044217966 1.728 83 67 41 255
-0.8624571 0.044240985 1.7290001 82 69 42 255
-0.85769659 0.044238564 1.7290001 77 64 40 255
-0.85639256 0.044415385 1.7360001 58 48 23 255
-0.853091 0.044489995 1.7390001 52 45 22 255
-0.84928852 0.044539165 1.7410001 38 33 12 255
-0.84693325 0.044665214 1.7460001 47 42 21 255
-0.84310669 0.044714656 1.748 48 41 18 255
-0.84358829 0.044994447 1.7590001 47 40 17 255
-0.84115154 0.045120884 1.7640001 44 37 14 255
-0.84011239 0.04532418 1.7720001 43 36 13 255
-0.83620405 0.045374144 1.774 45 36 13 255
-0.83228755 0.04542423 1.7760001 46 37 14 255
-0.82929438 0.045525603 1.7800001 53 43 18 255
-0.8248924 0.045550369 1.7810001 67 55 28 255
-0.82048738 0.045575257 1.7820001 68 56 29 255
-0.81470633 0.045523554 1.7800001 78 62 36 255
-0.80984837 0.045523115 1.7800001 72 56 30 255
-0.80499256 0.045522805 1.7800001 68 56 27 255
-0.79923999 0.045471463 1.7780001 121 109 80 255
-0.79126638 0.045292363 1.771 160 155 125 255
-0.78510922 0.045215681 1.7680001 155 154 124 255
-0.77897048 0.045139112 1.7650001 154 157 126 255
-0.77416563 0.045139372 1.7650001 156 159 128 255
-0.76849079 0.045088593 1.7630001 139 144 113 255
-0.7632618 0.045063496 1.7620001 127 132 101 255
-0.75760937 0.045012925 1.7600001 149 154 123 255
-0.75196952 0.044962458 1.7580001 150 157 128 255
-0.74421686 0.044784203 1.751 155 163 137 255
-0.73734838 0.044657201 1.7460001 158 166 141 255
-0.73050845 0.044530287 1.7410001 154 164 139 255
-0.72369707 0.044403464 1.7360001 158 168 145 255
-0.71732813 0.044302303 1.7320001 170 180 157 255
-0.71139371 0.04422681 1.7290001 174 183 164 255
-0.70588535 0.044176977 1.7270001 181 190 171 255
-0.69957691 0.044076066 1.723 181 190 171 255
-0.69208139 0.043898493 1.7160001 186 195 176 255
-0.68622708 0.04382332 1.7130001 189 198 179 255
-0.67919642 0.043671474 1.7070001 189 198 179 255
-0.67298943 0.043570861 1.7030001 192 201 182 255
-0.66680491 0.043470316 1.6990001 192 198 180 255
-0.66103274 0.04339543 1.6960001 193 202 183 255
-0.65527737 0.043320611 1.6930001 190 199 180 255
-0.64953899 0.043245848 1.6900001 188 197 178 255
-0.64419919 0.043196745 1.6880001 176 185 164 255
-0.63924962 0.043173298 1.687 174 184 161 255
-0.63355368 0.043098737 1.6840001 176 186 161 255
-0.62862146 0.043075413 1.6830001 161 171 145 255
-0.62369508 0.043052156 1.682 180 190 164 255
-0.61877447 0.043028954 1.6810001 174 184 158 255
-0.61385965 0.043005809 1.6800001 165 174 145 255
-0.60822523 0.042931523 1.677 162 171 142 255
-0.60368723 0.04293409 1.677 164 173 142 255
-0.5987922 0.042911116 1.6760001 149 158 129 255
-0.5942573 0.042913787 1.6760001 151 160 131 255
-0.58972263 0.042916518 1.6760001 142 150 124 255
-0.58483899 0.042893693 1.6750001 145 153 127 255
-0.58065367 0.042922139 1.6760001 153 161 135 255
-0.57646292 0.042950626 1.677 154 163 134 255
-0.57192588 0.042953555 1.677 153 160 131 255
-0.56705034 0.042930916 1.6760001 150 157 128 255
-0.56218034 0.042908322 1.6750001 156 163 134 255
-0.55798131 0.042936996 1.6760001 153 160 131 255
-0.55311638 0.04291448 1.6750001 157 165 139 255
-0.54825681 0.042891998 1.674 159 167 141 255
-0.54307759 0.042843927 1.6720001 163 171 146 255
-0.53823107 0.042821512 1.6710001 156 164 139 255
-0.53370917 0.042824764 1.6710001 150 160 135 255
-0.52918696 0.042828038 1.6710001 154 164 139 255
-0.52403653 0.042780086 1.669 176 186 161 255
-0.51889652 0.042732157 1.6670001 176 184 159 255
-0.51376706 0.042684253 1.6650001 156 164 138 255
-0.50925982 0.042687643 1.6650001 170 180 155 255
-0.5041458 0.042639781 1.6630001 165 175 152 255
-0.49874178 0.042566292 1.6600001 163 173 150 255
-0.49335349 0.042492818 1.6570001 172 182 159 255
-0.48857114 0.042470653 1.6560001 168 180 157 255
-0.48408598 0.042474139 1.6560001 169 181 158 255
-0.47902107 0.042426355 1.654 174 184 159 255
-0.47367951 0.042352922 1.651 162 172 147 255
-0.46835375 0.042279504 1.6480001 155 165 140 255
-0.4636066 0.042257398 1.6470001 162 172 146 255
-0.4591431 0.042260963 1.6470001 152 162 136 255
-0.45412681 0.042213216 1.6450001 166 176 150 255
-0.44939402 0.04219114 1.6440001 173 183 157 255
-0.44466615 0.042169072 1.6430001 161 171 145 255
-0.44021088 0.042172674 1.6430001 132 142 117 255
-0.43548977 0.042150613 1.6420001 150 160 135 255
-0.43077329 0.042128555 1.641 143 153 128 255
-0.42606163 0.042106505 1.6400001 144 154 129 255
-0.42135465 0.042084455 1.6390001 138 148 123 255
-0.41665238 0.042062402 1.6380001 141 151 125 255
-0.41170308 0.042014658 1.636 143 154 125 255
-0.40726185 0.042018291 1.636 141 150 119 255
-0.40281978 0.042021912 1.636 145 154 123 255
-0.39837688 0.042025533 1.636 138 147 116 255
-0.39417407 0.042054843 1.6370001 142 151 120 255
-0.38996506 0.042084161 1.6380001 139 148 117 255
-0.3857497 0.042113468 1.6390001 139 149 116 255
-0.38106284 0.042091385 1.6380001 138 148 115 255
-0.37661052 0.042094987 1.6380001 137 146 115 255
-0.37193012 0.042072881 1.6370001 139 149 116 255
-0.36770332 0.042102173 1.6380001 139 147 112 255
-0.3634702 0.042131457 1.6390001 140 148 113 255
-0.35944983 0.042186435 1.641 128 138 103 255
-0.35520139 0.042215705 1.6420001 131 141 108 255
-0.35116023 0.042270675 1.6440001 122 132 99 255
-0.34668559 0.042274218 1.6440001 121 131 98 255
-0.34220999 0.042277735 1.6440001 116 126 93 255
-0.33793902 0.04230696 1.6450001 110 120 87 255
-0.33386442 0.042361893 1.6470001 122 129 97 255
-0.32997796 0.042442538 1.6500001 119 126 94 255
-0.32587701 0.042497441 1.6520001 103 111 76 255
-0.32156974 0.042526614 1.6530001 101 109 74 255
-0.31706437 0.042530041 1.6530001 101 108 69 255
-0.31255803 0.042533442 1.6530001 107 114 74 255
-0.30805075 0.042536814 1.6530001 102 109 70 255
-0.30354264 0.042540163 1.6530001 99 102 71 255
-0.29867178 0.04249201 1.651 24 26 0 255
-0.29381099 0.042443827 1.649 22 21 5 255
-0.28896016 0.042395603 1.6470001 25 24 8 255
-0.28394669 0.042321604 1.6440001 29 26 10 255
-0.27928868 0.042299051 1.6430001 33 30 14 255
-0.27463523 0.042276461 1.6420001 33 30 14 255
-0.27064452 0.042356838 1.6450001 26 23 9 255
-0.26631287 0.042385682 1.646 26 22 11 255
-0.26197493 0.042414501 1.6470001 28 24 13 255
-0.25778699 0.042469043 1.649 26 22 11 255
-0.25374088 0.042549312 1.6520001 21 17 6 255
-0.24937576 0.042578042 1.6530001 24 20 9 255
-0.24485618 0.042580977 1.6530001 20 21 7 255
-0.24048118 0.042609632 1.654 63 64 52 255
-0.23609988 0.042638257 1.6550001 60 65 53 255
-0.2312925 0.042589549 1.6530001 81 86 74 255
-0.22649524 0.042540785 1.651 80 87 76 255
-0.22143924 0.042440448 1.6470001 81 89 81 255
-0.21693118 0.04244313 1.6470001 87 95 87 255
-0.21229337 0.042419996 1.646 97 105 97 255
-0.20753402 0.042371046 1.6440001 92 100 93 255
-0.20253785 0.042270496 1.6400001 81 89 82 255
-0.19780438 0.042221442 1.6380001 74 80 73 255
-0.19331715 0.042223889 1.6380001 76 82 75 255
-0.18905972 0.042277843 1.6400001 69 75 68 255
-0.18445303 0.042254422 1.6390001 68 73 62 255
-0.1804001 0.042359859 1.6430001 69 74 62 255
-0.17600337 0.042387903 1.6440001 68 73 61 255
-0.17191346 0.042493265 1.6480001 66 71 57 255
-0.16759776 0.04254701 1.6500001 62 67 53 255
-0.16327046 0.04260071 1.6520001 64 69 55 255
-0.15883543 0.042628575 1.6530001 65 70 56 255
-0.15448764 0.042682178 1.6550001 64 69 57 255
-0.15030947 0.042787321 1.659 66 71 59 255
-0.14602087 0.042866621 1.6620001 61 66 52 255
-0.14171523 0.04294588 1.6650001 61 66 52 255
-0.13747491 0.043050881 1.669 61 66 52 255
-0.13337135 0.043207433 1.6750001 59 64 50 255
-0.12923427 0.04336394 1.6810001 60 65 51 255
-0.12476719 0.043417208 1.6830001 56 59 45 255
-0.12021723 0.043444633 1.6840001 55 60 48 255
-0.11566128 0.043471992 1.6850001 55 60 48 255
-0.11129703 0.043576702 1.6890001 56 61 49 255
-0.10678405 0.043629758 1.6910001 58 63 51 255
-0.10219923 0.043656953 1.692 56 61 47 255
-0.097493187 0.043632489 1.6910001 59 63 46 255
-0.092847131 0.043633766 1.6910001 61 67 50 255
-0.088252835 0.043660786 1.692 60 66 49 255
-0.083800904 0.043765161 1.6960001 64 69 55 255
-0.079233311 0.043817874 1.6980001 64 67 55 255
-0.074610472 0.043844722 1.6990001 64 69 57 255
-0.06989947 0.043819889 1.6980001 62 67 55 255
-0.065193675 0.043794997 1.697 62 67 55 255
-0.060564432 0.043821655 1.6980001 65 70 56 255
-0.056061111 0.043951489 1.7030001 66 71 57 255
-0.051560216 0.044107068 1.7090001 61 66 52 255
-0.046998691 0.044236783 1.7140001 61 66 52 255
-0.042310786 0.044263203 1.715 60 66 49 255
-0.037682954 0.044366989 1.7190001 64 68 51 255
-0.033032972 0.044470709 1.723 62 68 51 255
-0.028377265 0.044600178 1.728 60 66 49 255
-0.023625577 0.044600535 1.728 60 66 49 255
-0.018884707 0.044626631 1.7290001 61 67 50 255
-0.014146429 0.044678479 1.7310001 62 68 51 255
-0.0093970867 0.044730265 1.733 61 66 52 255
-0.0046340334 0.044756174 1.7340001 60 65 51 255
0.00013454087 0.044782016 1.7350001 62 67 53 255
0.0049170973 0.044885222 1.7390001 63 68 54 255
0.0097160535 0.044962555 1.7420001 62 67 53 255
0.014514815 0.0449882 1.743 62 67 53 255
0.019330088 0.045039587 1.7450001 61 67 50 255
0.024211584 0.045194156 1.751 64 70 53 255
0.029125977 0.045348655 1.7570001 60 66 49 255
0.03403458 0.045451462 1.761 62 67 53 255
0.038920887 0.045502584 1.7630001 59 64 52 255
0.04386767 0.045605257 1.7670001 59 64 52 255
0.048808683 0.045682054 1.7700001 55 60 48 255
0.053705335 0.045707166 1.771 56 61 49 255
0.058640324 0.04575802 1.7730001 47 52 38 255
0.063478589 0.045731384 1.7720001 45 50 36 255
0.73068279 0.045711707 1.7870001 136 144 137 255
0.73100358 0.045428969 1.7760001 140 148 141 255
0.73375154 0.045299802 1.771 140 148 141 255
0.73480552 0.045068428 1.7620001 140 148 141 255
0.7345528 0.044760428 1.7500001 143 151 144 255
0.73381376 0.044426959 1.7370001 143 151 144 255
0.73428088 0.044170327 1.7270001 154 162 155 255
0.73555112 0.043964956 1.7190001 158 166 159 255
0.73677915 0.043759685 1.7110001 161 170 163 255
0.73883206 0.043605678 1.705 167 176 169 255
0.73954582 0.043375049 1.6960001 172 180 173 255
0.7410897 0.04319568 1.6890001 174 182 175 255
0.7417143 0.042965263 1.6800001 174 182 175 255
0.74317992 0.042786099 1.6730001 176 184 177 255
0.74237466 0.042479176 1.6610001 176 183 179 255
0.74285495 0.042249084 1.6520001 178 185 181 255
0.74283564 0.041993525 1.6420001 178 185 182 255
0.74412912 0.041814793 1.6350001 179 186 183 255
0.74401301 0.04155945 1.6250001 179 186 183 255
0.74476546 0.04135536 1.6170001 181 188 184 255
0.74501312 0.041125804 1.608 181 188 184 255
0.7456798 0.04092193 1.6 183 190 186 255
0.74536759 0.040667016 1.59 182 189 185 255
0.74453139 0.040386625 1.5790001 185 192 188 255
0.74506009 0.040183071 1.5710001 182 189 185 255
0.7445935 0.03992847 1.5610001 183 190 186 255
0.7450341 0.039725136 1.5530001 186 193 189 255
0.74398595 0.039445162 1.5420001 188 195 191 255
0.74385059 0.039216455 1.5330001 187 194 190 255
0.74318039 0.038962271 1.5230001 187 194 191 255
0.74294883 0.038733773 1.5140001 187 194 191 255
0.74217707 0.038479794 1.5040001 188 195 191 255
-0.98900443 0.038048942 1.6570001 28 31 17 255
-0.98604727 0.03811001 1.6600001 26 27 13 255
-0.98130643 0.038102396 1.6600001 26 27 13 255
-1.0030462 0.039127678 1.705 22 23 9 255
-1.0022894 0.039280888 1.7120001 24 23 9 255
-1.0172299 0.040053613 1.7460001 26 23 9 255
-1.0134318 0.040092312 1.748 34 26 9 255
-1.0073214 0.040039465 1.7460001 45 33 16 255
-1.0018029 0.040009763 1.7450001 62 46 23 255
-0.99458277 0.039911486 1.7410001 83 60 37 255
-0.99137086 0.039973885 1.7440001 96 70 42 255
-0.98588568 0.039944779 1.743 108 82 54 255
-0.98266327 0.04000752 1.7460001 114 89 66 255
-0.97719032 0.039978791 1.7450001 79 64 44 255
-0.97061437 0.039904438 1.7420001 69 75 57 255
-0.96406066 0.039830279 1.7390001 28 27 13 255
-0.95973593 0.039847922 1.7400001 40 39 23 255
-0.9559598 0.039888635 1.7420001 46 46 28 255
-0.94890183 0.039792135 1.738 62 60 40 255
-0.94187176 0.039695833 1.7340001 37 35 15 255
-0.93757087 0.039714161 1.7350001 71 66 46 255
-0.93380696 0.039755542 1.7370001 50 43 23 255
-0.93057168 0.039819963 1.7400001 67 56 35 255
-0.92413211 0.039747234 1.7370001 91 73 49 255
-0.91771412 0.039674681 1.7340001 115 83 56 255
