ply
format ascii 1.0
comment PCL generated
element vertex 978
property float x
property float y
property float z
property uchar red
property uchar green
property uchar blue
property uchar alpha
element camera 0
property float view_px
property float view_py
property float view_pz
property float x_axisx
property float x_axisy
property float x_axisz
property float y_axisx
property float y_axisy
property float y_axisz
property float z_axisx
property float z_axisy
property float z_axisz
property float focal
property float scalex
property float scaley
property float centerx
property float centery
property int viewportx
property int viewporty
property float k1
property float k2
end_header
0.73052275 -0.10569928 1.5140001 183 187 189 255
0.73274016 -0.10542459 1.5100001 186 190 192 255
0.73347425 -0.10494075 1.503 188 192 194 255
-0.92724466 -0.13712077 1.8900001 106 102 91 255
-0.92351002 -0.13733156 1.8930001 124 120 109 255
-0.91733664 -0.13718005 1.891 132 128 118 255
-0.87309128 -0.13670869 1.8850001 127 113 103 255
-0.86563516 -0.13634337 1.8800001 47 36 23 255
-0.74569774 -0.1210339 1.669 242 243 237 255
-0.73404205 -0.11987314 1.6530001 233 234 228 255
-0.72291684 -0.11878519 1.6380001 224 228 220 255
-0.71406811 -0.11806012 1.628 218 222 214 255
-0.70701933 -0.11762543 1.6220001 213 218 207 255
-0.70173746 -0.11748108 1.6200001 210 215 203 255
-0.69603759 -0.11726449 1.6170001 205 210 196 255
-0.69035566 -0.11704817 1.6140001 200 205 191 255
-0.68511647 -0.11690462 1.6120001 198 203 189 255
-0.67988956 -0.11676133 1.6100001 196 202 185 255
-0.67509443 -0.11669081 1.6090001 193 199 182 255
-0.66988915 -0.11654803 1.6070001 188 194 177 255
-0.66469598 -0.11640547 1.605 189 193 175 255
-0.65910345 -0.11619063 1.6020001 185 189 171 255
-0.65475446 -0.11619361 1.6020001 185 190 169 255
-0.6504066 -0.1161968 1.6020001 191 193 173 255
-0.64646292 -0.11627277 1.603 189 191 171 255
-0.64171374 -0.1162039 1.6020001 181 183 163 255
-0.63697088 -0.11613522 1.6010001 182 184 166 255
-0.63144392 -0.11592168 1.598 184 188 170 255
-0.62632662 -0.11578088 1.5960001 182 186 169 255
-0.62161058 -0.11571279 1.595 182 187 173 255
-0.61690086 -0.11564494 1.5940001 185 190 176 255
-0.61181283 -0.1155047 1.5920001 185 191 174 255
-0.60711777 -0.11543719 1.5910001 187 191 173 255
-0.6028077 -0.11544243 1.5910001 184 188 170 255
-0.59887445 -0.11552043 1.5920001 187 191 173 255
-0.5934422 -0.11530832 1.5890001 184 188 170 255
-0.58876836 -0.11524151 1.5880001 182 186 168 255
-0.58410031 -0.11517488 1.5870001 182 186 168 255
-0.57943803 -0.11510839 1.5860001 182 186 168 255
-0.57478154 -0.11504205 1.585 185 189 171 255
-0.56977081 -0.11490329 1.5830001 179 183 165 255
-0.56512845 -0.11483724 1.582 185 189 171 255
-0.56049174 -0.11477134 1.5810001 180 186 168 255
-0.55621248 -0.11477818 1.5810001 182 188 170 255
-0.5512352 -0.11463996 1.5790001 180 186 168 255
-0.54661518 -0.11457445 1.5780001 178 184 166 255
-0.54165691 -0.11443646 1.5760001 180 186 168 255
-0.53705066 -0.11437118 1.575 180 186 168 255
-0.53244978 -0.11430603 1.5740001 179 185 167 255
-0.52818996 -0.11431362 1.5740001 177 183 165 255
-0.52393007 -0.11432132 1.5740001 183 189 171 255
-0.51933992 -0.11425651 1.5730001 177 184 163 255
-0.51410013 -0.11404648 1.5700001 173 180 159 255
-0.50952607 -0.11398185 1.5690001 171 176 154 255
-0.50431305 -0.113772 1.5660001 183 188 166 255
-0.49975488 -0.11370753 1.5650001 177 180 156 255
-0.49520192 -0.11364315 1.5640001 175 178 154 255
-0.49065405 -0.11357883 1.5630001 178 181 157 255
-0.48642257 -0.11358728 1.5630001 180 183 161 255
-0.4818823 -0.11352312 1.562 185 190 168 255
-0.47704136 -0.11338634 1.5600001 182 187 165 255
-0.47221097 -0.11324964 1.5580001 174 181 159 255
-0.46829215 -0.11333104 1.559 168 176 151 255
-0.46406981 -0.11333983 1.559 160 168 143 255
-0.46014208 -0.1134214 1.5600001 163 171 146 255
-0.45474726 -0.11313947 1.5560001 173 180 158 255
-0.45024231 -0.11307572 1.5550001 169 176 155 255
-0.44574222 -0.11301199 1.554 161 168 147 255
-0.44124722 -0.11294831 1.5530001 160 169 148 255
-0.43619421 -0.11273921 1.5500001 175 184 163 255
-0.43087828 -0.11245736 1.5460001 176 183 162 255
-0.42613548 -0.112321 1.544 179 186 165 255
-0.42167625 -0.11225741 1.5430001 157 162 141 255
-0.41776299 -0.11233934 1.544 153 158 136 255
-0.41357589 -0.11234855 1.544 170 175 153 255
-0.40885794 -0.11221226 1.5420001 170 175 153 255
-0.40388769 -0.11200318 1.539 169 174 152 255
-0.3991929 -0.11186688 1.5370001 180 185 163 255
-0.39527938 -0.11194892 1.5380001 163 168 146 255
-0.39135969 -0.112031 1.539 152 157 135 255
-0.38718235 -0.1120403 1.539 157 162 140 255
-0.38275552 -0.11197679 1.5380001 166 172 147 255
-0.37808719 -0.11184046 1.536 155 161 136 255
-0.37391594 -0.11184975 1.536 157 165 140 255
-0.36902189 -0.11164056 1.5330001 163 171 146 255
-0.36485738 -0.11164981 1.5330001 149 157 132 255
-0.36045685 -0.11158624 1.5320001 165 170 148 255
-0.35652614 -0.1116683 1.5330001 155 160 138 255
-0.35212958 -0.11160468 1.5320001 159 165 140 255
-0.3477377 -0.11154103 1.531 158 163 141 255
-0.34335053 -0.11147734 1.5300001 158 161 139 255
-0.33918968 -0.11148648 1.5300001 163 166 144 255
-0.33502808 -0.1114956 1.5300001 158 161 139 255
-0.3306495 -0.11143181 1.529 159 162 138 255
-0.32670256 -0.11151373 1.5300001 153 159 134 255
-0.32211706 -0.11137699 1.5280001 152 158 133 255
-0.31795779 -0.11138594 1.5280001 152 158 133 255
-0.31359234 -0.11132196 1.5270001 150 158 133 255
-0.30983949 -0.11147665 1.529 155 161 136 255
-0.30547521 -0.11141258 1.5280001 155 158 134 255
-0.30131274 -0.11142138 1.5280001 158 161 137 255
-0.29695499 -0.11135717 1.5270001 155 158 134 255
-0.29317716 -0.11151171 1.529 158 161 137 255
-0.28882056 -0.1114474 1.5280001 154 159 137 255
-0.28484118 -0.1115289 1.529 151 156 134 255
-0.28048843 -0.11146446 1.5280001 146 151 129 255
-0.27595949 -0.11132698 1.526 144 149 127 255
-0.27161881 -0.11126237 1.5250001 145 151 126 255
-0.26780888 -0.11141656 1.5270001 145 149 123 255
-0.26364195 -0.11142478 1.5270001 156 160 134 255
-0.25930434 -0.11135995 1.526 159 161 135 255
-0.25480416 -0.11122204 1.524 162 164 138 255
-0.25064307 -0.11123001 1.524 143 147 121 255
-0.24664292 -0.11131088 1.5250001 138 142 116 255
-0.24247751 -0.11131868 1.5250001 147 150 126 255
-0.23862389 -0.11147239 1.5270001 147 151 125 255
-0.2344515 -0.11148003 1.5270001 156 162 136 255
-0.23027831 -0.11148757 1.5270001 147 153 127 255
-0.22580825 -0.11134899 1.5250001 136 142 116 255
-0.22163908 -0.11135634 1.5250001 144 151 122 255
-0.21746913 -0.11136358 1.5250001 149 156 127 255
-0.21343829 -0.11144375 1.526 143 149 123 255
-0.20926413 -0.11145079 1.526 141 145 119 255
-0.20522366 -0.11153078 1.5270001 144 148 122 255
-0.20130865 -0.11168369 1.529 142 145 121 255
-0.19725311 -0.1117635 1.5300001 137 140 116 255
-0.19319132 -0.11184317 1.531 130 134 108 255
-0.18899997 -0.1118497 1.531 155 157 129 255
-0.18480793 -0.1118561 1.531 154 156 128 255
-0.1806152 -0.1118624 1.531 149 151 123 255
-0.17653708 -0.11194164 1.5320001 150 152 124 255
-0.17245279 -0.11202077 1.5330001 152 154 126 255
-0.16836242 -0.11209979 1.534 146 151 120 255
-0.16437292 -0.11225177 1.536 145 150 119 255
-0.16058041 -0.1125498 1.5400001 142 146 118 255
-0.15676536 -0.11284773 1.544 141 145 117 255
-0.1529278 -0.11314559 1.5480001 142 146 118 255
-0.14887561 -0.11329712 1.5500001 143 145 117 255
-0.14509179 -0.11366785 1.5550001 140 142 116 255
-0.14137058 -0.11411157 1.5610001 142 144 116 255
-0.13814279 -0.11499382 1.5730001 136 135 113 255
-0.13501881 -0.11602222 1.5870001 149 144 123 255
-0.1316528 -0.11690434 1.5990001 74 64 45 255
-0.12758371 -0.11720147 1.603 98 84 67 255
-0.12303106 -0.11705979 1.6010001 114 87 72 255
-0.11856303 -0.11699107 1.6 118 94 78 255
-0.11402864 -0.11684906 1.598 112 88 72 255
-0.10971062 -0.11692628 1.5990001 110 85 71 255
-0.10545251 -0.11707648 1.6010001 109 86 72 255
-0.10118301 -0.11722653 1.603 106 85 71 255
-0.097083218 -0.11759581 1.608 102 81 67 255
-0.09301322 -0.11803813 1.6140001 100 81 69 255
-0.08880011 -0.11833403 1.618 91 76 63 255
-0.084512524 -0.11855664 1.6210001 68 53 40 255
-0.080257505 -0.11885226 1.6250001 58 45 30 255
-0.075980179 -0.11914772 1.6290001 57 46 33 255
-0.071636669 -0.11936989 1.6320001 57 48 35 255
-0.067235216 -0.11951876 1.6340001 50 46 32 255
-0.062822498 -0.11966749 1.636 51 47 36 255
-0.058255918 -0.11952346 1.6340001 54 50 39 255
-0.053798802 -0.1195987 1.6350001 50 46 35 255
-0.049305804 -0.11960064 1.6350001 50 48 37 255
-0.044840008 -0.11967555 1.636 49 47 36 255
-0.040368527 -0.11975031 1.6370001 49 47 36 255
-0.035847548 -0.11967857 1.636 50 48 38 255
-0.03133193 -0.1196067 1.6350001 49 47 37 255
-0.026838079 -0.11960778 1.6350001 49 47 37 255
-0.022371449 -0.11975501 1.6370001 52 50 40 255
-0.017860979 -0.11968261 1.636 51 49 38 255
-0.01335593 -0.11961006 1.6350001 54 50 39 255
-0.0088563208 -0.11953731 1.6340001 58 53 42 255
-0.0043621729 -0.11946441 1.6330001 57 50 39 255
0.00012641984 -0.11931816 1.631 62 55 44 255
0.0046124952 -0.11939124 1.6320001 66 59 48 255
0.0091096237 -0.11953729 1.6340001 64 60 50 255
0.013609386 -0.11961003 1.6350001 66 62 52 255
0.018103514 -0.11960942 1.6350001 61 61 53 255
0.022569923 -0.11946235 1.6330001 67 67 59 255
0.027041806 -0.11938825 1.6320001 68 68 60 255
0.031527404 -0.11938716 1.6320001 73 73 65 255
0.036034934 -0.11945905 1.6330001 71 73 65 255
0.040597435 -0.11967706 1.636 71 72 66 255
0.045121133 -0.11974861 1.6370001 73 75 67 255
0.04965014 -0.11981998 1.6380001 73 75 67 255
0.054118302 -0.11974487 1.6370001 72 74 66 255
0.058544945 -0.11959648 1.6350001 72 73 67 255
0.062960342 -0.11944792 1.6330001 73 74 68 255
0.067405798 -0.11937233 1.6320001 76 77 71 255
0.071889527 -0.11936975 1.6320001 78 82 75 255
0.076372951 -0.11936698 1.6320001 75 79 72 255
0.080905601 -0.11943721 1.6330001 77 81 74 255
0.085443415 -0.11950726 1.6340001 81 85 78 255
0.089986369 -0.11957715 1.6350001 82 86 79 255
0.094534434 -0.11964687 1.636 82 86 79 255
0.099087618 -0.11971644 1.6370001 84 88 81 255
0.10364589 -0.11978585 1.6380001 81 85 78 255
0.1081432 -0.11978196 1.6380001 83 87 80 255
0.11277761 -0.11992416 1.6400001 83 87 80 255
0.11735103 -0.11999308 1.641 84 86 78 255
0.12185521 -0.11998871 1.641 84 86 78 255
0.12635891 -0.11998419 1.641 84 86 78 255
0.13078237 -0.11990643 1.6400001 87 89 81 255
0.13519979 -0.1198285 1.6390001 85 87 79 255
0.13978167 -0.11989664 1.6400001 85 89 82 255
0.14410459 -0.11974534 1.6380001 85 89 82 255
0.14859736 -0.11974011 1.6380001 87 91 84 255
0.15290263 -0.11958849 1.636 90 91 85 255
0.1575812 -0.11972917 1.6380001 91 92 86 255
0.16217114 -0.11979658 1.6390001 92 93 87 255
0.16717272 -0.12015619 1.6440001 87 88 82 255
0.17188779 -0.1202964 1.646 90 91 85 255
0.17650598 -0.12036336 1.6470001 87 88 82 255
0.18101911 -0.12035711 1.6470001 87 91 84 255
0.18553156 -0.12035072 1.6470001 87 91 84 255
0.18981254 -0.12019807 1.6450001 87 91 84 255
0.1943181 -0.12019142 1.6450001 89 93 86 255
0.19894384 -0.12025771 1.646 89 93 86 255
0.20357433 -0.12032387 1.6470001 90 94 87 255
0.20783055 -0.12017073 1.6450001 90 94 87 255
0.21207505 -0.12001751 1.6430001 90 91 85 255
0.21683516 -0.12015636 1.6450001 91 92 86 255
0.22227816 -0.12066025 1.6520001 92 93 87 255
0.22748414 -0.1210179 1.6570001 88 89 83 255
0.23271669 -0.1213754 1.6620001 80 84 77 255
0.23740475 -0.12144063 1.6630001 70 74 67 255
0.64591908 -0.11853293 1.6340001 194 194 194 255
0.64159381 -0.11693293 1.6120001 9 10 6 255
0.64195877 -0.11620367 1.6020001 26 27 21 255
0.64388406 -0.11576483 1.5960001 20 22 12 255
0.64618403 -0.11539876 1.5910001 19 22 10 255
0.64886671 -0.11510548 1.5870001 17 20 8 255
0.65194029 -0.11488496 1.5840001 29 32 20 255
0.65541303 -0.11473721 1.582 30 33 21 255
0.658876 -0.11458971 1.58 27 30 16 255
0.66232944 -0.11444246 1.5780001 26 29 15 255
0.66323858 -0.11386032 1.5700001 23 26 12 255
0.66495579 -0.1134235 1.5640001 22 25 11 255
0.66664177 -0.11298694 1.5580001 23 26 12 255
0.66958833 -0.1127682 1.5550001 27 30 16 255
0.67295331 -0.11262225 1.5530001 25 28 14 255
0.67543691 -0.11233151 1.549 24 27 13 255
0.67877787 -0.11218611 1.5470001 26 29 15 255
0.68122649 -0.11189593 1.5430001 23 26 12 255
0.68632036 -0.11204115 1.5450001 22 25 11 255
0.69008601 -0.11196907 1.544 25 28 14 255
0.69564676 -0.11218738 1.5470001 25 28 14 255
0.6971541 -0.11175328 1.5410001 24 28 11 255
0.69954085 -0.11146452 1.5370001 25 29 12 255
0.70282352 -0.11132111 1.5350001 29 33 16 255
0.70793974 -0.11146808 1.5370001 30 34 17 255
0.71492231 -0.11190546 1.5430001 25 30 16 255
0.72007549 -0.11205306 1.5450001 17 26 14 255
0.72289801 -0.11183835 1.5420001 41 50 39 255
0.72476327 -0.1114789 1.5370001 162 170 163 255
0.72707784 -0.11119229 1.5330001 168 175 171 255
0.7288959 -0.11083346 1.5280001 175 182 181 255
0.72876996 -0.11018479 1.5190001 180 184 184 255
0.73004484 -0.10975402 1.5130001 184 188 190 255
0.73177451 -0.1093961 1.508 187 191 193 255
0.73396748 -0.10911106 1.5040001 189 193 195 255
-0.74247962 -0.1258069 1.6720001 240 241 235 255
-0.72953695 -0.12437705 1.6530001 232 234 226 255
-0.71845412 -0.1232485 1.6380001 220 224 216 255
-0.71181357 -0.12287267 1.6330001 215 220 209 255
-0.7060684 -0.12264761 1.6300001 211 216 204 255
-0.70034099 -0.12242282 1.6270001 207 212 198 255
-0.69463158 -0.12219834 1.6240001 202 207 195 255
-0.68893993 -0.1219741 1.6210001 198 203 189 255
-0.68242139 -0.12159966 1.6160001 196 201 187 255
-0.67677057 -0.12137596 1.613 194 199 185 255
-0.67072052 -0.12107727 1.6090001 186 191 177 255
-0.66634989 -0.12107981 1.6090001 186 190 172 255
-0.66115773 -0.12093211 1.6070001 186 190 172 255
-0.65679485 -0.12093515 1.6070001 188 192 174 255
-0.65162116 -0.12078791 1.605 189 194 173 255
-0.6476692 -0.1208667 1.6060001 190 193 171 255
-0.64331216 -0.12087046 1.6060001 187 192 171 255
-0.63895607 -0.12087443 1.6060001 192 196 178 255
-0.63381058 -0.1207281 1.6040001 196 200 182 255
-0.62906921 -0.12065725 1.603 191 195 177 255
-0.62394434 -0.12051132 1.6010001 187 192 178 255
-0.61883098 -0.1203656 1.5990001 187 193 176 255
-0.61372924 -0.12022006 1.5970001 187 193 176 255
-0.60902053 -0.12015001 1.5960001 186 190 172 255
-0.60469663 -0.1201554 1.5960001 185 189 171 255
-0.59999728 -0.12008572 1.595 185 189 171 255
-0.59455693 -0.11986562 1.5920001 188 192 174 255
-0.58987474 -0.11979628 1.5910001 184 188 170 255
-0.58556634 -0.11980239 1.5910001 182 186 168 255
-0.58162385 -0.11988401 1.5920001 173 177 159 255
-0.5762257 -0.11966453 1.5890001 178 182 164 255
-0.57084411 -0.11944522 1.5860001 177 181 163 255
-0.56583625 -0.11930135 1.5840001 174 178 160 255
-0.56119394 -0.11923295 1.5830001 179 184 163 255
-0.55690902 -0.11923999 1.5830001 182 187 166 255
-0.5526244 -0.11924719 1.5830001 180 185 164 255
-0.54799342 -0.1191792 1.582 185 190 169 255
-0.54336804 -0.11911135 1.5810001 184 188 170 255
-0.53806615 -0.11889292 1.5780001 181 185 167 255
-0.53345698 -0.11882529 1.577 181 187 169 255
-0.52851778 -0.11868243 1.575 176 182 164 255
-0.52458787 -0.11876575 1.5760001 179 185 167 255
-0.51966202 -0.11862309 1.5740001 175 181 163 255
-0.51507437 -0.1185559 1.5730001 179 185 167 255
-0.50984257 -0.11833806 1.5700001 178 185 164 255
-0.50559294 -0.11834644 1.5700001 176 183 162 255
-0.50070447 -0.11820414 1.5680001 181 186 164 255
-0.49645984 -0.1182127 1.5680001 181 184 162 255
-0.49190116 -0.11814596 1.567 182 185 163 255
-0.48765877 -0.1181547 1.567 181 186 164 255
-0.48341608 -0.11816353 1.567 166 171 149 255
-0.47856155 -0.11802161 1.5650001 159 166 144 255
-0.47371754 -0.11787976 1.5630001 157 164 142 255
-0.46918434 -0.11781336 1.562 162 169 147 255
-0.46525154 -0.11789791 1.5630001 177 185 160 255
-0.46072295 -0.11783163 1.562 174 182 157 255
-0.4559072 -0.11768999 1.5600001 169 176 154 255
-0.45052272 -0.11739749 1.5560001 172 179 158 255
-0.44630674 -0.11740679 1.5560001 179 186 165 255
-0.44180623 -0.1173407 1.5550001 165 172 151 255
-0.4364664 -0.11704825 1.5510001 170 177 156 255
-0.43114769 -0.11675578 1.5470001 180 187 166 255
-0.42640218 -0.11661428 1.5450001 155 160 139 255
-0.42221346 -0.11662374 1.5450001 162 167 146 255
-0.41775367 -0.11655775 1.544 161 166 144 255
-0.41383436 -0.11664278 1.5450001 169 174 152 255
-0.40911368 -0.11650133 1.5430001 177 182 160 255
-0.40440321 -0.1163599 1.5410001 165 171 146 255
-0.39970294 -0.11621845 1.539 156 162 137 255
-0.39578396 -0.11630356 1.5400001 152 158 133 255
-0.39135024 -0.11623763 1.539 154 160 135 255
-0.38717291 -0.11624724 1.539 160 163 139 255
-0.38299492 -0.11625686 1.539 159 162 138 255
-0.37857005 -0.11619093 1.5380001 155 161 136 255
-0.37414995 -0.116125 1.5370001 161 167 142 255
-0.3694939 -0.11598349 1.5350001 173 179 153 255
-0.36508596 -0.11591752 1.534 151 157 131 255
-0.36044747 -0.11577594 1.5320001 165 171 146 255
-0.35651675 -0.11586107 1.5330001 157 163 138 255
-0.35235006 -0.11587062 1.5330001 157 163 138 255
-0.34818265 -0.11588014 1.5330001 161 167 142 255
-0.34401447 -0.11588965 1.5330001 154 157 133 255
-0.33940205 -0.11574788 1.531 161 164 140 255
-0.33523777 -0.11575733 1.531 158 161 139 255
-0.33085653 -0.11569113 1.5300001 162 165 141 255
-0.32690689 -0.1157761 1.531 161 167 142 255
-0.3223187 -0.11563419 1.529 156 162 137 255
-0.31815675 -0.11564347 1.529 155 161 136 255
-0.31358325 -0.11550142 1.5270001 152 158 133 255
-0.30983046 -0.1156619 1.529 157 163 138 255
-0.30526635 -0.11551975 1.5270001 156 160 134 255
-0.30130383 -0.11560449 1.5280001 154 158 132 255
-0.29694614 -0.11553784 1.5270001 154 158 132 255
-0.29297665 -0.11562249 1.5280001 159 162 138 255
-0.28881183 -0.1156314 1.5280001 158 164 139 255
-0.28483251 -0.11571594 1.529 161 167 142 255
-0.2806634 -0.11572474 1.529 156 162 137 255
-0.27613184 -0.11558209 1.5270001 151 156 134 255
-0.27178845 -0.11551502 1.526 145 151 126 255
-0.26762509 -0.11552359 1.526 150 154 128 255
-0.26363364 -0.1156078 1.5270001 144 148 122 255
-0.25929609 -0.11554051 1.526 149 151 123 255
-0.25496319 -0.11547311 1.5250001 159 161 133 255
-0.25079945 -0.11548137 1.5250001 164 168 142 255
-0.24679665 -0.11556525 1.526 152 156 130 255
-0.24262863 -0.11557333 1.526 145 148 124 255
-0.23845981 -0.11558131 1.526 147 150 126 255
-0.23429021 -0.1155892 1.526 153 159 134 255
-0.23011988 -0.11559702 1.526 158 161 137 255
-0.22580074 -0.11552896 1.5250001 152 158 133 255
-0.22163165 -0.11553655 1.5250001 142 146 118 255
-0.21746181 -0.11554406 1.5250001 140 144 116 255
-0.21329118 -0.11555143 1.5250001 153 157 131 255
-0.20925702 -0.1156345 1.526 147 151 123 255
-0.20521665 -0.11571747 1.5270001 143 147 121 255
-0.20130177 -0.11587612 1.529 147 148 124 255
-0.19711737 -0.11588309 1.529 141 142 118 255
-0.19318463 -0.11604153 1.531 131 135 107 255
-0.18886994 -0.1159725 1.5300001 155 157 129 255
-0.18468076 -0.11597911 1.5300001 155 157 129 255
-0.18037292 -0.11590981 1.529 152 155 124 255
-0.17618515 -0.11591619 1.529 152 155 124 255
-0.17210923 -0.11599827 1.5300001 152 155 124 255
-0.16813692 -0.11615603 1.5320001 151 154 123 255
-0.16393901 -0.11616205 1.5320001 148 153 122 255
-0.16005333 -0.11639543 1.5350001 146 150 122 255
-0.15604904 -0.11655285 1.5370001 145 149 121 255
-0.15213199 -0.116786 1.5400001 146 150 122 255
-0.14810185 -0.11694317 1.5420001 144 146 118 255
-0.14415349 -0.11717608 1.5450001 143 145 117 255
-0.14036925 -0.11756057 1.5500001 145 145 117 255
-0.13664484 -0.1180208 1.5560001 140 140 114 255
-0.13288698 -0.1184809 1.562 151 150 126 255
-0.12909569 -0.11894092 1.5680001 87 73 53 255
-0.12495262 -0.11909739 1.5700001 110 82 64 255
-0.12041384 -0.11887441 1.567 113 83 68 255
-0.11603927 -0.118803 1.5660001 111 81 66 255
-0.1116697 -0.11873143 1.5650001 114 84 69 255
-0.10744241 -0.11881145 1.5660001 112 82 67 255
-0.10314333 -0.11881544 1.5660001 109 80 65 255
-0.099033192 -0.11904691 1.5690001 105 78 64 255
-0.094966538 -0.1193541 1.5730001 104 77 62 255
-0.091165669 -0.12004054 1.582 101 76 62 255
-0.087205231 -0.12057512 1.5890001 97 74 60 255
-0.083310261 -0.12126133 1.598 96 75 61 255
-0.079365499 -0.1219474 1.6070001 96 80 64 255
-0.075277701 -0.12248159 1.6140001 89 75 58 255
-0.071238905 -0.12316739 1.623 73 58 43 255
-0.066985793 -0.12354951 1.628 56 45 30 255
-0.062666528 -0.12385558 1.6320001 53 46 33 255
-0.058218054 -0.12393381 1.6330001 56 52 41 255
-0.053829659 -0.12416366 1.636 56 52 41 255
-0.049364235 -0.12424155 1.6370001 52 48 37 255
-0.044893112 -0.12431927 1.6380001 49 45 34 255
-0.040391643 -0.12432093 1.6380001 48 44 33 255
-0.035846181 -0.1241706 1.636 48 46 35 255
-0.031311568 -0.12402012 1.6340001 49 47 36 255
-0.026820637 -0.12402125 1.6340001 54 50 39 255
-0.022343263 -0.12409812 1.6350001 53 49 38 255
-0.017849378 -0.1240989 1.6350001 55 51 40 255
-0.013330912 -0.1238718 1.6320001 56 51 40 255
-0.0088234618 -0.12356862 1.628 62 53 40 255
-0.0043406356 -0.12334118 1.6250001 74 63 50 255
0.00012594995 -0.12334125 1.6250001 83 70 57 255
0.004606666 -0.12372068 1.6300001 71 60 47 255
0.0091148494 -0.12409993 1.6350001 70 61 50 255
0.013617187 -0.12417537 1.636 61 57 46 255
0.018102819 -0.12409885 1.6350001 65 61 51 255
0.0225967 -0.12409807 1.6350001 67 63 53 255
0.027107049 -0.12417299 1.636 69 69 59 255
0.031584151 -0.12409595 1.6350001 71 68 61 255
0.036121819 -0.12424643 1.6370001 71 71 63 255
0.040645517 -0.12432085 1.6380001 72 73 67 255
0.045202103 -0.12447098 1.6400001 69 71 63 255
0.049648248 -0.12431735 1.6380001 70 72 64 255
0.054116238 -0.12423943 1.6370001 71 73 65 255
0.05854271 -0.12408546 1.6350001 75 76 70 255
0.062996507 -0.12400722 1.6340001 75 76 70 255
0.067444548 -0.12392882 1.6330001 79 80 74 255
0.071930856 -0.12392614 1.6330001 79 80 74 255
0.07637006 -0.12384737 1.6320001 77 81 74 255
0.080952086 -0.12399613 1.6340001 79 83 76 255
0.085544765 -0.1241447 1.636 81 85 78 255
0.090148091 -0.1242931 1.6380001 82 86 79 255
0.094646454 -0.12428956 1.6380001 83 87 80 255
0.099326015 -0.12451349 1.641 83 87 80 255
0.10395839 -0.12466139 1.6430001 79 83 76 255
0.10860131 -0.1248091 1.6450001 83 87 80 255
0.11311723 -0.12480489 1.6450001 87 88 82 255
0.11770421 -0.12487638 1.646 84 86 78 255
0.12214772 -0.124796 1.6450001 85 87 79 255
0.12666225 -0.12479132 1.6450001 85 87 79 255
0.13117625 -0.12478647 1.6450001 85 87 79 255
0.13560726 -0.12470563 1.6440001 83 87 80 255
0.14020272 -0.12477634 1.6450001 85 89 82 255
0.1444512 -0.1245435 1.6420001 86 90 83 255
0.14904554 -0.1246139 1.6430001 86 92 85 255
0.15327092 -0.12438077 1.6400001 85 91 84 255
0.1579603 -0.12452671 1.6420001 90 94 87 255
0.16256106 -0.12459666 1.6430001 87 91 84 255
0.16747175 -0.12489395 1.6470001 87 91 84 255
0.17229933 -0.12511525 1.6500001 87 91 84 255
0.17682119 -0.12510891 1.6500001 88 92 85 255
0.18134238 -0.12510242 1.6500001 88 92 85 255
0.18575026 -0.12501997 1.649 87 91 84 255
0.19015199 -0.12493741 1.6480001 87 91 84 255
0.19454752 -0.12485471 1.6470001 85 89 82 255
0.19942032 -0.12507512 1.6500001 86 90 83 255
0.20430884 -0.12529537 1.6530001 85 89 82 255
0.20896035 -0.12536386 1.654 84 88 81 255
0.21322939 -0.12520485 1.6520001 83 87 80 255
0.21801396 -0.12534888 1.654 83 87 80 255
0.65114194 -0.12313212 1.636 202 204 204 255
0.64516073 -0.12117128 1.6100001 15 16 12 255
0.64549434 -0.12041494 1.6 26 27 21 255
0.64699304 -0.11988465 1.5930001 23 25 17 255
0.65090799 -0.11980616 1.5920001 15 18 6 255
0.65276068 -0.11935163 1.5860001 24 27 15 255
0.65706766 -0.11934888 1.5860001 27 30 18 255
0.66012472 -0.11912063 1.5830001 28 31 17 255
0.66400629 -0.11904313 1.582 25 28 14 255
0.66281432 -0.11806294 1.5690001 26 29 15 255
0.66367871 -0.11745925 1.5610001 23 26 12 255
0.66621256 -0.11715682 1.557 23 26 12 255
0.67087913 -0.11723091 1.5580001 25 28 14 255
0.67425251 -0.1170795 1.5560001 26 29 15 255
0.67674458 -0.1167779 1.552 26 27 13 255
0.67921638 -0.11647658 1.5480001 27 30 16 255
0.68166804 -0.11617555 1.544 27 30 16 255
0.68543226 -0.11610053 1.5430001 23 26 12 255
0.68963975 -0.11610106 1.5430001 23 26 14 255
0.69384897 -0.11610186 1.5430001 23 26 12 255
0.6962505 -0.115802 1.539 25 28 14 255
0.69726676 -0.1152767 1.5320001 27 28 14 255
0.70328319 -0.11557941 1.536 27 30 16 255
0.70932364 -0.11588245 1.5400001 30 33 19 255
0.71677804 -0.11641157 1.5470001 27 32 18 255
0.72101045 -0.11641428 1.5470001 17 26 14 255
0.72290111 -0.11604105 1.5420001 38 47 36 255
0.72476673 -0.11566814 1.5370001 155 163 156 255
0.72755587 -0.11544606 1.534 168 177 170 255
0.72937703 -0.11507381 1.529 174 181 178 255
0.73069352 -0.1146266 1.5230001 178 185 184 255
0.73101455 -0.11402918 1.5150001 182 188 190 255
0.73177958 -0.11350732 1.508 184 190 192 255
0.73250878 -0.11298578 1.501 187 193 195 255
-0.74012929 -0.13075241 1.677 201 202 196 255
-0.72810352 -0.129427 1.6600001 229 231 223 255
-0.71835148 -0.12849171 1.6480001 218 220 210 255
-0.71126562 -0.12802455 1.6420001 213 218 207 255
-0.70464444 -0.12763566 1.6370001 209 214 203 255
-0.69890743 -0.12740298 1.6340001 206 211 200 255
-0.69318825 -0.12717059 1.631 205 210 198 255
-0.68622011 -0.12670459 1.6250001 200 205 193 255
-0.680125 -0.12639476 1.6210001 196 201 187 255
-0.67363596 -0.12600724 1.6160001 194 200 183 255
-0.66883206 -0.12593187 1.6150001 190 194 176 255
-0.66321182 -0.12570079 1.6120001 190 194 176 255
-0.65842652 -0.12562592 1.6110001 187 191 173 255
-0.65364778 -0.12555131 1.6100001 189 193 175 255
-0.64887536 -0.12547693 1.6090001 187 189 171 255
-0.64370883 -0.1253248 1.6070001 189 191 173 255
-0.63934982 -0.12532887 1.6070001 186 188 170 255
-0.63499165 -0.12533318 1.6070001 188 192 174 255
-0.63024187 -0.12525971 1.6060001 187 191 173 255
-0.62549841 -0.12518646 1.605 183 189 172 255
-0.62037402 -0.12503542 1.603 183 189 172 255
-0.61602986 -0.12504061 1.603 189 193 175 255
-0.6113047 -0.12496798 1.6020001 188 192 174 255
-0.60658544 -0.12489553 1.6010001 187 191 173 255
-0.60149616 -0.12474528 1.5990001 187 191 173 255
-0.59679168 -0.12467321 1.598 190 194 176 255
-0.59209311 -0.12460134 1.5970001 190 194 177 255
-0.58776832 -0.12460766 1.5970001 186 192 175 255
-0.583444 -0.12461416 1.5970001 180 186 169 255
-0.5780322 -0.12438674 1.5940001 182 188 171 255
-0.5729968 -0.12423748 1.5920001 184 190 172 255
-0.56761539 -0.12401035 1.5890001 184 188 170 255
-0.56295943 -0.12393943 1.5880001 179 184 162 255
-0.55866081 -0.12394671 1.5880001 181 186 164 255
-0.55401343 -0.12387611 1.5870001 179 184 163 255
-0.54971784 -0.1238837 1.5870001 182 187 166 255
-0.54439139 -0.12365721 1.5840001 182 186 168 255
-0.53976315 -0.123587 1.5830001 174 180 162 255
-0.53446388 -0.12336076 1.58 172 178 160 255
-0.52985197 -0.12329078 1.5790001 178 184 166 255
-0.52557826 -0.123299 1.5790001 184 191 170 255
-0.52130449 -0.12330734 1.5790001 177 184 163 255
-0.51637578 -0.12315959 1.577 182 189 167 255
-0.5114578 -0.12301195 1.575 186 191 169 255
-0.50687248 -0.12294251 1.5740001 188 193 171 255
-0.50229245 -0.12287316 1.5730001 185 190 168 255
-0.49771759 -0.1228039 1.572 169 174 152 255
-0.49346182 -0.12281284 1.572 155 161 136 255
-0.48889467 -0.12274377 1.5710001 156 162 137 255
-0.48464108 -0.1227529 1.5710001 164 169 147 255
-0.48008144 -0.12268396 1.5700001 178 183 161 255
-0.47522381 -0.12253696 1.5680001 180 185 163 255
-0.47007623 -0.12231184 1.5650001 180 185 164 255
-0.46524221 -0.12216493 1.5630001 179 186 165 255
-0.4607136 -0.12209624 1.562 181 188 167 255
-0.45619005 -0.12202761 1.5610001 184 191 170 255
-0.45138183 -0.12188082 1.559 179 184 163 255
-0.44715771 -0.12189045 1.559 167 172 151 255
-0.44208083 -0.12166557 1.5560001 170 175 154 255
-0.43730101 -0.12151887 1.554 185 190 169 255
-0.4325316 -0.12137222 1.552 151 156 135 255
-0.42804843 -0.1213038 1.5510001 175 180 158 255
-0.42329687 -0.12115716 1.549 177 182 160 255
-0.41855565 -0.12101056 1.5470001 180 185 163 255
-0.41436034 -0.12102042 1.5470001 185 190 168 255
-0.40989938 -0.12095208 1.5460001 164 170 145 255
-0.40544316 -0.12088374 1.5450001 153 159 134 255
-0.40073204 -0.12073716 1.5430001 161 167 142 255
-0.39654517 -0.12074709 1.5430001 155 161 136 255
-0.39184904 -0.1206005 1.5410001 155 160 138 255
-0.38741466 -0.12053218 1.5400001 156 161 139 255
-0.38298512 -0.12046383 1.539 158 163 141 255
-0.3785603 -0.1203955 1.5380001 161 166 144 255
-0.37438363 -0.12040542 1.5380001 150 156 131 255
-0.36996555 -0.12033705 1.5370001 166 172 147 255
-0.36555219 -0.12026867 1.536 148 154 128 255
-0.3609083 -0.12012195 1.534 161 168 139 255
-0.35673961 -0.12013183 1.534 152 156 128 255
-0.3528001 -0.12022001 1.5350001 156 160 132 255
-0.34862724 -0.12022986 1.5350001 160 164 138 255
-0.34445357 -0.12023968 1.5350001 159 162 138 255
-0.33961415 -0.12001446 1.5320001 162 165 141 255
-0.33544722 -0.12002421 1.5320001 149 154 132 255
-0.33106321 -0.11995558 1.531 158 161 139 255
-0.32711095 -0.12004362 1.5320001 156 161 139 255
-0.32273081 -0.11997489 1.531 155 160 138 255
-0.31835538 -0.11990613 1.5300001 159 164 142 255
-0.31398463 -0.11983728 1.529 158 165 143 255
-0.31002375 -0.11992517 1.5300001 158 166 141 255
-0.30565685 -0.11985623 1.529 156 162 137 255
-0.30149177 -0.11986563 1.529 156 162 136 255
-0.29693702 -0.11971817 1.5270001 153 159 133 255
-0.29277581 -0.11972743 1.5270001 153 159 133 255
-0.2886138 -0.11973663 1.5270001 154 160 135 255
-0.28482354 -0.11990262 1.529 158 164 139 255
-0.28065449 -0.11991171 1.529 157 163 138 255
-0.27630386 -0.1198423 1.5280001 158 164 139 255
-0.27195781 -0.11977279 1.5270001 152 155 131 255
-0.26779181 -0.11978166 1.5270001 149 152 128 255
-0.26362503 -0.11979043 1.5270001 150 154 128 255
-0.25945747 -0.11979912 1.5270001 146 150 122 255
-0.25528914 -0.11980774 1.5270001 146 150 122 255
-0.25112 -0.11981627 1.5270001 150 154 126 255
-0.24711183 -0.11990319 1.5280001 164 168 142 255
-0.24277942 -0.11983306 1.5270001 161 167 141 255
-0.23845173 -0.11976285 1.526 149 155 130 255
-0.23428226 -0.119771 1.526 141 147 122 255
-0.23011202 -0.11977906 1.526 154 157 133 255
-0.225941 -0.119787 1.526 154 157 133 255
-0.22176929 -0.11979487 1.526 152 156 128 255
-0.21773942 -0.11988114 1.5270001 152 156 128 255
-0.21342358 -0.11981025 1.526 136 141 110 255
-0.2093868 -0.11989632 1.5270001 141 146 115 255
-0.20520942 -0.11990374 1.5270001 149 153 125 255
-0.20116295 -0.11998958 1.5280001 146 150 122 255
-0.19711035 -0.12007531 1.529 137 141 113 255
-0.19305153 -0.12016094 1.5300001 142 147 116 255
-0.18886314 -0.1201679 1.5300001 157 162 131 255
-0.18467408 -0.12017475 1.5300001 158 161 130 255
-0.1803664 -0.12010293 1.529 156 159 127 255
-0.17617874 -0.12010952 1.529 157 160 129 255
-0.17199044 -0.12011598 1.529 154 157 126 255
-0.16791126 -0.12020088 1.5300001 153 156 125 255
-0.16382597 -0.12028565 1.531 156 159 128 255
-0.15983886 -0.12044887 1.5330001 148 153 122 255
-0.15573865 -0.12053339 1.534 150 153 122 255
-0.15173118 -0.12069637 1.536 147 152 121 255
-0.1476161 -0.12078064 1.5370001 143 146 115 255
-0.14368159 -0.12102193 1.5400001 145 148 117 255
-0.13973007 -0.12126311 1.5430001 142 145 114 255
-0.13576153 -0.12150418 1.5460001 144 144 118 255
-0.13169095 -0.12166651 1.5480001 154 154 128 255
-0.12760887 -0.1218287 1.5500001 81 68 45 255
-0.12343576 -0.12191217 1.5510001 109 81 63 255
-0.11910295 -0.12183826 1.5500001 115 83 66 255
-0.11477518 -0.1217642 1.549 116 84 67 255
-0.1105238 -0.12176859 1.549 111 79 62 255
-0.10634057 -0.12185144 1.5500001 117 83 66 255
-0.10201968 -0.1217769 1.549 112 78 63 255
-0.097830147 -0.12185945 1.5500001 111 77 60 255
-0.09357433 -0.12186322 1.5500001 108 76 61 255
-0.089606263 -0.12225994 1.5550001 108 76 61 255
-0.085555479 -0.1225779 1.559 106 76 61 255
-0.081690907 -0.12321022 1.567 101 73 55 255
-0.077732682 -0.12376379 1.5740001 100 74 56 255
-0.073875599 -0.12455313 1.5840001 102 76 58 255
-0.069963261 -0.12534231 1.5940001 96 74 58 255
-0.066036835 -0.12620999 1.605 97 77 61 255
-0.061972909 -0.12692028 1.6140001 73 57 42 255
-0.057752322 -0.12739451 1.6200001 69 54 41 255
-0.053531423 -0.1279472 1.6270001 68 53 40 255
-0.049181364 -0.12826382 1.631 61 48 35 255
-0.044726901 -0.12834436 1.6320001 60 47 34 255
-0.040217441 -0.12826742 1.631 57 46 33 255
-0.035691392 -0.12811165 1.6290001 56 45 30 255
-0.031176198 -0.1279557 1.6270001 56 45 32 255
-0.026655445 -0.12772094 1.6240001 57 46 33 255
-0.022205729 -0.12780057 1.6250001 63 50 37 255
-0.017706754 -0.12756543 1.6220001 63 48 35 255
-0.013216029 -0.12725145 1.618 74 58 43 255
-0.0087309806 -0.12670137 1.6110001 84 66 50 255
-0.0042923847 -0.12638703 1.6070001 84 64 48 255
0.00012509241 -0.12693766 1.6140001 80 60 44 255
0.0045980052 -0.12795998 1.6270001 80 60 44 255
0.009120062 -0.12866753 1.636 85 67 51 255
0.013608323 -0.12858842 1.6350001 79 63 48 255
0.018091032 -0.12850915 1.6340001 76 67 56 255
0.022637265 -0.12882291 1.6380001 85 78 67 255
0.027205387 -0.1291365 1.6420001 71 66 55 255
0.03171812 -0.12913531 1.6420001 72 67 60 255
0.036230717 -0.12913394 1.6420001 74 71 64 255
0.040743165 -0.1291324 1.6420001 72 74 66 255
0.045282993 -0.12920931 1.6430001 71 73 65 255
0.049737211 -0.12905012 1.641 74 76 66 255
0.054180223 -0.12889075 1.6390001 75 77 69 255
0.05864783 -0.12880987 1.6380001 79 80 74 255
0.063109688 -0.12872881 1.6370001 78 79 73 255
0.06760709 -0.12872618 1.6370001 79 80 74 255
0.072148263 -0.12880205 1.6380001 77 81 74 255
0.076601036 -0.12872045 1.6370001 78 82 75 255
0.081196636 -0.12887457 1.6390001 80 84 77 255
0.08575058 -0.1289499 1.6400001 79 83 76 255
0.09030968 -0.12902503 1.641 83 87 80 255
0.094758339 -0.12894274 1.6400001 83 87 80 255
0.099382699 -0.12909617 1.6420001 82 86 79 255
0.1040809 -0.12932804 1.6450001 82 86 79 255
0.10879517 -0.12955971 1.6480001 82 86 79 255
0.11338792 -0.12963396 1.649 82 86 79 255
0.11791422 -0.12962945 1.649 83 87 80 255
0.12229153 -0.12946753 1.6470001 82 86 79 255
0.12688839 -0.12954131 1.6480001 83 87 80 255
0.13172942 -0.1298507 1.6520001 82 86 79 255
0.13634445 -0.12992412 1.6530001 81 85 78 255
0.14104965 -0.13007595 1.6550001 81 85 78 255
0.14550136 -0.12999184 1.654 83 87 80 255
0.15012845 -0.13006477 1.6550001 76 82 75 255
0.15448008 -0.12990178 1.6530001 77 83 76 255
0.15891634 -0.12981723 1.6520001 80 86 79 255
0.16334651 -0.12973253 1.651 80 86 79 255
0.65317124 -0.12711827 1.6300001 97 97 95 255
0.64952505 -0.12555471 1.6100001 27 28 22 255
0.65023881 -0.12484926 1.6010001 22 23 17 255
0.65335798 -0.124612 1.598 23 25 15 255
0.65481567 -0.12406309 1.5910001 28 31 19 255
0.65872216 -0.1239823 1.59 24 27 15 255
0.66220742 -0.12382381 1.5880001 27 30 16 255
0.66694218 -0.12389948 1.5890001 27 30 16 255
0.6653471 -0.12280587 1.575 26 29 15 255
0.66452742 -0.12186849 1.5630001 24 27 13 255
0.66663921 -0.12147719 1.5580001 20 23 9 255
0.67173928 -0.12163197 1.5600001 30 33 19 255
0.6759851 -0.12163108 1.5600001 24 27 13 255
0.67718017 -0.1210847 1.5530001 24 27 13 255
0.67965496 -0.12077252 1.549 24 27 13 255
0.68255121 -0.12053861 1.5460001 24 27 13 255
0.68676531 -0.1205389 1.5460001 24 27 15 255
0.69053435 -0.12046152 1.5450001 23 26 14 255
0.69295067 -0.12015055 1.5410001 24 27 13 255
0.69579947 -0.11991784 1.5380001 25 26 12 255
0.69681323 -0.11937356 1.531 27 28 14 255
0.70282733 -0.1196873 1.5350001 25 28 14 255
0.70886528 -0.12000135 1.539 27 30 16 255
0.71539062 -0.12039373 1.544 26 31 17 255
0.71961516 -0.12039658 1.544 19 28 16 255
0.7219668 -0.12008787 1.5400001 40 49 38 255
0.72477043 -0.11985748 1.5370001 155 164 157 255
0.72755986 -0.1196274 1.534 171 180 173 255
0.7298584 -0.11931969 1.5300001 173 180 177 255
0.73165768 -0.11893434 1.5250001 178 185 184 255
0.73246706 -0.11839334 1.5180001 181 187 189 255
0.73227018 -0.11769666 1.5090001 183 189 191 255
0.73349053 -0.11723428 1.503 186 192 194 255
-0.73186368 -0.13548359 1.6790001 224 226 218 255
-0.72079456 -0.13427383 1.664 218 220 212 255
-0.71196097 -0.13346781 1.654 213 218 207 255
-0.70403874 -0.13282348 1.646 210 215 204 255
-0.69786173 -0.13250224 1.6420001 211 216 204 255
-0.69044101 -0.1319392 1.6350001 205 210 198 255
-0.68431842 -0.13161851 1.631 199 204 190 255
-0.67738521 -0.13113672 1.6250001 197 202 188 255
-0.67172825 -0.13089725 1.6220001 196 202 185 255
-0.66608882 -0.13065806 1.6190001 193 199 181 255
-0.66128415 -0.13058054 1.618 195 201 183 255
-0.65567416 -0.13034186 1.6150001 194 198 180 255
-0.65129125 -0.13034555 1.6150001 192 196 178 255
-0.64610821 -0.13018808 1.613 194 196 178 255
-0.64093697 -0.13003081 1.6110001 183 185 167 255
-0.63617265 -0.12995452 1.6100001 182 184 166 255
-0.63141447 -0.12987843 1.6090001 186 190 172 255
-0.62666267 -0.12980258 1.608 185 189 171 255
-0.62191695 -0.12972696 1.6070001 177 181 163 255
-0.61717737 -0.12965153 1.6060001 176 180 162 255
-0.61244386 -0.12957633 1.605 183 187 169 255
-0.60695863 -0.12933986 1.6020001 174 178 160 255
-0.60261881 -0.12934579 1.6020001 185 189 171 255
-0.59827936 -0.1293519 1.6020001 182 188 171 255
-0.5943113 -0.12943898 1.603 181 186 172 255
-0.58997011 -0.12944548 1.603 187 192 178 255
-0.58526409 -0.12937145 1.6020001 187 192 178 255
-0.57983845 -0.12913603 1.5990001 185 191 174 255
-0.57550925 -0.12914307 1.5990001 180 186 168 255
-0.57046586 -0.12898874 1.5970001 176 181 160 255
-0.56578809 -0.12891535 1.5960001 181 187 162 255
-0.56111592 -0.1288421 1.595 175 181 156 255
-0.55610037 -0.12868823 1.5930001 187 192 170 255
-0.55178839 -0.12869605 1.5930001 189 194 172 255
-0.54610193 -0.12838086 1.5890001 174 178 160 255
-0.54146004 -0.12830818 1.5880001 191 195 177 255
-0.53614706 -0.12807399 1.585 189 195 177 255
-0.53085041 -0.12783992 1.582 186 193 172 255
-0.52623558 -0.12776759 1.5810001 186 193 171 255
-0.52162611 -0.12769537 1.58 176 183 161 255
-0.51767695 -0.12778491 1.5810001 174 181 159 255
-0.512748 -0.1276321 1.5790001 173 179 154 255
-0.50847381 -0.12764104 1.5790001 173 179 154 255
-0.50388008 -0.12756924 1.5780001 176 182 157 255
-0.4992916 -0.12749754 1.577 158 164 139 255
-0.49470836 -0.12742594 1.5760001 178 184 159 255
-0.49013019 -0.1273544 1.575 184 190 165 255
-0.48555726 -0.12728298 1.5740001 183 188 166 255
-0.48098937 -0.12721162 1.5730001 180 185 164 255
-0.47582039 -0.12697855 1.5700001 177 184 163 255
-0.47066742 -0.12674555 1.567 187 193 175 255
-0.46582791 -0.12659349 1.5650001 188 194 176 255
-0.4615888 -0.12660326 1.5650001 182 188 170 255
-0.45734927 -0.1266131 1.5650001 171 177 159 255
-0.45224068 -0.12638025 1.562 175 181 163 255
-0.44743475 -0.12622839 1.5600001 156 162 144 255
-0.4426392 -0.12607653 1.5580001 175 181 163 255
-0.4381353 -0.12600562 1.557 153 159 141 255
-0.43363646 -0.12593476 1.5560001 159 165 147 255
-0.42914239 -0.12586392 1.5550001 184 190 172 255
-0.42437997 -0.12571216 1.5530001 180 186 168 255
-0.4196279 -0.12556043 1.5510001 175 182 161 255
-0.41515386 -0.12548967 1.5500001 179 184 163 255
-0.41068467 -0.12541889 1.549 185 190 168 255
-0.40595794 -0.12526719 1.5470001 150 155 133 255
-0.40098163 -0.12503447 1.544 177 183 158 255
-0.39679205 -0.12504472 1.544 152 158 133 255
-0.39234754 -0.12497398 1.5430001 154 159 137 255
-0.38790768 -0.12490323 1.5420001 154 159 137 255
-0.38322389 -0.12475148 1.5400001 168 173 151 255
-0.37879631 -0.12468072 1.539 162 167 145 255
-0.37437356 -0.12460995 1.5380001 153 159 134 255
-0.37019619 -0.12462019 1.5380001 165 171 146 255
-0.36578012 -0.12454938 1.5370001 156 162 136 255
-0.36160409 -0.12455961 1.5370001 161 168 139 255
-0.35719466 -0.12448875 1.536 157 164 135 255
-0.35324967 -0.12457998 1.5370001 152 159 130 255
-0.34884429 -0.12450909 1.536 156 160 132 255
-0.34466803 -0.12451924 1.536 157 161 135 255
-0.3400476 -0.1243672 1.534 168 172 146 255
-0.33565626 -0.1242962 1.5330001 152 157 135 255
-0.33148584 -0.12430622 1.5330001 157 162 140 255
-0.32752815 -0.12439732 1.534 159 164 142 255
-0.32314265 -0.12432618 1.5330001 149 154 132 255
-0.3187618 -0.12425498 1.5320001 154 159 137 255
-0.31438565 -0.12418374 1.531 160 167 145 255
-0.31021675 -0.12419353 1.531 161 168 146 255
-0.30604711 -0.1242033 1.531 154 162 137 255
-0.30167943 -0.12413187 1.5300001 156 164 139 255
-0.29731643 -0.12406037 1.529 156 164 138 255
-0.29295814 -0.1239888 1.5280001 153 159 133 255
-0.28879347 -0.12399831 1.5280001 151 157 131 255
-0.28481427 -0.1240889 1.529 151 157 131 255
-0.28064528 -0.12409827 1.529 151 157 132 255
-0.27665636 -0.12418875 1.5300001 155 161 136 255
-0.27230495 -0.12411681 1.529 159 162 138 255
-0.26795822 -0.12404478 1.5280001 161 164 140 255
-0.26361617 -0.12397265 1.5270001 146 149 125 255
-0.25944868 -0.12398162 1.5270001 148 152 126 255
-0.25528044 -0.12399051 1.5270001 145 149 121 255
-0.25144032 -0.12416173 1.529 143 149 123 255
-0.24726503 -0.12417045 1.529 147 153 127 255
-0.24293 -0.12409786 1.5280001 150 156 130 255
-0.23844339 -0.12394394 1.526 164 170 145 255
-0.234274 -0.12395235 1.526 160 165 143 255
-0.23010385 -0.12396067 1.526 149 152 128 255
-0.22608103 -0.12405012 1.5270001 150 154 128 255
-0.22176135 -0.12397698 1.526 142 146 118 255
-0.2177316 -0.12406623 1.5270001 146 151 120 255
-0.2136956 -0.12415539 1.5280001 158 163 132 255
-0.20965342 -0.12424443 1.529 153 158 127 255
-0.20520191 -0.12408957 1.5270001 138 143 112 255
-0.20115559 -0.12417839 1.5280001 154 158 130 255
-0.19684525 -0.12410453 1.5270001 145 150 119 255
-0.19291821 -0.1242744 1.529 146 151 120 255
-0.18873268 -0.12428159 1.529 154 159 128 255
-0.18454649 -0.12428866 1.529 156 159 128 255
-0.1803596 -0.12429558 1.529 159 162 130 255
-0.17617209 -0.12430238 1.529 160 161 129 255
-0.1720964 -0.12439035 1.5300001 159 159 129 255
-0.16779514 -0.12431558 1.529 159 162 131 255
-0.16371274 -0.12440331 1.5300001 158 161 130 255
-0.15951997 -0.12440957 1.5300001 150 155 124 255
-0.15542811 -0.12449701 1.531 155 158 127 255
-0.151429 -0.12466566 1.5330001 152 155 124 255
-0.14732228 -0.12475282 1.534 148 151 120 255
-0.14330281 -0.12492119 1.536 151 151 121 255
-0.13927184 -0.12508942 1.5380001 148 148 118 255
-0.13522936 -0.12525752 1.5400001 148 146 121 255
-0.13109031 -0.12534414 1.5410001 151 152 128 255
-0.12702759 -0.12551197 1.5430001 80 66 46 255
-0.12287381 -0.1255983 1.544 102 74 56 255
-0.11863721 -0.12560314 1.544 100 70 53 255
-0.11440017 -0.12560782 1.544 112 80 63 255
-0.11009131 -0.12553097 1.5430001 111 79 62 255
-0.10585611 -0.12553534 1.5430001 112 80 63 255
-0.10162047 -0.12553953 1.5430001 109 77 60 255
-0.097447552 -0.12562492 1.544 106 74 57 255
-0.093087643 -0.12546606 1.5420001 109 77 60 255
-0.088968821 -0.12563251 1.544 104 72 55 255
-0.084783778 -0.12571743 1.5450001 103 73 56 255
-0.080801412 -0.12612768 1.5500001 104 76 58 255
-0.076643109 -0.12629364 1.552 103 75 57 255
-0.072613418 -0.12670358 1.557 103 77 58 255
-0.068512075 -0.127032 1.5610001 99 73 55 255
-0.06455303 -0.12768576 1.5690001 99 75 59 255
-0.060626555 -0.12850215 1.5790001 102 73 58 255
-0.056609239 -0.12923703 1.5880001 100 76 60 255
-0.052575126 -0.13005312 1.598 85 67 52 255
-0.048365235 -0.13054352 1.6040001 93 75 59 255
-0.044039954 -0.13078959 1.6070001 88 72 57 255
-0.039624028 -0.13079132 1.6070001 69 53 38 255
-0.035164118 -0.13063009 1.605 68 52 36 255
-0.030638419 -0.13014312 1.5990001 75 59 44 255
-0.026194794 -0.12990013 1.5960001 79 63 48 255
-0.021794882 -0.12981972 1.595 90 72 56 255
-0.017411292 -0.12982054 1.595 87 69 53 255
-0.013011294 -0.1296584 1.5930001 82 60 44 255
-0.0086276541 -0.12957744 1.5920001 81 59 43 255
-0.0042548152 -0.1296591 1.5930001 87 65 49 255
0.00012446727 -0.13071731 1.6060001 85 63 47 255
0.0045836875 -0.1320195 1.6220001 90 68 52 255
0.0090973917 -0.13283315 1.6320001 85 63 47 255
0.013566154 -0.1326699 1.6300001 85 65 49 255
0.018079219 -0.1329134 1.6330001 90 63 49 255
0.022691617 -0.13364509 1.6420001 92 75 63 255
0.027353385 -0.13437657 1.651 101 88 75 255
0.031852033 -0.13421255 1.649 74 72 62 255
0.036361624 -0.13412975 1.6480001 73 73 65 255
0.040840745 -0.13396537 1.646 74 76 68 255
0.045391392 -0.13404498 1.6470001 78 80 72 255
0.049886726 -0.13396162 1.646 75 79 71 255
0.054442465 -0.13404085 1.6470001 73 77 70 255
0.058967669 -0.13403851 1.6470001 70 74 67 255
0.063531183 -0.13411736 1.6480001 67 71 64 255
0.068141222 -0.1342774 1.6500001 67 70 66 255
0.072761968 -0.13443728 1.6520001 65 69 62 255
0.077206239 -0.13427144 1.6500001 63 69 62 255
0.081688739 -0.1341868 1.649 65 71 64 255
0.086217694 -0.13418336 1.649 67 73 66 255
0.090801336 -0.13426113 1.6500001 66 72 65 255
0.095274523 -0.13417594 1.649 73 79 72 255
0.099983953 -0.13441609 1.6520001 73 79 72 255
0.10445634 -0.13433056 1.651 70 76 69 255
0.10912091 -0.13448897 1.6530001 72 78 71 255
0.11358969 -0.13440311 1.6520001 73 79 72 255
0.11805256 -0.13431707 1.651 76 82 75 255
0.65718639 -0.13147527 1.6290001 101 101 99 255
0.65510905 -0.13018025 1.613 12 13 7 255
0.65662557 -0.12961191 1.6060001 19 21 13 255
0.65728217 -0.12888244 1.5970001 16 18 8 255
0.65913379 -0.12839536 1.5910001 24 27 13 255
0.66137093 -0.12798928 1.5860001 26 29 15 255
0.66610062 -0.12806769 1.5870001 25 28 14 255
0.66534519 -0.12709728 1.575 25 28 14 255
0.66537619 -0.12628859 1.5650001 22 25 11 255
0.66749358 -0.12588367 1.5600001 22 25 11 255
0.67303008 -0.12612461 1.5630001 46 49 35 255
0.67815095 -0.12628514 1.5650001 28 31 17 255
0.67979598 -0.1258004 1.559 26 29 15 255
0.6814099 -0.12531598 1.5530001 25 28 14 255
0.68343431 -0.12491256 1.5480001 25 28 14 255
0.68676579 -0.12475154 1.5460001 24 27 13 255
0.69008815 -0.1245908 1.544 26 29 15 255
0.69250202 -0.12426902 1.5400001 26 27 13 255
0.69580084 -0.12410893 1.5380001 26 27 13 255
0.6977253 -0.12370709 1.5330001 27 28 14 255
0.70282942 -0.12387045 1.5350001 27 29 12 255
0.70840716 -0.12411485 1.5380001 29 30 16 255
0.71585679 -0.1246824 1.5450001 27 30 16 255
0.72055054 -0.12476612 1.5460001 18 27 15 255
0.72337669 -0.12452736 1.5430001 52 61 49 255
0.72524577 -0.12412757 1.5380001 161 169 161 255
0.72756398 -0.1238088 1.534 170 179 172 255
0.72986287 -0.1234904 1.5300001 175 182 179 255
0.73166251 -0.12309163 1.5250001 178 185 184 255
0.73295486 -0.1226125 1.5190001 181 187 189 255
0.73227572 -0.1218108 1.5090001 182 188 190 255
0.73349643 -0.12133232 1.503 184 190 192 255
-0.71344739 -0.1391436 1.6680001 195 199 191 255
-0.70593524 -0.1385612 1.6610001 205 209 201 255
-0.69846249 -0.13797909 1.654 201 206 195 255
-0.69186836 -0.13756412 1.649 209 214 203 255
-0.6844691 -0.13698259 1.6420001 209 214 202 255
-0.67793745 -0.13656817 1.6370001 203 208 196 255
-0.67102271 -0.13607059 1.631 193 199 182 255
-0.66536784 -0.13582355 1.628 192 198 180 255
-0.6601364 -0.13566022 1.626 186 190 172 255
-0.65532017 -0.13558057 1.6250001 190 194 176 255
-0.65010971 -0.13541773 1.623 194 198 180 255
-0.64371759 -0.1350048 1.618 191 195 177 255
-0.63853884 -0.13484246 1.6160001 189 193 175 255
-0.63297939 -0.1345969 1.613 188 192 174 255
-0.62821651 -0.13451844 1.6120001 190 194 176 255
-0.62384665 -0.13452365 1.6120001 180 184 166 255
-0.61870909 -0.13436219 1.6100001 170 174 156 255
-0.6139645 -0.13428441 1.6090001 179 183 165 255
-0.60846823 -0.13403991 1.6060001 175 181 163 255
-0.60374111 -0.13396251 1.605 182 188 170 255
-0.59901994 -0.13388534 1.6040001 181 187 170 255
