ply
format ascii 1.0
comment PCL generated
element vertex 984
property float x
property float y
property float z
property uchar red
property uchar green
property uchar blue
property uchar alpha
element camera 0
property float view_px
property float view_py
property float view_pz
property float x_axisx
property float x_axisy
property float x_axisz
property float y_axisx
property float y_axisy
property float y_axisz
property float z_axisx
property float z_axisy
property float z_axisz
property float focal
property float scalex
property float scaley
property float centerx
property float centery
property int viewportx
property int viewporty
property float k1
property float k2
end_header
0.74318415 -0.088032544 1.567 186 193 189 255
0.7431857 -0.087529756 1.5580001 187 194 191 255
0.74409992 -0.087139569 1.5510001 190 197 194 255
0.74449581 -0.086693436 1.5430001 188 195 191 255
0.74679136 -0.08647228 1.539 188 195 191 255
0.74613971 -0.085914232 1.529 189 196 193 255
0.74494517 -0.085300229 1.5180001 190 197 194 255
0.74319953 -0.084630251 1.506 189 196 193 255
-0.77026892 -0.10153419 1.7240001 243 245 235 255
-0.7615732 -0.10100393 1.715 237 242 230 255
-0.75381112 -0.10059172 1.7080001 229 237 222 255
-0.74784338 -0.10041532 1.705 219 227 210 255
-0.741458 -0.10018028 1.7010001 211 220 201 255
-0.7355293 -0.10000437 1.6980001 188 197 178 255
-0.7283271 -0.099651992 1.692 184 193 174 255
-0.72244233 -0.099476539 1.6890001 188 197 176 255
-0.71700042 -0.09936019 1.687 218 227 206 255
-0.71325999 -0.09947966 1.6890001 169 179 156 255
-0.70657307 -0.099187054 1.6840001 199 209 186 255
-0.70033145 -0.098953538 1.6800001 167 174 152 255
-0.6936987 -0.098661333 1.6750001 184 191 169 255
-0.68874007 -0.098604925 1.674 187 194 172 255
-0.683788 -0.09854871 1.6730001 185 192 170 255
-0.67924851 -0.098551609 1.6730001 189 196 175 255
-0.67390341 -0.09843687 1.6710001 190 197 176 255
-0.66857016 -0.09832231 1.669 175 182 161 255
-0.66324866 -0.098207921 1.6670001 205 214 195 255
-0.65872931 -0.098211542 1.6670001 210 219 200 255
-0.65460318 -0.098274261 1.6680001 208 218 195 255
-0.6489135 -0.098101467 1.6650001 187 195 170 255
-0.64324075 -0.097928829 1.6620001 133 140 111 255
-0.63758504 -0.097756349 1.659 130 137 106 255
-0.63385421 -0.097878642 1.6610001 137 142 110 255
-0.62973422 -0.097942166 1.6620001 137 143 108 255
-0.62636191 -0.098123744 1.6650001 145 151 116 255
-0.62222677 -0.098187596 1.6660001 143 149 114 255
-0.61808676 -0.098251604 1.6670001 146 152 117 255
-0.61320549 -0.098197877 1.6660001 143 149 114 255
-0.60906076 -0.098262176 1.6670001 135 141 106 255
-0.60418582 -0.098208718 1.6660001 139 147 104 255
-0.59931648 -0.098155402 1.6650001 140 148 103 255
-0.59481001 -0.098161146 1.6650001 140 148 105 255
-0.59136754 -0.098343909 1.6680001 144 149 117 255
-0.58790892 -0.098526806 1.6710001 145 150 119 255
-0.5833869 -0.098532945 1.6710001 143 148 117 255
-0.57886493 -0.098539211 1.6710001 161 166 135 255
-0.57434303 -0.098545581 1.6710001 145 150 118 255
-0.57050329 -0.098670021 1.6730001 140 145 113 255
-0.56631428 -0.098735586 1.674 141 147 112 255
-0.56178439 -0.098742291 1.674 150 154 118 255
-0.55725431 -0.098749086 1.674 143 147 111 255
-0.55305445 -0.098814987 1.6750001 141 147 112 255
-0.54950392 -0.098998979 1.6780001 150 156 121 255
-0.54561234 -0.099124089 1.6800001 151 157 121 255
-0.5417096 -0.099249296 1.682 135 141 105 255
-0.53715724 -0.09925659 1.682 142 148 112 255
-0.53292125 -0.099322975 1.6830001 132 138 102 255
-0.52867961 -0.099389449 1.6840001 135 141 105 255
-0.52474338 -0.099515028 1.6860001 168 172 136 255
-0.52017903 -0.099522635 1.6860001 173 179 144 255
-0.51561427 -0.099530317 1.6860001 176 182 147 255
-0.51044297 -0.099419981 1.6840001 164 168 133 255
-0.50528204 -0.099309683 1.682 138 144 109 255
-0.49953616 -0.099081345 1.6780001 138 143 111 255
-0.49469644 -0.099030182 1.677 138 142 107 255
-0.490154 -0.099038109 1.677 140 144 109 255
-0.48590058 -0.099105142 1.6780001 140 144 109 255
-0.48106751 -0.099054106 1.677 141 144 112 255
-0.47595522 -0.098944038 1.6750001 141 144 112 255
-0.47169754 -0.099011213 1.6760001 140 144 108 255
-0.46799132 -0.099196598 1.6790001 137 141 106 255
-0.46399215 -0.099322952 1.6810001 137 141 106 255
-0.4599815 -0.099449359 1.6830001 138 142 107 255
-0.45541835 -0.099457636 1.6830001 140 144 108 255
-0.45139015 -0.099584125 1.6850001 138 145 106 255
-0.44735056 -0.099710658 1.687 130 137 97 255
-0.44382426 -0.099955454 1.6910001 127 135 92 255
-0.43975607 -0.10008207 1.6930001 124 132 89 255
-0.43490523 -0.10003136 1.692 125 132 93 255
-0.43005913 -0.09998066 1.6910001 125 131 95 255
-0.4252176 -0.099929944 1.6900001 126 132 97 255
-0.42062974 -0.09993837 1.6900001 130 136 101 255
-0.41579485 -0.099887654 1.6890001 131 137 102 255
-0.41096467 -0.099836931 1.6880001 132 138 103 255
-0.40613911 -0.099786185 1.687 135 141 106 255
-0.40155616 -0.099794582 1.687 132 139 108 255
-0.39767843 -0.099980451 1.6900001 136 145 114 255
-0.39262053 -0.09987051 1.6880001 163 172 141 255
-0.38665316 -0.099523857 1.682 182 191 160 255
-0.38026324 -0.09905877 1.674 159 168 137 255
-0.37481382 -0.09883032 1.6700001 142 152 119 255
-0.37049386 -0.098897725 1.6710001 143 152 113 255
-0.3668246 -0.099142678 1.6750001 142 149 109 255
-0.36313272 -0.099387653 1.6790001 134 142 99 255
-0.35920462 -0.099573418 1.682 88 94 49 255
-0.35441598 -0.099522375 1.6810001 99 105 60 255
-0.3494238 -0.099412084 1.6790001 105 110 70 255
-0.34464702 -0.099360943 1.6780001 131 135 97 255
-0.33987483 -0.09930975 1.677 132 138 103 255
-0.33510718 -0.099258512 1.6760001 133 139 104 255
-0.33054128 -0.09926644 1.6760001 136 144 109 255
-0.32597449 -0.099274322 1.6760001 137 144 112 255
-0.32159859 -0.099341385 1.677 136 143 112 255
-0.3172164 -0.099408418 1.6780001 121 125 99 255
-0.3128278 -0.099475391 1.6790001 19 20 0 255
-0.30824926 -0.099483073 1.6790001 31 29 11 255
-0.30385074 -0.099549949 1.6800001 33 31 13 255
-0.29908958 -0.099498257 1.6790001 34 32 14 255
-0.2948592 -0.099624284 1.6810001 36 33 17 255
-0.29027164 -0.099631712 1.6810001 62 63 51 255
-0.28551328 -0.099579811 1.6800001 108 110 100 255
-0.27992338 -0.099231429 1.674 100 104 96 255
-0.27420092 -0.098823652 1.6670001 93 99 92 255
-0.26900107 -0.098593593 1.6630001 91 97 90 255
-0.26414028 -0.098482005 1.6610001 93 99 91 255
-0.25928953 -0.098370321 1.659 93 99 91 255
-0.25444889 -0.098258547 1.6570001 83 92 81 255
-0.24961831 -0.098146677 1.6550001 80 89 78 255
-0.24509405 -0.098153315 1.6550001 76 84 76 255
-0.24071434 -0.098219186 1.6560001 78 86 78 255
-0.2359004 -0.098107003 1.654 112 120 112 255
-0.23067696 -0.09781678 1.649 93 99 91 255
-0.22589156 -0.097704396 1.6470001 79 86 75 255
-0.22138515 -0.097710565 1.6470001 82 89 77 255
-0.21700963 -0.097775951 1.6480001 79 87 72 255
-0.2124989 -0.097781919 1.6480001 76 83 71 255
-0.20786121 -0.097728454 1.6470001 64 71 59 255
-0.20322825 -0.097674884 1.646 85 92 81 255
-0.19860004 -0.097621202 1.6450001 65 74 63 255
-0.19397655 -0.097567409 1.6440001 64 73 62 255
-0.18947309 -0.097572856 1.6440001 78 87 76 255
-0.18496892 -0.09757819 1.6440001 83 90 79 255
-0.18046406 -0.097583435 1.6440001 82 89 77 255
-0.17585148 -0.097529203 1.6430001 86 91 80 255
-0.17134804 -0.097534217 1.6430001 91 96 85 255
-0.16694543 -0.097598463 1.6440001 74 79 67 255
-0.16283315 -0.097840749 1.6480001 77 82 70 255
-0.15917863 -0.098379776 1.6570001 73 78 64 255
-0.15538079 -0.09885937 1.6650001 68 74 57 255
-0.15072323 -0.098804474 1.664 64 69 55 255
-0.14589493 -0.098630719 1.6610001 56 61 47 255
-0.1410825 -0.098456807 1.6580001 59 62 48 255
-0.13653301 -0.098460928 1.6580001 64 69 57 255
-0.13198297 -0.098464914 1.6580001 70 75 63 255
-0.12735555 -0.098409392 1.6570001 68 73 61 255
-0.12280721 -0.098413125 1.6570001 68 73 61 255
-0.11811564 -0.098297946 1.6550001 67 74 62 255
-0.11364045 -0.098360822 1.6560001 71 78 66 255
-0.10915929 -0.098423578 1.6570001 70 75 63 255
-0.1046722 -0.0984862 1.6580001 64 69 58 255
-0.10005841 -0.098429888 1.6570001 67 72 61 255
-0.095507324 -0.098432846 1.6570001 75 80 69 255
-0.091065638 -0.098554485 1.659 76 81 69 255
-0.08661259 -0.098676004 1.6610001 67 72 60 255
-0.082098797 -0.098737985 1.6620001 68 73 61 255
-0.077392548 -0.098562181 1.659 65 70 58 255
-0.072790287 -0.098505072 1.6580001 71 76 64 255
-0.068193197 -0.098447807 1.6570001 78 83 72 255
-0.063639723 -0.098449826 1.6570001 78 83 72 255
-0.059050336 -0.098392308 1.6560001 76 80 72 255
-0.054499093 -0.098394051 1.6560001 76 80 72 255
-0.049947619 -0.098395661 1.6560001 76 80 72 255
-0.045368519 -0.098337702 1.6550001 77 81 73 255
-0.040770058 -0.098220192 1.6530001 74 80 72 255
-0.036226254 -0.098221384 1.6530001 71 78 67 255
-0.031643957 -0.098103575 1.651 66 73 62 255
-0.027138196 -0.098223336 1.6530001 70 77 66 255
-0.022552976 -0.098045833 1.6500001 50 57 46 255
-0.018005993 -0.097987041 1.649 93 97 89 255
-0.013456265 -0.097868688 1.6470001 68 74 66 255
-0.0089391544 -0.097987875 1.649 70 75 64 255
-0.0044056685 -0.097988084 1.649 70 75 64 255
0.00012783697 -0.097988151 1.649 71 76 65 255
0.0046585151 -0.097928651 1.6480001 71 76 64 255
0.0091892509 -0.097928442 1.6480001 74 79 68 255
0.013719948 -0.097928092 1.6480001 72 77 66 255
0.018283809 -0.098105848 1.651 73 78 66 255
0.022808792 -0.098045796 1.6500001 71 76 64 255
0.027328178 -0.097985603 1.649 72 77 65 255
0.031841949 -0.097925268 1.6480001 71 74 62 255
0.0364163 -0.098043054 1.6500001 70 75 64 255
0.041001488 -0.098160699 1.6520001 68 73 62 255
0.045542363 -0.098159365 1.6520001 71 76 65 255
0.050113361 -0.098217316 1.6530001 68 73 62 255
0.054722704 -0.098334536 1.6550001 69 74 63 255
0.059306994 -0.098392203 1.6560001 68 73 62 255
0.063857973 -0.098390311 1.6560001 66 71 59 255
0.068408675 -0.098388284 1.6560001 67 72 61 255
0.073003158 -0.098445535 1.6570001 68 73 62 255
0.077602819 -0.098502643 1.6580001 71 73 63 255
0.082108542 -0.098440796 1.6570001 70 75 64 255
0.086660735 -0.098438226 1.6570001 66 70 62 255
0.091267608 -0.098494925 1.6580001 66 70 62 255
0.095821798 -0.098492093 1.6580001 64 70 63 255
0.10031506 -0.098429717 1.6570001 69 77 70 255
0.10492899 -0.098486021 1.6580001 81 89 82 255
0.10941589 -0.098423384 1.6570001 91 98 94 255
0.11369053 -0.09818244 1.6530001 88 95 91 255
0.11822885 -0.09817896 1.6530001 84 92 85 255
0.12276666 -0.098175347 1.6530001 77 83 76 255
0.12714997 -0.098052837 1.651 74 80 73 255
0.13136224 -0.097811423 1.6470001 75 79 72 255
0.13571706 -0.097688697 1.6450001 75 79 72 255
0.14006037 -0.09756583 1.6430001 73 79 72 255
0.14474407 -0.097680382 1.6450001 77 83 76 255
0.14961965 -0.097913563 1.649 72 78 70 255
0.15489051 -0.098384112 1.6570001 68 74 66 255
0.15943488 -0.098379508 1.6570001 64 70 62 255
0.16378073 -0.098256059 1.6550001 62 68 60 255
0.16770813 -0.097895034 1.649 72 78 70 255
0.17212425 -0.09783075 1.6480001 72 78 70 255
0.17674854 -0.097885072 1.649 77 83 75 255
0.18225712 -0.098414145 1.6580001 78 84 76 255
0.18725097 -0.098646276 1.6620001 65 71 63 255
0.19145818 -0.098462813 1.659 61 67 59 255
0.19541197 -0.098160572 1.654 77 85 77 255
0.1995794 -0.097976945 1.651 55 63 56 255
0.20434779 -0.098089948 1.6530001 86 94 87 255
0.20887369 -0.098084159 1.6530001 78 86 79 255
0.21417339 -0.098434262 1.659 71 79 72 255
0.21871415 -0.098428242 1.659 62 70 62 255
0.22325419 -0.098422125 1.659 72 78 70 255
0.22710685 -0.098119311 1.654 79 85 77 255
0.23177163 -0.098172337 1.6550001 85 91 84 255
0.23586997 -0.097988017 1.6520001 62 68 61 255
0.24024211 -0.097922243 1.651 63 69 62 255
0.24431153 -0.097737797 1.6480001 103 109 102 255
0.24926953 -0.097909085 1.651 78 84 77 255
0.25424311 -0.098080263 1.654 75 81 74 255
0.25907585 -0.098192066 1.6560001 75 81 74 255
0.26344112 -0.098125882 1.6550001 58 64 57 255
0.26763812 -0.098000325 1.6530001 78 84 77 255
0.27198803 -0.097934023 1.6520001 75 83 76 255
0.27616423 -0.097808369 1.6500001 67 73 66 255
0.28032866 -0.097682647 1.6480001 97 103 96 255
0.28448129 -0.097556882 1.646 72 78 71 255
0.28897324 -0.097549587 1.646 86 92 85 255
0.29453409 -0.097897798 1.6520001 93 99 92 255
0.29976478 -0.098127395 1.6560001 67 73 66 255
0.30391392 -0.098001368 1.654 65 71 64 255
0.30655947 -0.097401336 1.6440001 78 84 77 255
0.31085247 -0.097334512 1.6430001 80 86 79 255
0.31513906 -0.097267643 1.6420001 95 101 94 255
0.31922472 -0.097141497 1.6400001 74 80 72 255
0.3232986 -0.097015336 1.6380001 86 92 85 255
0.32896149 -0.097362913 1.6440001 89 95 88 255
0.33526465 -0.09788806 1.6530001 78 84 77 255
0.34017721 -0.097998574 1.6550001 68 74 67 255
0.34343359 -0.097635359 1.649 82 88 81 255
0.34644538 -0.097212963 1.6420001 85 91 84 255
0.34984574 -0.096909001 1.6370001 76 84 77 255
0.35408375 -0.096841834 1.636 86 94 87 255
0.35941121 -0.097070597 1.6400001 87 95 88 255
0.36475956 -0.097299278 1.6440001 77 85 77 255
0.36967969 -0.097409554 1.646 80 88 80 255
0.37347329 -0.0972239 1.6430001 78 86 78 255
0.37793985 -0.097215772 1.6430001 79 87 79 255
0.38170734 -0.097030133 1.6400001 77 85 77 255
0.38663504 -0.097140312 1.6420001 80 86 78 255
0.39157277 -0.097250447 1.6440001 82 88 80 255
0.39772516 -0.097656317 1.651 82 88 80 255
0.40342754 -0.097943828 1.6560001 85 91 83 255
0.40841725 -0.098053843 1.6580001 82 88 80 255
0.41316804 -0.098104715 1.659 84 90 83 255
0.41867879 -0.098332971 1.6630001 82 88 81 255
0.42421049 -0.098561183 1.6670001 81 87 79 255
0.42899165 -0.09861201 1.6680001 80 86 78 255
0.43299782 -0.0984855 1.6660001 78 84 76 255
0.4367297 -0.098299898 1.6630001 79 85 77 255
0.4409754 -0.098232567 1.6620001 77 83 75 255
0.44521493 -0.098165259 1.6610001 74 80 72 255
0.44971913 -0.098157071 1.6610001 75 81 73 255
0.45449618 -0.098208003 1.6620001 75 82 71 255
0.45927799 -0.098258957 1.6630001 78 85 74 255
0.46378574 -0.098250844 1.6630001 78 85 74 255
0.46829301 -0.098242775 1.6630001 80 87 76 255
0.47251523 -0.09817566 1.6620001 80 86 78 255
0.47730562 -0.098226741 1.6630001 81 87 80 255
0.48181114 -0.098218784 1.6630001 81 87 80 255
0.48660856 -0.098269925 1.664 80 88 81 255
0.49082068 -0.098203011 1.6630001 76 84 76 255
0.49502689 -0.098136157 1.6620001 72 80 72 255
0.49772447 -0.097774155 1.6560001 69 77 69 255
0.50069231 -0.097471297 1.651 69 77 69 255
0.50424474 -0.097286619 1.6480001 67 75 67 255
0.50963253 -0.097456194 1.651 109 117 110 255
0.51441354 -0.097507782 1.6520001 159 167 160 255
0.51951379 -0.097618431 1.654 177 185 178 255
0.67119706 -0.10905496 1.8500001 172 178 171 255
0.67839789 -0.10940254 1.8560001 172 178 171 255
0.68563157 -0.10975023 1.8620001 172 178 171 255
0.70916528 -0.11186046 1.8980001 169 177 170 255
0.71994996 -0.11273886 1.9130001 171 179 172 255
0.72967947 -0.11344054 1.9250001 168 176 169 255
0.73298442 -0.11314058 1.9200001 170 178 171 255
0.73472536 -0.11260513 1.9110001 168 176 169 255
0.73448229 -0.1117753 1.8970001 166 174 167 255
0.73650336 -0.11129924 1.8890001 166 172 165 255
0.73730433 -0.11064667 1.8780001 167 173 166 255
0.73725581 -0.10987651 1.8650001 166 172 165 255
0.73673975 -0.10904769 1.8510001 164 170 163 255
0.73695022 -0.10833695 1.8390001 163 169 162 255
0.738307 -0.1078032 1.83 157 163 156 255
0.73961604 -0.10726967 1.8210001 155 163 155 255
0.73883295 -0.10644186 1.807 152 160 152 255
0.73921001 -0.10579103 1.7960001 147 155 147 255
0.73994267 -0.10519934 1.7860001 148 154 146 255
0.74062246 -0.10460792 1.7760001 144 151 140 255
0.7412492 -0.10401671 1.766 141 148 137 255
0.74224555 -0.10348466 1.7570001 137 146 135 255
0.74234396 -0.10283506 1.7460001 138 147 136 255
0.74110055 -0.10200901 1.7320001 136 145 134 255
0.74064362 -0.10130102 1.72 140 148 140 255
0.74142313 -0.10076996 1.7110001 143 151 143 255
0.74302733 -0.10035693 1.7040001 146 154 147 255
0.74240124 -0.099649668 1.692 149 157 150 255
0.74171162 -0.098942667 1.6800001 150 158 151 255
0.74095839 -0.098235898 1.6680001 153 161 154 255
0.74192947 -0.097764961 1.6600001 153 161 154 255
0.74285883 -0.097294264 1.6520001 154 162 155 255
0.74329406 -0.096764922 1.6430001 157 165 158 255
0.74186182 -0.096000247 1.6300001 162 170 163 255
0.74036062 -0.095235795 1.6170001 167 175 168 255
0.74063289 -0.094707184 1.608 173 181 174 255
0.74224812 -0.094355509 1.6020001 177 184 180 255
0.74243456 -0.093827382 1.5930001 179 186 182 255
0.74116784 -0.093122803 1.5810001 184 191 187 255
0.7412523 -0.092595153 1.572 186 193 189 255
0.74318695 -0.092303373 1.567 185 192 188 255
0.7436657 -0.091835126 1.559 188 195 191 255
0.74362338 -0.091308229 1.5500001 188 195 191 255
0.74208683 -0.090604834 1.5380001 188 195 191 255
0.74436897 -0.090372965 1.534 187 194 190 255
0.74419188 -0.089846797 1.5250001 189 196 192 255
0.74445879 -0.089379765 1.5170001 188 195 192 255
0.74271065 -0.088677309 1.5050001 189 196 193 255
-0.77339679 -0.10666315 1.7310001 245 247 237 255
-0.76157326 -0.10567698 1.715 238 243 231 255
-0.75381094 -0.10524566 1.7080001 209 214 200 255
-0.74784303 -0.10506108 1.705 193 201 184 255
-0.74189323 -0.10487673 1.702 217 225 208 255
-0.73509514 -0.10456941 1.697 200 209 190 255
-0.72832596 -0.10426232 1.692 182 191 172 255
-0.72286862 -0.10414033 1.6900001 180 189 170 255
-0.71699882 -0.10395695 1.687 193 202 183 255
-0.71199131 -0.10389704 1.6860001 203 212 191 255
-0.70615149 -0.10371411 1.6830001 212 221 202 255
-0.70074612 -0.10359301 1.6810001 167 178 157 255
-0.69411039 -0.10328726 1.6760001 161 170 149 255
-0.688326 -0.10310495 1.6730001 176 186 163 255
-0.68337637 -0.1030461 1.6720001 156 163 141 255
-0.67843348 -0.10298747 1.6710001 188 195 173 255
-0.67430341 -0.10305227 1.6720001 192 199 177 255
-0.66896725 -0.10293238 1.6700001 154 161 139 255
-0.66324508 -0.10275104 1.6670001 172 179 158 255
-0.65833032 -0.10269316 1.6660001 188 195 174 255
-0.65381432 -0.1026971 1.6660001 192 202 179 255
-0.64929909 -0.10270121 1.6660001 215 225 200 255
-0.64362353 -0.10252056 1.6630001 124 132 106 255
-0.63758057 -0.10227842 1.659 134 143 114 255
-0.63346803 -0.10234469 1.6600001 134 139 108 255
-0.6293506 -0.10241113 1.6610001 134 139 107 255
-0.62598073 -0.10260105 1.664 130 136 101 255
-0.62184817 -0.10266783 1.6650001 131 136 104 255
-0.61733991 -0.1026731 1.6650001 137 142 110 255
-0.61320019 -0.1027402 1.6660001 143 147 112 255
-0.60905528 -0.10280742 1.6670001 142 146 110 255
-0.60454279 -0.10281315 1.6670001 138 142 106 255
-0.60003054 -0.102819 1.6670001 142 146 108 255
-0.59516138 -0.10276332 1.6660001 141 145 107 255
-0.59136152 -0.10289282 1.6680001 142 146 108 255
-0.58719903 -0.10296076 1.669 139 143 107 255
-0.58303142 -0.10302885 1.6700001 141 145 110 255
-0.57885849 -0.10309706 1.6710001 141 144 112 255
-0.57468015 -0.1031654 1.6720001 137 142 110 255
-0.57049662 -0.10323386 1.6730001 139 144 112 255
-0.56596923 -0.10324074 1.6730001 144 149 117 255
-0.56177747 -0.10330942 1.674 146 152 117 255
-0.55758023 -0.10337823 1.6750001 140 146 111 255
-0.55337751 -0.10344715 1.6760001 146 152 116 255
-0.5491693 -0.10351618 1.677 133 137 101 255
-0.54528022 -0.10364703 1.6790001 138 142 104 255
-0.54138017 -0.103778 1.6810001 138 142 104 255
-0.53714973 -0.10384733 1.682 150 154 116 255
-0.53291368 -0.10391676 1.6830001 136 140 102 255
-0.5289858 -0.10404802 1.6850001 141 145 107 255
-0.52473563 -0.10411764 1.6860001 131 135 97 255
-0.52078819 -0.10424909 1.6880001 124 128 90 255
-0.51621807 -0.10425711 1.6880001 131 135 97 255
-0.51164746 -0.1042652 1.6880001 165 169 131 255
-0.5070765 -0.10427334 1.6880001 169 173 135 255
-0.5022074 -0.10421977 1.687 165 169 133 255
-0.49704823 -0.10410447 1.6850001 139 143 107 255
-0.49219182 -0.10405099 1.6840001 143 147 111 255
-0.48676109 -0.10387397 1.6810001 142 146 110 255
-0.48191985 -0.10382056 1.6800001 139 143 108 255
-0.47651526 -0.10364359 1.677 140 144 109 255
-0.47253352 -0.10377566 1.6790001 138 142 107 255
-0.46826166 -0.10384597 1.6800001 137 141 106 255
-0.4645358 -0.10403998 1.6830001 137 140 108 255
-0.45997313 -0.10404857 1.6830001 133 136 104 255
-0.45568049 -0.10411903 1.6840001 135 139 104 255
-0.45164958 -0.10425135 1.6860001 144 148 110 255
-0.44760719 -0.10438371 1.6880001 135 140 100 255
-0.44381568 -0.10457796 1.6910001 130 136 91 255
-0.4394877 -0.10464856 1.692 130 136 91 255
-0.43515369 -0.10471919 1.6930001 129 134 94 255
-0.43055913 -0.10472798 1.6930001 129 136 97 255
-0.4257122 -0.10467491 1.692 130 136 100 255
-0.42087001 -0.10462184 1.6910001 132 138 103 255
-0.41603243 -0.10456876 1.6900001 134 140 105 255
-0.411443 -0.10457755 1.6900001 134 139 107 255
-0.40685275 -0.10458633 1.6900001 133 139 104 255
-0.40202367 -0.10453322 1.6890001 130 137 105 255
-0.39766985 -0.10460388 1.6900001 131 140 109 255
-0.39284456 -0.10455073 1.6890001 146 155 124 255
-0.38710442 -0.10424995 1.6840001 179 188 157 255
-0.38048196 -0.10370143 1.6750001 165 174 143 255
-0.37480539 -0.10340048 1.6700001 152 161 130 255
-0.37048545 -0.10347097 1.6710001 144 152 116 255
-0.36681616 -0.10372723 1.6750001 137 144 105 255
-0.36334062 -0.10404544 1.6800001 128 135 95 255
-0.35940981 -0.10423979 1.6830001 84 89 47 255
-0.35482934 -0.10424832 1.6830001 105 111 66 255
-0.34983176 -0.10413291 1.6810001 110 115 75 255
-0.34525496 -0.10414133 1.6810001 132 137 97 255
-0.34027198 -0.10402582 1.6790001 134 140 104 255
-0.33549893 -0.1039722 1.6780001 135 141 106 255
-0.33073041 -0.10391852 1.677 135 140 108 255
-0.32635546 -0.10398872 1.6780001 134 141 109 255
-0.32197419 -0.10405888 1.6790001 135 142 111 255
-0.31777558 -0.10419098 1.6810001 134 138 112 255
-0.31337884 -0.10426104 1.682 19 20 0 255
-0.3087922 -0.10426908 1.682 31 29 9 255
-0.3042047 -0.10427704 1.682 33 31 13 255
-0.29961628 -0.10428495 1.682 33 31 13 255
-0.29537776 -0.1044168 1.6840001 35 33 15 255
-0.29112744 -0.1045486 1.6860001 25 22 6 255
-0.2863555 -0.10449429 1.6850001 110 113 99 255
-0.28075209 -0.10412982 1.6790001 100 105 94 255
-0.27485156 -0.10364116 1.6710001 89 95 87 255
-0.2699644 -0.10352453 1.669 90 96 89 255
-0.26476926 -0.10328373 1.6650001 91 97 89 255
-0.25975138 -0.10310485 1.6620001 92 98 90 255
-0.25474906 -0.10292584 1.659 82 89 78 255
-0.25006396 -0.10287084 1.6580001 80 87 76 255
-0.24523538 -0.10275368 1.6560001 73 82 71 255
-0.24070765 -0.10276053 1.6560001 73 81 73 255
-0.23617913 -0.10276729 1.6560001 112 121 110 255
-0.23123008 -0.10258775 1.6530001 95 102 91 255
-0.22615953 -0.10234605 1.649 82 89 78 255
-0.22164774 -0.10235249 1.649 79 86 74 255
-0.21713513 -0.10235882 1.649 77 85 70 255
-0.21275075 -0.10242713 1.6500001 76 83 71 255
-0.20823388 -0.10243328 1.6500001 67 76 64 255
-0.20346934 -0.10231513 1.6480001 61 70 58 255
-0.19883576 -0.10225897 1.6470001 66 75 63 255
-0.19408894 -0.10214059 1.6450001 62 71 60 255
-0.18958284 -0.10214628 1.6450001 73 82 71 255
-0.18496351 -0.10208976 1.6440001 79 88 77 255
-0.18045877 -0.10209523 1.6440001 82 89 78 255
-0.17595334 -0.10210057 1.6440001 83 90 79 255
-0.17144723 -0.1021058 1.6440001 83 90 79 255
-0.16714357 -0.10223514 1.646 75 80 68 255
-0.16312471 -0.10255073 1.651 73 78 66 255
-0.15946206 -0.10311468 1.6600001 72 75 63 255
-0.15546945 -0.10349221 1.6660001 67 70 56 255
-0.15071872 -0.10337265 1.664 65 66 52 255
-0.14589053 -0.10319085 1.6610001 58 62 45 255
-0.14107822 -0.10300889 1.6580001 64 68 51 255
-0.13652886 -0.10301318 1.6580001 66 71 59 255
-0.13197897 -0.10301735 1.6580001 69 74 62 255
-0.12742852 -0.10302138 1.6580001 71 78 66 255
-0.12272935 -0.10290102 1.6560001 68 75 63 255
-0.11811201 -0.10284263 1.6550001 67 74 62 255
-0.11363696 -0.10290842 1.6560001 67 74 62 255
-0.10915592 -0.10297405 1.6570001 67 74 62 255
-0.10466897 -0.10303957 1.6580001 62 69 57 255
-0.099994928 -0.10291851 1.6560001 66 73 61 255
-0.095446736 -0.1029216 1.6560001 73 80 68 255
-0.091062814 -0.103111 1.659 77 84 72 255
-0.086609893 -0.10323813 1.6610001 64 69 57 255
-0.082096234 -0.10330296 1.6620001 63 68 56 255
-0.077390134 -0.10311904 1.659 70 75 64 255
-0.072744109 -0.10299711 1.6570001 69 74 63 255
-0.068149909 -0.10293721 1.6560001 79 84 73 255
-0.063599326 -0.10293932 1.6560001 81 86 75 255
-0.059012819 -0.10287911 1.6550001 73 77 69 255
-0.054431558 -0.10281877 1.654 77 82 71 255
-0.049885724 -0.10282045 1.654 76 81 70 255
-0.045339677 -0.10282198 1.654 70 75 64 255
-0.040768776 -0.1027612 1.6530001 67 74 62 255
-0.03622511 -0.10276244 1.6530001 69 74 62 255
-0.031662125 -0.10270136 1.6520001 59 66 55 255
-0.027120924 -0.10270231 1.6520001 62 69 58 255
-0.022538595 -0.1025166 1.649 74 81 70 255
-0.017994508 -0.10245509 1.6480001 78 84 76 255
-0.013455838 -0.10239342 1.6470001 69 76 65 255
-0.008933452 -0.10245597 1.6480001 68 75 64 255
-0.0044055292 -0.10251835 1.649 68 75 64 255
0.00012775541 -0.10245624 1.6480001 68 75 63 255
0.004658368 -0.10245617 1.6480001 72 77 65 255
0.0091945361 -0.10251812 1.649 71 76 64 255
0.013719514 -0.10245557 1.6480001 70 75 63 255
0.018250009 -0.10245506 1.6480001 73 78 66 255
0.022780426 -0.10245439 1.6480001 71 74 62 255
0.027310744 -0.1024536 1.6480001 71 76 64 255
0.031840947 -0.10245264 1.6480001 73 78 66 255
0.036393084 -0.10251371 1.649 71 76 64 255
0.040950563 -0.10257462 1.6500001 69 74 63 255
0.045458227 -0.10251107 1.649 69 74 62 255
0.050051149 -0.10263386 1.651 71 76 64 255
0.054621793 -0.10269435 1.6520001 70 75 63 255
0.059233509 -0.10281684 1.654 68 73 61 255
0.063778847 -0.10281488 1.654 66 71 57 255
0.068365224 -0.10287492 1.6550001 66 71 59 255
0.072868697 -0.1028105 1.654 65 70 58 255
0.077413186 -0.10280812 1.654 69 72 60 255
0.081907779 -0.10274341 1.6530001 64 69 58 255
0.086448848 -0.10274074 1.6530001 64 68 60 255
0.091044597 -0.10280008 1.654 63 67 59 255
0.095645458 -0.10285927 1.6550001 68 74 67 255
0.10019087 -0.10285617 1.6550001 79 85 78 255
0.1046726 -0.10279079 1.654 94 100 93 255
0.10895031 -0.10253884 1.6500001 90 96 89 255
0.11334316 -0.10241107 1.6480001 86 92 85 255
0.11786761 -0.10240745 1.6480001 77 83 75 255
0.12268864 -0.10265224 1.6520001 72 79 68 255
0.1271461 -0.10258621 1.651 70 77 66 255
0.13135825 -0.10233365 1.6470001 73 77 69 255
0.13554795 -0.10208098 1.6430001 69 73 65 255
0.13988563 -0.10195246 1.641 75 81 74 255
0.14438774 -0.10194807 1.641 83 89 82 255
0.14925225 -0.10219206 1.6450001 70 76 69 255
0.15432502 -0.10256013 1.651 70 76 69 255
0.15904526 -0.10267959 1.6530001 61 67 60 255
0.16357794 -0.10267469 1.6530001 61 67 60 255
0.16749978 -0.10229698 1.6470001 69 75 68 255
0.17180581 -0.10216762 1.6450001 67 73 66 255
0.17631462 -0.10216238 1.6450001 76 82 74 255
0.18137236 -0.10246753 1.6500001 84 90 82 255
0.18634418 -0.10271043 1.654 66 72 64 255
0.19076021 -0.10264272 1.6530001 61 67 59 255
0.19505186 -0.10251281 1.651 79 85 77 255
0.199211 -0.10232072 1.6480001 57 65 57 255
0.20372385 -0.1023148 1.6480001 79 87 80 255
0.2079832 -0.10218459 1.646 88 96 89 255
0.21326363 -0.10255093 1.6520001 78 86 79 255
0.21778515 -0.10254469 1.6520001 65 73 65 255
0.22217134 -0.10247625 1.651 66 72 64 255
0.22586477 -0.10209741 1.6450001 88 94 86 255
0.23050481 -0.10215295 1.646 80 86 79 255
0.23472123 -0.10202222 1.6440001 57 63 56 255
0.23921694 -0.10201551 1.6440001 71 77 70 255
0.24311885 -0.10176052 1.6400001 101 107 100 255
0.24790393 -0.10187773 1.6420001 86 92 84 255
0.25269911 -0.10199485 1.6440001 71 77 69 255
0.2575044 -0.10211186 1.646 69 75 67 255
0.26152393 -0.10191862 1.6430001 69 75 67 255
0.26601192 -0.1019114 1.6430001 79 85 77 255
0.27066368 -0.10196611 1.6440001 77 85 78 255
0.27515271 -0.10195874 1.6440001 63 69 62 255
0.27913058 -0.10176523 1.641 100 106 99 255
0.28309125 -0.10157169 1.6380001 70 76 69 255
0.2872102 -0.10144011 1.636 72 78 71 255
0.29256538 -0.1017425 1.641 103 109 102 255
0.29740396 -0.10185878 1.6430001 72 78 71 255
0.30170131 -0.10178899 1.6420001 68 74 67 255
0.30487359 -0.10134725 1.6350001 79 85 77 255
0.3091419 -0.1012774 1.6340001 77 83 75 255
0.31378782 -0.10133146 1.6350001 91 97 89 255
0.31804898 -0.1012615 1.6340001 75 81 73 255
0.3219091 -0.10106758 1.631 83 89 81 255
0.32675251 -0.10118346 1.6330001 89 95 87 255
0.33241716 -0.10154708 1.6390001 78 84 76 255
0.33749706 -0.10172474 1.6420001 72 78 70 255
0.34092629 -0.10140678 1.6370001 75 81 73 255
0.34432745 -0.10108881 1.6320001 84 90 82 255
0.34812793 -0.10089473 1.6290001 76 82 74 255
0.35212776 -0.10076259 1.6270001 75 83 75 255
0.35699233 -0.10087813 1.6290001 87 95 87 255
0.36186704 -0.10099364 1.631 71 79 71 255
0.36675179 -0.1011091 1.6330001 75 83 75 255
0.37073731 -0.10097686 1.631 76 84 76 255
0.37540126 -0.10103035 1.6320001 79 87 79 255
0.37937161 -0.10089811 1.6300001 79 85 77 255
0.38333023 -0.10076586 1.628 80 87 76 255
0.3875154 -0.10069553 1.6270001 81 88 77 255
0.392658 -0.10087273 1.6300001 80 84 76 255
0.39781609 -0.1010499 1.6330001 78 84 76 255
0.40274331 -0.10116516 1.6350001 81 87 79 255
0.40817875 -0.10140412 1.6390001 82 88 80 255
0.41363525 -0.10164307 1.6430001 87 93 85 255
0.41987601 -0.10206754 1.6500001 82 88 80 255
0.42538258 -0.1023064 1.654 81 87 79 255
0.43039039 -0.10242152 1.6560001 79 86 75 255
0.43514565 -0.10247479 1.6570001 77 86 75 255
0.43990567 -0.10252807 1.6580001 77 84 73 255
0.44440246 -0.10251953 1.6580001 73 80 69 255
0.4486278 -0.10244919 1.6570001 73 80 69 255
0.45257363 -0.10231704 1.6550001 73 80 69 255
0.45733649 -0.1023704 1.6560001 73 80 69 255
0.46154648 -0.10230017 1.6550001 76 83 72 255
0.46659517 -0.1024154 1.6570001 78 85 74 255
0.47051698 -0.10228345 1.6550001 76 82 74 255
0.47500139 -0.10227515 1.6550001 80 86 79 255
0.47919551 -0.1022051 1.654 82 88 81 255
0.48396865 -0.10225867 1.6550001 79 87 80 255
0.4887467 -0.1023123 1.6560001 78 86 78 255
0.49382755 -0.10242775 1.6580001 76 84 76 255
0.49711546 -0.10217259 1.654 76 84 76 255
0.50038129 -0.10191755 1.6500001 76 84 76 255
0.50331914 -0.10160083 1.6450001 79 87 79 255
0.50746423 -0.10153127 1.6440001 80 88 81 255
0.51129216 -0.10140002 1.6420001 73 81 74 255
0.51542306 -0.10133062 1.641 76 82 75 255
0.52018183 -0.10138479 1.6420001 71 79 72 255
0.52686286 -0.10180948 1.649 157 165 158 255
0.53487033 -0.10248113 1.6600001 181 189 182 255
0.554012 -0.10437994 1.6910001 177 185 178 255
0.57803017 -0.10372033 1.6810001 183 189 182 255
0.58223253 -0.10365196 1.6800001 182 188 181 255
0.586779 -0.10364541 1.6800001 173 179 172 255
0.59062165 -0.10351562 1.6780001 179 185 178 255
0.5937441 -0.10326257 1.674 158 164 157 255
0.59756005 -0.10313307 1.6720001 155 161 154 255
0.6017254 -0.10306539 1.6710001 175 181 174 255
0.60588568 -0.10299785 1.6700001 178 184 177 255
0.60967535 -0.10286878 1.6680001 177 183 176 255
0.616032 -0.10317156 1.6730001 177 183 176 255
0.62427086 -0.10378277 1.6830001 179 185 178 255
0.72648925 -0.11732617 1.9030001 173 181 174 255
0.73433578 -0.11775244 1.9100001 168 176 169 255
0.73525167 -0.11706918 1.899 167 175 168 255
0.73883814 -0.11681774 1.8950001 167 173 166 255
0.74044061 -0.11625827 1.886 166 172 165 255
0.74159998 -0.11563744 1.876 164 170 163 255
0.741512 -0.11483192 1.863 160 166 159 255
0.74055302 -0.1139034 1.848 159 167 160 255
0.74112755 -0.1132217 1.8370001 158 166 159 255
0.74204969 -0.11260189 1.8270001 152 160 152 255
0.7404654 -0.11161256 1.8110001 150 158 150 255
0.74085343 -0.11093163 1.8000001 147 155 147 255
0.73911154 -0.10994285 1.784 145 152 141 255
0.73936903 -0.10926246 1.7730001 147 154 143 255
0.73998797 -0.10864396 1.7630001 144 150 142 255
0.74139881 -0.10814896 1.7550001 140 146 138 255
0.74191719 -0.10753096 1.7450001 137 145 137 255
0.74152696 -0.10678998 1.733 135 143 135 255
0.74107313 -0.10604926 1.7210001 139 147 139 255
0.74228883 -0.10555527 1.7130001 140 148 140 255
0.74259067 -0.10493832 1.7030001 142 150 142 255
0.74240088 -0.10426 1.692 147 155 147 255
0.74127001 -0.1034587 1.6790001 150 158 150 255
0.74051434 -0.10271927 1.6670001 152 160 153 255
0.74148285 -0.10222657 1.659 151 159 152 255
0.74330914 -0.10185738 1.6530001 149 157 150 255
0.74284256 -0.10118033 1.6420001 153 161 154 255
0.74186289 -0.10044193 1.6300001 160 168 161 255
0.73944628 -0.09951891 1.6150001 165 173 166 255
0.74063444 -0.099089101 1.608 171 179 172 255
0.74086004 -0.098536335 1.5990001 174 181 177 255
0.74290282 -0.098230302 1.5940001 179 186 182 255
0.74163896 -0.097493142 1.582 180 187 183 255
0.74314117 -0.097126022 1.5760001 185 192 188 255
0.74318993 -0.096574254 1.567 185 192 188 255
0.74366897 -0.096084386 1.559 187 194 190 255
0.74218756 -0.095348231 1.5470001 187 194 190 255
0.74112552 -0.094673954 1.536 188 195 191 255
0.742432 -0.094308116 1.5300001 188 195 191 255
0.74370807 -0.093942523 1.524 187 194 191 255
0.74397254 -0.093453929 1.516 189 196 193 255
0.74320894 -0.092842288 1.506 189 196 193 255
-0.77920556 -0.11221632 1.7440001 196 198 188 255
-0.76290566 -0.11054306 1.7180001 222 227 215 255
-0.75513494 -0.11009263 1.7110001 226 231 217 255
-0.74871987 -0.10983551 1.7070001 204 212 197 255
-0.74232852 -0.10957863 1.7030001 211 219 202 255
-0.73552746 -0.10925768 1.6980001 205 214 195 255
-0.7291857 -0.10900132 1.6940001 194 203 184 255
-0.72372276 -0.10887389 1.692 197 206 187 255
-0.71784729 -0.10868238 1.6890001 198 207 188 255
-0.71198946 -0.10849109 1.6860001 209 218 199 255
-0.7061494 -0.10830002 1.6830001 212 221 202 255
-0.7015776 -0.10830225 1.6830001 190 201 182 255
-0.69493622 -0.10798293 1.6780001 176 187 166 255
-0.68791181 -0.10759946 1.6720001 168 176 151 255
-0.68255609 -0.10747363 1.6700001 155 163 138 255
-0.67721236 -0.107348 1.6680001 155 163 138 255
-0.67268699 -0.10735128 1.6680001 189 195 169 255
-0.66776204 -0.10729039 1.6670001 161 169 144 255
-0.66284359 -0.10722972 1.6660001 166 174 149 255
-0.65793127 -0.10716924 1.6650001 182 190 165 255
-0.65341777 -0.10717331 1.6650001 172 180 155 255
-0.64890504 -0.10717757 1.6650001 194 202 176 255
-0.64323199 -0.1069889 1.6620001 207 216 187 255
-0.63796031 -0.10686477 1.6600001 130 139 108 255
-0.63346326 -0.10686956 1.6600001 133 140 109 255
-0.6293456 -0.1069389 1.6610001 133 138 106 255
-0.62559944 -0.1070728 1.6630001 135 139 104 255
-0.62146944 -0.10714249 1.664 134 138 102 255
-0.61696368 -0.10714795 1.664 134 138 102 255
-0.61282641 -0.10721797 1.6650001 140 144 108 255
-0.60868424 -0.10728817 1.6660001 144 148 112 255
-0.60453689 -0.10735849 1.6670001 141 145 109 255
-0.60038453 -0.10742899 1.6680001 141 145 107 255
-0.59551245 -0.1073708 1.6670001 145 149 111 255
-0.59100068 -0.10737718 1.6670001 137 141 103 255
-0.58684075 -0.10744808 1.6680001 138 142 104 255
-0.58337402 -0.10764799 1.6710001 136 140 105 255
-0.5795446 -0.10778362 1.6730001 141 145 110 255
-0.57501709 -0.10779052 1.6730001 140 145 113 255
-0.57048965 -0.10779755 1.6730001 138 143 111 255
-0.56630039 -0.10786911 1.674 143 148 116 255
-0.56177032 -0.10787638 1.674 138 143 111 255
-0.55790585 -0.10801265 1.6760001 142 148 113 255
-0.55337012 -0.10802013 1.6760001 145 149 113 255
-0.54916179 -0.10809218 1.677 134 138 102 255
-0.54494792 -0.10816434 1.6780001 136 141 101 255
-0.54072833 -0.10823658 1.6790001 139 144 104 255
-0.53682256 -0.10837341 1.6810001 141 145 107 255
-0.53258908 -0.10844588 1.682 136 140 102 255
-0.52897787 -0.10864738 1.6850001 145 149 111 255
-0.52503878 -0.10878453 1.687 137 141 103 255
-0.52078009 -0.10885727 1.6880001 132 136 98 255
-0.51682144 -0.1089946 1.6900001 135 139 101 255
-0.51254845 -0.10906754 1.6910001 125 132 93 255
-0.50857013 -0.10920503 1.6930001 115 122 83 255
-0.50428277 -0.10927811 1.6940001 116 122 86 255
-0.49910465 -0.10915772 1.692 155 161 126 255
-0.49422923 -0.10910188 1.6910001 145 151 115 255
-0.48906907 -0.10898156 1.6890001 141 145 109 255
-0.48334554 -0.10873222 1.6850001 140 144 108 255
-0.47735912 -0.10841834 1.6800001 141 145 109 255
-0.47280633 -0.10842717 1.6800001 143 147 111 255
-0.4685317 -0.10850056 1.6810001 139 143 107 255
-0.4648031 -0.10870314 1.6840001 138 141 109 255
-0.46051097 -0.10877663 1.6850001 135 138 106 255
-0.45594221 -0.10878562 1.6850001 135 141 106 255
-0.45164073 -0.1088592 1.6860001 140 146 110 255
-0.44733313 -0.10893282 1.687 129 136 96 255
-0.4435443 -0.10913562 1.6900001 126 134 91 255
-0.43895936 -0.10914474 1.6900001 126 131 89 255
-0.43488774 -0.10928303 1.692 124 129 87 255
-0.43055016 -0.10935677 1.6930001 127 131 93 255
-0.42595482 -0.10936593 1.6930001 132 136 100 255
-0.42086101 -0.10924587 1.6910001 135 139 104 255
-0.4162696 -0.10925503 1.6910001 134 140 105 255
-0.41192091 -0.10932881 1.692 134 140 105 255
-0.40756598 -0.10940259 1.6930001 135 141 105 255
-0.40249079 -0.1092825 1.6910001 128 136 101 255
-0.3978962 -0.10929164 1.6910001 132 139 107 255
-0.39306819 -0.10923611 1.6900001 130 139 108 255
-0.38778511 -0.10905129 1.687 174 185 154 255
-0.38138178 -0.10854319 1.6790001 168 177 146 255
-0.37569433 -0.10822891 1.674 154 163 132 255
-0.37069839 -0.10810856 1.6720001 152 160 125 255
-0.36680746 -0.10831147 1.6750001 139 146 107 255
-0.36311561 -0.10857905 1.6790001 139 146 106 255
-0.35918754 -0.10878196 1.682 83 91 48 255
-0.35503149 -0.10892019 1.6840001 99 104 62 255
-0.35044745 -0.10892902 1.6840001 107 112 72 255
-0.34565714 -0.10887314 1.6830001 128 132 94 255
-0.34066877 -0.1087525 1.6810001 129 135 99 255
-0.33569038 -0.1086318 1.6790001 130 136 101 255
-0.33111638 -0.10864042 1.6790001 131 137 102 255
-0.32654154 -0.10864901 1.6790001 134 139 107 255
-0.32234937 -0.10878697 1.6810001 135 142 111 255
-0.31814536 -0.1089249 1.6830001 138 142 114 255
-0.31374323 -0.10899806 1.6840001 15 17 0 255
-0.30896762 -0.1089417 1.6830001 31 29 9 255
-0.3041966 -0.10888528 1.682 32 30 12 255
-0.29978636 -0.10895824 1.6830001 35 31 14 255
-0.2953698 -0.10903117 1.6840001 35 33 15 255
-0.29111955 -0.10916878 1.6860001 35 32 16 255
-0.28668755 -0.10924155 1.687 80 81 67 255
-0.28124595 -0.10892571 1.682 103 106 94 255
-0.27566636 -0.108545 1.6760001 93 97 89 255
-0.27028036 -0.10822891 1.6710001 90 94 87 255
-0.26523885 -0.10804223 1.6680001 93 97 89 255
-0.26005661 -0.10779064 1.664 94 98 90 255
-0.25535607 -0.10773332 1.6630001 84 91 80 255
-0.25020763 -0.10748151 1.659 79 86 75 255
-0.24552453 -0.10742395 1.6580001 77 86 75 255
-0.24084608 -0.1073663 1.6570001 79 87 79 255
-0.23631488 -0.10737333 1.6570001 110 118 110 255
-0.23136321 -0.10718586 1.654 87 94 83 255
-0.22642718 -0.10699826 1.651 83 90 79 255
-0.22177562 -0.10694017 1.6500001 79 86 75 255
-0.21752374 -0.1070764 1.6520001 85 90 76 255
-0.21313123 -0.10714774 1.6530001 77 85 70 255
-0.20873244 -0.10721897 1.654 74 81 69 255
-0.20383364 -0.10703079 1.651 57 66 54 255
-0.19907121 -0.1069073 1.649 70 79 67 255
-0.19431902 -0.10678369 1.6470001 65 74 63 255
-0.18969232 -0.10672478 1.646 73 82 71 255
-0.18518288 -0.1067306 1.646 77 86 75 255
-0.18067278 -0.1067363 1.646 80 87 76 255
-0.17616197 -0.10674188 1.646 80 87 75 255
-0.1716505 -0.10674734 1.646 84 91 79 255
-0.16723995 -0.10681754 1.6470001 72 77 65 255
-0.16351485 -0.10734163 1.6550001 73 78 66 255
-0.15984131 -0.10793049 1.664 73 76 62 255
-0.15565123 -0.10819499 1.6680001 69 70 56 255
-0.150714 -0.10794041 1.664 64 66 49 255
-0.14579812 -0.10768568 1.6600001 60 64 47 255
-0.14107379 -0.10756055 1.6580001 67 71 54 255
-0.13652454 -0.10756502 1.6580001 69 74 62 255
-0.13197479 -0.10756937 1.6580001 67 74 62 255
-0.12742446 -0.10757356 1.6580001 73 80 68 255
-0.12265132 -0.10738298 1.6550001 71 78 66 255
-0.11810824 -0.10738689 1.6550001 70 77 65 255
-0.11356469 -0.10739068 1.6550001 68 75 63 255
-0.10908656 -0.10745922 1.6560001 68 75 63 255
-0.10453933 -0.10746272 1.6560001 63 70 58 255
-0.099991702 -0.10746609 1.6560001 63 70 58 255
-0.095443651 -0.10746932 1.6560001 70 77 65 255
-0.091004983 -0.10760219 1.6580001 74 81 69 255
-0.086607091 -0.10779982 1.6610001 61 66 54 255
-0.081994779 -0.10773771 1.6600001 64 69 57 255
-0.077340975 -0.10761055 1.6580001 71 76 65 255
-0.072697833 -0.10748324 1.6560001 70 75 64 255
-0.068147689 -0.10748558 1.6560001 82 84 74 255
-0.063558847 -0.10742287 1.6550001 80 85 74 255
-0.058975231 -0.10736 1.654 73 78 67 255
-0.054396868 -0.107297 1.6530001 68 73 62 255
-0.049853928 -0.10729873 1.6530001 73 78 67 255
-0.04531078 -0.10730033 1.6530001 69 76 64 255
-0.040742774 -0.10723685 1.6520001 68 75 63 255
-0.036202002 -0.10723814 1.6520001 69 74 62 255
-0.031622756 -0.10710945 1.6500001 56 61 50 255
-0.027070777 -0.10704552 1.649 52 59 48 255
-0.022510519 -0.10691653 1.6470001 98 104 96 255
-0.017982993 -0.10691721 1.6470001 70 76 68 255
-0.013455395 -0.10691774 1.6470001 67 74 63 255
-0.0089277364 -0.1069181 1.6470001 68 75 63 255
-0.004400041 -0.10691833 1.6470001 68 73 61 255
0.00012767369 -0.10691841 1.6470001 70 75 63 255
0.0046553877 -0.10691833 1.6470001 68 73 61 255
0.0091886576 -0.10698301 1.6480001 69 74 62 255
0.013710738 -0.10691771 1.6470001 70 75 63 255
0.018238334 -0.10691719 1.6470001 70 75 61 255
0.022752026 -0.10685156 1.646 69 74 62 255
0.027276698 -0.10685072 1.646 70 75 63 255
0.031820577 -0.10691465 1.6470001 71 76 62 255
0.036369819 -0.10697843 1.6480001 73 78 66 255
0.040924396 -0.10704204 1.649 70 75 63 255
0.045456734 -0.10704058 1.649 69 74 62 255
0.049988881 -0.10703899 1.649 71 76 64 255
0.054553878 -0.10710215 1.6500001 69 74 62 255
0.059124134 -0.10716516 1.651 69 74 60 255
0.063738212 -0.10729294 1.6530001 68 73 59 255
0.06823907 -0.10722581 1.6520001 67 72 58 255
0.07273417 -0.10715856 1.651 67 72 60 255
0.077129848 -0.10696136 1.6480001 66 71 59 255
0.081706926 -0.10702363 1.649 67 71 63 255
0.086289153 -0.10708575 1.6500001 66 70 62 255
0.090931557 -0.10721262 1.6520001 65 71 64 255
0.095468998 -0.10720954 1.6520001 75 81 74 255
0.099884972 -0.10707654 1.6500001 95 101 94 255
0.10428952 -0.10694339 1.6480001 89 95 88 255
0.1086827 -0.1068101 1.646 80 86 78 255
0.11327074 -0.10687137 1.6470001 75 81 73 255
0.11793537 -0.10699737 1.649 71 78 67 255
0.12261046 -0.10712321 1.651 71 78 67 255
0.12706505 -0.10705428 1.6500001 67 74 63 255
0.13127433 -0.10679056 1.646 64 70 62 255
0.13554364 -0.10659163 1.6430001 67 73 65 255
0.13988122 -0.10645744 1.641 69 75 68 255
0.14438321 -0.10645286 1.641 86 92 85 255
0.1489754 -0.10651305 1.6420001 82 88 81 255
0.15385285 -0.10676767 1.646 72 78 71 255
0.15865546 -0.10695729 1.649 66 72 65 255
0.16327599 -0.10701704 1.6500001 65 71 64 255
0.16718949 -0.10662267 1.6440001 67 73 66 255
0.1714872 -0.10648762 1.6420001 68 74 66 255
0.17588049 -0.10641731 1.641 71 77 69 255
0.18081723 -0.10667112 1.6450001 86 92 84 255
0.18554989 -0.10679511 1.6470001 68 74 66 255
0.18994662 -0.10672446 1.646 65 71 63 255
0.19445528 -0.1067185 1.646 79 85 77 255
0.19860065 -0.10651797 1.6430001 58 66 58 255
0.20297603 -0.10644698 1.6420001 69 75 68 255
0.2072189 -0.10631108 1.6400001 94 100 93 255
0.21235368 -0.10662882 1.6450001 80 88 81 255
0.21685591 -0.10662232 1.6450001 61 69 62 255
0.22108832 -0.10648612 1.6430001 61 67 60 255
0.22489706 -0.10615538 1.6380001 92 98 91 255
0.22937782 -0.10614862 1.6380001 75 81 74 255
0.23400056 -0.10620654 1.6390001 58 64 57 255
0.23848252 -0.10619958 1.6390001 75 81 74 255
0.24222241 -0.10586856 1.6340001 106 112 105 255
0.24684006 -0.10592622 1.6350001 81 87 79 255
0.25146228 -0.10598377 1.636 68 74 66 255
0.25608921 -0.10604124 1.6370001 66 73 62 255
0.25992489 -0.10577473 1.6330001 73 79 71 255
0.26438549 -0.10576725 1.6330001 79 85 77 255
0.26917449 -0.10588922 1.6350001 71 79 71 255
0.27380624 -0.10594634 1.636 68 74 67 255
0.27776223 -0.10574435 1.6330001 98 104 97 255
0.281701 -0.10554232 1.6300001 74 80 73 255
0.28562248 -0.10534023 1.6270001 73 79 72 255
0.29041818 -0.10546181 1.6290001 103 109 102 255
0.29540497 -0.10564806 1.6320001 76 82 75 255
0.29985601 -0.10563999 1.6320001 65 71 64 255
0.30337387 -0.10530824 1.6270001 78 84 76 255
0.30743119 -0.10517064 1.6250001 77 83 75 255
0.31224436 -0.10529187 1.6270001 92 98 90 255
0.31667835 -0.1052836 1.6270001 74 80 72 255
0.32051936 -0.10508116 1.6240001 82 88 80 255
0.32474333 -0.1050081 1.623 90 96 88 255
0.3301779 -0.10532318 1.628 85 91 83 255
0.33481666 -0.1053794 1.6290001 74 80 72 255
0.33862704 -0.10517684 1.626 75 81 73 255
0.34199825 -0.1048449 1.6210001 85 91 83 255
0.34640992 -0.10483634 1.6210001 76 82 74 255
0.3503879 -0.10469843 1.6190001 78 86 78 255
0.35479245 -0.10468982 1.6190001 88 96 88 255
0.35897428 -0.10461653 1.618 73 81 73 255
0.36359906 -0.10467253 1.6190001 83 91 83 255
0.3680011 -0.10466384 1.6190001 79 88 77 255
0.37286243 -0.10478443 1.6210001 81 88 77 255
0.37703559 -0.10471105 1.6200001 78 85 74 255
0.38096708 -0.10457306 1.618 81 86 75 255
0.38488689 -0.10443506 1.6160001 85 90 79 255
0.38951778 -0.10449094 1.6170001 82 86 78 255
0.39390969 -0.10448218 1.6170001 79 83 75 255
0.39854714 -0.10453802 1.618 81 87 79 255
0.40318936 -0.10459388 1.6190001 80 86 78 255
0.408088 -0.1047143 1.6210001 79 85 77 255
0.41299671 -0.10483474 1.623 81 87 79 255
0.41843 -0.10508431 1.6270001 83 90 79 255
0.42414418 -0.10539843 1.6320001 84 91 80 255
0.42988476 -0.10571253 1.6370001 86 93 82 255
0.43538657 -0.10596202 1.641 82 89 78 255
0.44117737 -0.10627604 1.646 80 87 76 255
0.44645318 -0.10646091 1.649 77 84 73 255
0.45147115 -0.10658123 1.651 72 79 68 255
0.45622319 -0.10663701 1.6520001 74 81 70 255
0.46014351 -0.10649917 1.6500001 74 81 70 255
0.46461558 -0.10649048 1.6500001 78 85 74 255
0.46823406 -0.1062882 1.6470001 79 85 77 255
0.47240984 -0.10621508 1.646 81 87 79 255
0.47657973 -0.10614201 1.6450001 80 86 78 255
0.48132843 -0.10619804 1.646 82 88 80 255
0.48696759 -0.10644766 1.6500001 81 88 77 255
0.4923301 -0.10663278 1.6530001 77 86 75 255
0.49650618 -0.10655989 1.6520001 74 83 72 255
0.49976668 -0.10629362 1.6480001 73 82 71 255
0.50239325 -0.10589845 1.6420001 74 82 74 255
0.50591296 -0.10569688 1.6390001 78 86 79 255
0.50941604 -0.1054954 1.636 81 89 82 255
0.5125885 -0.10522954 1.6320001 82 88 81 255
0.51700628 -0.10522172 1.6320001 84 90 83 255
0.52174318 -0.10527844 1.6330001 81 87 80 255
0.52777421 -0.10559309 1.6380001 77 83 75 255
0.53448182 -0.10603671 1.6450001 77 83 75 255
0.54253775 -0.10673819 1.6560001 79 88 77 255
0.55032271 -0.1073752 1.6660001 70 79 68 255
0.55549741 -0.10749666 1.6680001 61 70 59 255
0.55967563 -0.10742489 1.6670001 61 69 61 255
0.56350994 -0.10728878 1.6650001 58 66 58 255
0.56596875 -0.10689507 1.659 58 66 59 255
0.56908298 -0.10663039 1.6550001 54 62 54 255
0.57356179 -0.10662358 1.6550001 61 69 62 255
0.57873923 -0.10674571 1.6570001 60 68 61 255
0.58287168 -0.1066747 1.6560001 59 67 60 255
0.58664417 -0.10653943 1.654 57 65 58 255
0.58969128 -0.10627548 1.6500001 65 71 64 255
0.59271693 -0.1060117 1.646 82 88 81 255
0.59572136 -0.10574811 1.6420001 80 86 79 255
0.60053182 -0.10580666 1.6430001 78 84 77 255
0.60497993 -0.10580097 1.6430001 70 76 69 255
0.60979933 -0.10585982 1.6440001 56 62 55 255
0.61499816 -0.1059832 1.646 56 64 57 255
0.62698245 -0.10726566 1.6660001 49 57 49 255
0.72779459 -0.12186416 1.8930001 171 179 172 255
0.73331076 -0.12192328 1.8940001 167 175 168 255
0.73883325 -0.12198261 1.8950001 164 172 165 255
0.74082857 -0.12146282 1.8870001 163 171 164 255
0.74396735 -0.12113638 1.8820001 162 170 163 255
0.74309993 -0.12016657 1.8670001 161 169 162 255
0.74215215 -0.11919703 1.8520001 160 168 161 255
0.74152726 -0.11829214 1.8380001 155 163 156 255
