ply
format ascii 1.0
comment PCL generated
element vertex 980
property float x
property float y
property float z
property uchar red
property uchar green
property uchar blue
property uchar alpha
element camera 0
property float view_px
property float view_py
property float view_pz
property float x_axisx
property float x_axisy
property float x_axisz
property float y_axisx
property float y_axisy
property float y_axisz
property float z_axisx
property float z_axisy
property float z_axisz
property float focal
property float scalex
property float scaley
property float centerx
property float centery
property int viewportx
property int viewporty
property float k1
property float k2
end_header
0.72715938 0.31 1.7670001 184 189 186 255
0.72108638 0.29947922 1.7070001 184 191 190 255
0.72234386 0.29807875 1.6990001 181 188 185 255
0.72313166 0.29650351 1.6900001 184 191 188 255
0.72387207 0.29492891 1.6810001 185 192 189 255
0.724132 0.29317954 1.6710001 184 191 188 255
0.72564739 0.2919572 1.664 185 192 189 255
0.72756535 0.29091105 1.6580001 183 190 187 255
0.72945249 0.28986549 1.6520001 185 192 189 255
0.7308647 0.28864524 1.6450001 185 192 189 255
0.7317937 0.28725019 1.6370001 186 193 190 255
0.73178172 0.28550485 1.6270001 187 194 193 255
0.73262197 0.28411111 1.6190001 189 196 195 255
0.73251039 0.28236711 1.6090001 188 195 194 255
0.7337203 0.28115025 1.6020001 192 196 196 255
0.73535496 0.28010958 1.5960001 192 196 196 255
0.73695928 0.27906966 1.59 191 195 195 255
0.7357356 0.2769773 1.5780001 194 198 198 255
0.7339797 0.27471 1.5650001 191 198 195 255
0.73309827 0.2727944 1.554 191 198 195 255
0.7345317 0.27175722 1.5480001 193 198 195 255
0.73498029 0.27036956 1.5400001 194 201 198 255
0.73538762 0.26898262 1.5320001 192 199 198 255
0.73720217 0.26812312 1.5270001 194 201 200 255
0.73753536 0.26673755 1.5190001 194 201 200 255
0.73782742 0.2653527 1.511 193 199 201 255
-0.43465078 0.29955587 1.7300001 163 170 158 255
-0.42945635 0.29922938 1.728 157 165 150 255
-0.42378059 0.2985566 1.7240001 165 173 156 255
-0.41812593 0.29788369 1.72 150 158 141 255
-0.41297328 0.2975572 1.7180001 157 165 148 255
-0.40830618 0.29757708 1.7180001 159 168 149 255
-0.40363851 0.29759699 1.7180001 175 184 165 255
-0.39897016 0.29761693 1.7180001 155 162 141 255
-0.3940717 0.29746357 1.7170001 155 162 141 255
-0.38940486 0.29748347 1.7170001 154 161 139 255
-0.38473737 0.29750335 1.7170001 137 144 122 255
-0.37962645 0.29717663 1.715 182 188 163 255
-0.37474447 0.29702318 1.7140001 146 153 131 255
-0.36943534 0.296523 1.7110001 148 155 133 255
-0.36456829 0.29636937 1.71 181 191 168 255
-0.35970601 0.29621571 1.7090001 177 186 165 255
-0.35484847 0.29606193 1.7080001 137 146 125 255
-0.35040578 0.29625475 1.7090001 172 182 159 255
-0.34514767 0.2957541 1.7060001 134 144 121 255
-0.34070355 0.29594675 1.7070001 149 158 137 255
-0.33585951 0.29579258 1.7060001 169 178 157 255
-0.33140856 0.29598513 1.7070001 137 146 125 255
-0.32637712 0.29565734 1.705 161 170 149 255
-0.32173333 0.29567626 1.705 163 172 153 255
-0.31746072 0.29604194 1.7070001 175 184 163 255
-0.31280997 0.29606062 1.7070001 141 150 129 255
-0.307978 0.29590574 1.7060001 144 153 132 255
-0.3027952 0.29540378 1.7030001 134 143 122 255
-0.29815322 0.29542208 1.7030001 161 171 148 255
-0.2935105 0.29544014 1.7030001 151 160 139 255
-0.28852785 0.29511115 1.7010001 144 153 132 255
-0.28372228 0.29495543 1.7 157 166 145 255
-0.27892143 0.29479954 1.6990001 166 176 153 255
-0.27428678 0.29481697 1.6990001 134 144 121 255
-0.26949269 0.29466069 1.6980001 150 159 138 255
-0.26501533 0.2948513 1.6990001 159 166 145 255
-0.26037857 0.29486823 1.6990001 172 179 158 255
-0.25559056 0.29471132 1.6980001 135 141 123 255
-0.25080732 0.29455426 1.697 143 152 133 255
-0.24602889 0.294397 1.6960001 142 151 130 255
-0.24111286 0.29406586 1.6940001 182 191 170 255
-0.23592785 0.29338726 1.6900001 160 169 148 255
-0.23090093 0.29288203 1.687 146 157 136 255
-0.22629218 0.29289734 1.687 127 138 117 255
-0.22168274 0.29291248 1.687 181 191 168 255
-0.21733002 0.29327461 1.6890001 124 134 111 255
-0.21258785 0.29311562 1.6880001 122 132 109 255
-0.20797378 0.29313004 1.6880001 122 132 109 255
-0.20335905 0.29314417 1.6880001 144 151 129 255
-0.19886148 0.29333177 1.6890001 148 158 135 255
-0.19424281 0.29334542 1.6890001 130 139 118 255
-0.1896235 0.29335883 1.6890001 162 173 152 255
-0.18500365 0.29337195 1.6890001 159 170 151 255
-0.1800628 0.29286367 1.6860001 156 167 148 255
-0.17534593 0.29270253 1.6850001 158 169 150 255
-0.17063399 0.29254115 1.6840001 148 159 140 255
-0.16592696 0.29237938 1.6830001 169 180 161 255
-0.16122486 0.29221734 1.682 169 180 159 255
-0.15662085 0.29222879 1.682 162 173 152 255
-0.15183556 0.29189241 1.6800001 161 171 148 255
-0.14697307 0.29138196 1.677 163 173 150 255
-0.14221144 0.29104495 1.6750001 161 170 149 255
-0.13770679 0.29122892 1.6760001 163 172 151 255
-0.1335139 0.29210767 1.6810001 181 185 167 255
-0.12929316 0.29298615 1.6860001 17 19 1 255
-0.1250446 0.2938644 1.6910001 32 29 15 255
0.72361827 0.29586312 1.7130001 181 188 185 255
0.72446644 0.29431146 1.7040001 183 190 187 255
0.72398347 0.29224226 1.692 183 190 187 255
0.72429806 0.29051912 1.682 181 188 185 255
0.72455996 0.28879669 1.6720001 183 190 187 255
0.72694963 0.28793854 1.6670001 184 191 188 255
0.7288751 0.28690833 1.6610001 182 189 186 255
0.73076975 0.28587881 1.6550001 184 191 188 255
0.73174512 0.2845045 1.6470001 185 192 191 255
0.73223191 0.28295809 1.6380001 187 194 193 255
0.73222184 0.28123963 1.628 188 195 194 255
0.73261172 0.27969453 1.6190001 187 194 193 255
0.73249942 0.27797741 1.6090001 187 194 193 255
0.73370862 0.2767792 1.6020001 191 195 195 255
0.73534244 0.27575442 1.5960001 190 194 194 255
0.73740941 0.27490315 1.5910001 188 195 194 255
0.73712033 0.27318868 1.5810001 192 199 198 255
0.73677886 0.27147481 1.5710001 190 197 194 255
0.73449808 0.2690703 1.557 192 199 196 255
0.73499 0.26770332 1.549 194 199 196 255
0.73496336 0.26616421 1.5400001 195 200 197 255
0.73632985 0.26514426 1.534 192 199 196 255
0.73814911 0.26429787 1.529 192 199 198 255
0.73848706 0.26293361 1.521 195 202 201 255
0.73731905 0.26105139 1.5100001 195 201 203 255
-0.48245162 0.29516131 1.733 143 151 136 255
-0.47747517 0.29500982 1.7320001 140 147 135 255
-0.47277671 0.29502878 1.7320001 148 155 143 255
-0.46753746 0.29470718 1.7300001 152 159 147 255
-0.46257609 0.29455602 1.7290001 161 169 154 255
-0.45682526 0.29389378 1.725 171 179 162 255
-0.45188192 0.29374272 1.7240001 168 176 159 255
-0.44668418 0.29342133 1.7220001 137 143 125 255
-0.44175351 0.29327038 1.7210001 170 179 160 255
-0.43784353 0.29380116 1.7240001 137 147 124 255
-0.43316305 0.29382077 1.7240001 179 189 166 255
-0.42848203 0.29384047 1.7240001 180 189 170 255
-0.42281708 0.29317835 1.72 142 151 130 255
-0.41814575 0.29319808 1.72 156 165 144 255
-0.41299307 0.2928769 1.7180001 152 161 142 255
-0.40832603 0.29289663 1.7180001 155 164 145 255
-0.40318844 0.29257539 1.7160001 175 182 161 255
-0.39852551 0.29259515 1.7160001 136 143 122 255
-0.39409158 0.29278541 1.7170001 143 150 128 255
-0.38942468 0.29280517 1.7170001 183 190 168 255
-0.38475716 0.29282489 1.7170001 137 142 120 255
-0.37964618 0.29250348 1.715 178 183 161 255
-0.37476417 0.29235262 1.7140001 135 142 120 255
-0.36967096 0.29203108 1.7120001 172 179 157 255
-0.36480108 0.29187998 1.7110001 152 159 137 255
-0.35993603 0.29172891 1.71 188 198 173 255
-0.35486794 0.29140708 1.7080001 140 150 125 255
-0.35042518 0.29159704 1.7090001 150 160 135 255
-0.34516695 0.29110441 1.7060001 154 164 139 255
-0.34052315 0.29112357 1.7060001 161 171 148 255
-0.33587861 0.29114261 1.7060001 162 172 149 255
-0.33123341 0.2911616 1.7060001 132 142 119 255
-0.32639602 0.29100975 1.705 166 173 151 255
-0.32156339 0.29085785 1.7040001 171 181 158 255
-0.31710741 0.29104719 1.705 177 187 164 255
-0.31227878 0.29089502 1.7040001 141 151 128 255
-0.3076354 0.29091343 1.7040001 147 157 134 255
-0.30263564 0.2905902 1.702 153 163 140 255
-0.29782116 0.29043755 1.7010001 165 172 150 255
-0.29318374 0.29045546 1.7010001 145 155 132 255
-0.2882064 0.29013175 1.6990001 152 162 139 255
-0.28373986 0.2903201 1.7 152 162 139 255
-0.27893886 0.2901668 1.6990001 177 187 164 255
-0.27414262 0.29001331 1.6980001 136 144 119 255
-0.26935104 0.28985956 1.697 147 154 132 255
-0.26472026 0.28987652 1.697 140 147 125 255
-0.26024204 0.29006407 1.6980001 182 189 168 255
-0.25545654 0.28990975 1.697 169 178 159 255
-0.25052804 0.28958443 1.6950001 134 143 124 255
-0.24575484 0.28942969 1.6940001 142 151 130 255
-0.24055935 0.28876212 1.6900001 175 184 163 255
-0.23552465 0.2882652 1.687 152 162 139 255
-0.23064256 0.28793883 1.6850001 130 140 117 255
-0.22617316 0.28812492 1.6860001 153 163 140 255
-0.22143483 0.28796896 1.6850001 180 190 167 255
-0.21695867 0.2881546 1.6860001 117 127 102 255
-0.21235044 0.28816912 1.6860001 128 138 115 255
-0.20774156 0.28818336 1.6860001 136 146 123 255
-0.20313208 0.2881974 1.6860001 163 171 146 255
-0.19863969 0.28838205 1.687 145 153 128 255
-0.19391122 0.28822464 1.6860001 131 140 119 255
-0.1891876 0.28806692 1.6850001 177 187 164 255
-0.18435934 0.287738 1.6830001 166 178 155 255
-0.17954141 0.28740871 1.6810001 156 167 146 255
-0.17473388 0.28707919 1.6790001 155 166 145 255
-0.1701394 0.28709134 1.6790001 157 168 147 255
-0.16544576 0.28693217 1.6780001 162 173 152 255
-0.16085294 0.28694373 1.6780001 159 171 148 255
-0.15616646 0.28678402 1.677 167 179 156 255
-0.15139455 0.28645298 1.6750001 163 173 148 255
-0.14654544 0.28595057 1.6720001 161 171 146 255
-0.141967 0.28596094 1.6720001 162 172 149 255
-0.1373881 0.28597105 1.6720001 172 179 158 255
-0.13336474 0.2871781 1.6790001 111 111 93 255
-0.12922589 0.28821388 1.6850001 29 27 9 255
-0.12490585 0.28890735 1.6890001 45 39 22 255
-0.11963767 0.28737679 1.6800001 53 45 28 255
-0.11462382 0.28635898 1.674 62 52 35 255
-0.10990539 0.28602508 1.6720001 65 54 39 255
-0.10544952 0.28637514 1.674 73 62 47 255
-0.10092206 0.28655386 1.6750001 70 59 44 255
-0.096101224 0.28587684 1.6710001 75 64 49 255
-0.091192417 0.28485724 1.6650001 81 70 57 255
-0.086420245 0.28417948 1.6610001 80 69 56 255
-0.081669703 0.28350136 1.6570001 77 66 53 255
-0.076987356 0.282994 1.654 82 71 58 255
-0.072408795 0.28282851 1.6530001 84 74 57 255
-0.067917563 0.28300479 1.654 87 75 58 255
-0.063343987 0.28283864 1.6530001 84 72 55 255
-0.058597762 0.28181657 1.6470001 89 75 58 255
-0.053917073 0.28096524 1.6420001 91 77 60 255
-0.049504366 0.28148246 1.6450001 74 62 45 255
-0.045102376 0.28217047 1.649 62 52 35 255
-0.040678285 0.28285819 1.6530001 54 46 30 255
0.72446096 0.29153454 1.715 183 190 187 255
0.7244634 0.2896671 1.7040001 181 188 185 255
0.72440779 0.28780031 1.6930001 185 190 186 255
0.72515506 0.28627411 1.6840001 181 188 184 255
0.72585511 0.28474855 1.6750001 180 187 183 255
0.72825223 0.28390369 1.6700001 181 188 184 255
0.73018509 0.28288952 1.664 183 190 187 255
0.73208743 0.281876 1.6580001 184 191 188 255
0.73218167 0.28018308 1.6480001 184 191 190 255
0.73088241 0.2779808 1.6350001 185 192 191 255
0.73086345 0.27628917 1.6250001 187 194 193 255
0.73033929 0.27442813 1.6140001 186 193 192 255
0.73066777 0.27290782 1.605 187 194 193 255
0.73140728 0.27155817 1.5970001 188 195 194 255
0.73348749 0.27071935 1.5920001 188 195 194 255
0.73507923 0.2697112 1.5860001 189 196 195 255
0.73570812 0.26836362 1.5780001 189 196 195 255
0.73629564 0.26701668 1.5700001 191 196 193 255
0.73542666 0.26516014 1.559 191 196 193 255
0.73544878 0.26364443 1.5500001 193 198 195 255
0.73542416 0.26212937 1.5410001 194 199 196 255
0.73583269 0.26078501 1.5330001 193 200 199 255
0.73813111 0.26012185 1.529 193 200 199 255
0.73846835 0.2587789 1.521 194 201 200 255
0.73778784 0.25709632 1.511 193 200 199 255
-0.517744 0.29165465 1.7410001 162 169 158 255
-0.51272923 0.2915048 1.7400001 146 154 139 255
-0.50713581 0.29102004 1.7370001 147 155 140 255
-0.50213677 0.29087046 1.7360001 146 152 134 255
-0.49656987 0.29038596 1.733 143 149 131 255
-0.4913027 0.2900691 1.7310001 147 156 137 255
-0.48576486 0.28958482 1.728 150 159 140 255
-0.48135671 0.28977096 1.7290001 152 161 142 255
-0.47639129 0.28962204 1.728 153 161 144 255
-0.4717038 0.28964084 1.728 154 162 145 255
-0.46593496 0.28898928 1.7240001 164 172 155 255
-0.46072239 0.28867298 1.7220001 170 179 160 255
-0.45552024 0.28835675 1.72 165 174 155 255
-0.45111486 0.28854358 1.7210001 149 158 139 255
-0.44618469 0.28839514 1.72 135 142 120 255
-0.44151622 0.28841448 1.72 173 181 156 255
-0.43710116 0.28860152 1.7210001 141 149 123 255
-0.4326801 0.28878871 1.7220001 191 200 171 255
-0.42800459 0.28880823 1.7220001 128 137 108 255
-0.42259088 0.28832456 1.7190001 139 147 121 255
-0.41792232 0.28834414 1.7190001 157 165 139 255
-0.41325319 0.28836372 1.7190001 150 160 137 255
-0.4083457 0.28821558 1.7180001 158 168 145 255
-0.40344304 0.2880674 1.7170001 171 178 156 255
-0.39854521 0.28791922 1.7160001 142 149 127 255
-0.39434078 0.28827444 1.7180001 141 148 127 255
-0.38944438 0.28812626 1.7170001 184 191 169 255
-0.38500088 0.28831363 1.7180001 150 157 136 255
-0.37966579 0.28782973 1.715 154 161 139 255
-0.37478372 0.28768137 1.7140001 130 137 115 255
-0.36969045 0.28736517 1.7120001 184 191 169 255
-0.36524698 0.28755239 1.7130001 139 146 124 255
-0.36016589 0.28723601 1.7110001 193 200 178 255
-0.35509497 0.28691947 1.7090001 139 146 124 255
-0.35044438 0.28693867 1.7090001 137 147 124 255
-0.34538838 0.28662199 1.7070001 175 185 162 255
-0.34054217 0.28647304 1.7060001 175 185 162 255
-0.33570069 0.28632402 1.705 142 152 129 255
-0.33105806 0.2863428 1.705 133 143 120 255
-0.32641473 0.28636149 1.705 156 166 143 255
-0.32139328 0.28604418 1.7030001 171 180 159 255
-0.31675392 0.28606266 1.7030001 176 186 163 255
-0.3119306 0.28591302 1.702 133 143 120 255
-0.30729255 0.28593123 1.702 155 165 142 255
-0.30247593 0.28578132 1.7010001 147 157 134 255
-0.29783905 0.28579921 1.7010001 160 169 148 255
-0.29285681 0.28548095 1.6990001 136 147 126 255
-0.28805435 0.28533053 1.6980001 142 153 134 255
-0.28359047 0.28551602 1.6990001 154 163 144 255
-0.27895617 0.28553334 1.6990001 171 180 161 255
-0.27415973 0.28538239 1.6980001 142 151 130 255
-0.26952672 0.28539935 1.6980001 138 147 126 255
-0.26473701 0.28524801 1.697 137 146 125 255
-0.25995207 0.2850965 1.6960001 155 164 145 255
-0.2550213 0.28477669 1.6940001 183 192 173 255
-0.25024858 0.28462473 1.6930001 137 146 127 255
-0.2453355 0.28430441 1.6910001 135 144 123 255
-0.24014801 0.28364763 1.687 170 180 157 255
-0.23540048 0.28349492 1.6860001 144 152 127 255
-0.23065779 0.28334206 1.6850001 124 134 109 255
-0.22605403 0.28335711 1.6850001 143 153 128 255
-0.22131817 0.28320372 1.6840001 186 196 173 255
-0.21671587 0.28321832 1.6840001 123 133 110 255
-0.21186091 0.28289628 1.682 134 146 123 255
-0.20738594 0.28307855 1.6830001 128 138 115 255
-0.20290492 0.28326067 1.6840001 174 184 161 255
-0.19818224 0.28310603 1.6830001 130 140 117 255
-0.19346446 0.28295118 1.682 157 167 144 255
-0.18852694 0.28245959 1.6790001 180 190 167 255
-0.18382436 0.28230417 1.6780001 168 178 155 255
-0.17912665 0.28214845 1.677 162 172 149 255
-0.17443386 0.28199247 1.6760001 161 172 151 255
-0.16964461 0.28166792 1.674 168 178 155 255
-0.16506299 0.28167963 1.674 164 175 154 255
-0.16048086 0.28169107 1.674 156 166 143 255
-0.15571189 0.28136566 1.6720001 173 183 160 255
-0.15104376 0.28120825 1.6710001 160 170 145 255
-0.14620529 0.28071392 1.6680001 161 171 148 255
-0.14163753 0.28072414 1.6680001 156 165 144 255
-0.13715145 0.28090242 1.669 182 187 166 255
-0.13305661 0.28192192 1.6750001 19 17 0 255
-0.12885177 0.28277296 1.6800001 40 34 17 255
-0.12424929 0.28278205 1.6800001 59 47 30 255
-0.11929029 0.28194925 1.6750001 68 54 37 255
-0.11435828 0.28111607 1.6700001 73 59 42 255
-0.10965048 0.28078753 1.6680001 76 60 44 255
-0.10501628 0.28062701 1.6670001 76 60 44 255
-0.10044742 0.28063452 1.6670001 83 67 51 255
-0.095590651 0.27979994 1.6620001 88 72 56 255
-0.090760946 0.27896503 1.6570001 88 73 58 255
-0.085958339 0.27812973 1.6520001 86 71 56 255
-0.081232131 0.27746242 1.6480001 90 74 59 255
-0.076527566 0.27679479 1.6440001 91 75 60 255
-0.071976095 0.27663192 1.6430001 87 71 55 255
-0.067553036 0.27697381 1.6450001 89 73 57 255
-0.063080445 0.27714702 1.646 86 69 50 255
-0.058602136 0.27731991 1.6470001 90 73 54 255
-0.054052461 0.27715573 1.646 82 65 46 255
-0.049628455 0.27766472 1.649 74 56 40 255
-0.045078404 0.27749988 1.6480001 70 56 39 255
-0.040582892 0.27767146 1.649 70 56 39 255
-0.036038011 0.27750593 1.6480001 65 57 41 255
-0.031594116 0.27818203 1.6520001 51 44 31 255
0.72530383 0.28719521 1.7170001 180 187 183 255
0.72616142 0.28569195 1.7080001 182 189 185 255
0.72611594 0.28385481 1.697 181 188 184 255
0.72601235 0.28201833 1.6860001 179 186 182 255
0.72671711 0.28051701 1.677 181 188 184 255
0.73042727 0.28018725 1.6750001 182 189 185 255
0.73017913 0.27835268 1.664 183 190 186 255
0.73208064 0.27735516 1.6580001 182 189 186 255
0.73084146 0.27518731 1.6450001 184 191 188 255
0.73132133 0.27368921 1.636 184 191 190 255
0.73085469 0.27185717 1.6250001 187 191 191 255
0.73078245 0.27019307 1.6150001 187 194 193 255
0.73202342 0.26903149 1.608 185 192 191 255
0.73231244 0.26753598 1.5990001 188 195 194 255
0.73301518 0.26620838 1.5910001 189 196 195 255
0.73414004 0.26504883 1.5840001 190 197 196 255
0.73569506 0.26405722 1.5780001 189 196 195 255
0.73721987 0.26306635 1.572 190 197 194 255
0.73588395 0.26107204 1.5600001 192 197 194 255
0.73685706 0.25991514 1.5530001 192 197 194 255
0.73636276 0.25825676 1.5430001 189 196 193 255
0.73725599 0.25710115 1.536 191 198 197 255
0.73714817 0.25561145 1.5270001 192 199 198 255
0.73796475 0.25445721 1.5200001 193 200 199 255
0.73728067 0.25280133 1.5100001 193 200 199 255
-0.54544955 0.28648248 1.7390001 174 180 162 255
-0.53980321 0.28600451 1.7360001 167 176 157 255
-0.53448129 0.2856915 1.7340001 165 174 155 255
-0.52947569 0.28554344 1.733 145 155 138 255
-0.52417248 0.28523076 1.7310001 140 148 131 255
-0.51978028 0.2854127 1.7320001 141 150 131 255
-0.51478761 0.28526521 1.7310001 154 163 144 255
-0.51038951 0.28544748 1.7320001 164 170 152 255
-0.50510985 0.28513557 1.7300001 163 170 149 255
-0.50041926 0.28515339 1.7300001 181 188 166 255
-0.49515525 0.28484172 1.728 169 176 155 255
-0.48990184 0.28453016 1.7260001 153 160 139 255
-0.48437774 0.28405386 1.723 151 158 137 255
-0.47998327 0.28423715 1.7240001 142 151 132 255
-0.47530714 0.28425565 1.7240001 153 162 143 255
-0.47063065 0.28427428 1.7240001 160 169 150 255
-0.465143 0.28379834 1.7210001 171 180 161 255
-0.4599387 0.28348735 1.7190001 158 167 146 255
-0.45500958 0.28334132 1.7180001 148 157 136 255
-0.45034757 0.2833603 1.7180001 137 147 124 255
-0.44568506 0.28337941 1.7180001 171 178 156 255
-0.44102204 0.28339851 1.7180001 142 150 125 255
-0.43661252 0.28358272 1.7190001 185 194 165 255
-0.43244824 0.28393197 1.7210001 144 153 124 255
-0.42802405 0.28411633 1.7220001 128 137 108 255
-0.42334789 0.28413573 1.7220001 139 148 119 255
-0.41818494 0.28382513 1.72 162 170 144 255
-0.41351309 0.28384459 1.72 139 149 124 255
-0.40860295 0.28369904 1.7190001 165 175 152 255
-0.40369755 0.28355345 1.7180001 167 174 152 255
-0.3985647 0.28324279 1.7160001 132 139 117 255
-0.3943603 0.2835924 1.7180001 133 140 118 255
-0.3896907 0.28361183 1.7180001 152 159 137 255
-0.38524455 0.28379637 1.7190001 183 190 168 255
-0.37990665 0.28332046 1.7160001 151 158 136 255
-0.37502179 0.28317469 1.715 129 136 114 255
-0.37014166 0.2830289 1.7140001 172 179 157 255
-0.36547953 0.28304815 1.7140001 133 140 118 255
-0.36039561 0.28273705 1.7120001 198 205 183 255
-0.35511413 0.28226069 1.7090001 137 144 122 255
-0.35025835 0.28211451 1.7080001 133 143 120 255
-0.34540737 0.28196827 1.7070001 180 190 167 255
-0.34076068 0.28198707 1.7070001 165 175 152 255
-0.33591634 0.28184065 1.7060001 131 141 118 255
-0.33127093 0.28185928 1.7060001 144 154 131 255
-0.32643333 0.28171259 1.705 148 158 135 255
-0.32160047 0.28156582 1.7040001 167 177 154 255
-0.31658623 0.28125361 1.702 182 189 167 255
-0.31176549 0.28110653 1.7010001 137 147 124 255
-0.30694947 0.28095925 1.7 155 165 142 255
-0.30249384 0.28114247 1.7010001 144 154 129 255
-0.29750663 0.28082964 1.6990001 177 187 164 255
-0.29270205 0.28068194 1.6980001 144 154 131 255
-0.28807178 0.28069937 1.6980001 157 166 145 255
-0.28360775 0.28088197 1.6990001 164 174 151 255
-0.27880916 0.28073379 1.6980001 160 170 147 255
-0.27417669 0.28075078 1.6980001 172 182 159 255
-0.26938477 0.28060219 1.697 136 146 123 255
-0.26444158 0.28028807 1.6950001 134 144 121 255
-0.25950861 0.27997375 1.6930001 171 181 158 255
-0.25473636 0.27982458 1.692 160 169 148 255
-0.2499689 0.27967516 1.6910001 185 194 173 255
-0.24535131 0.27969098 1.6910001 136 146 123 255
-0.24002117 0.27887952 1.6860001 163 171 146 255
-0.2354158 0.27889484 1.6860001 130 140 115 255
-0.23067285 0.27874452 1.6850001 132 142 117 255
-0.22620304 0.27892482 1.6860001 136 146 121 255
-0.22120136 0.27844319 1.6830001 159 169 146 255
-0.21660154 0.27845764 1.6830001 143 155 132 255
-0.21174908 0.27814093 1.6810001 127 139 116 255
-0.20727663 0.27832031 1.682 144 156 133 255
-0.2025571 0.27816856 1.6810001 169 179 154 255
-0.19784237 0.27801651 1.6800001 130 140 115 255
-0.19313253 0.27786425 1.6790001 165 175 152 255
-0.18842752 0.27771166 1.6780001 181 191 166 255
-0.18372743 0.27755886 1.677 159 169 144 255
-0.179139 0.27757126 1.677 164 174 151 255
-0.17423777 0.27708685 1.674 169 179 156 255
-0.16955507 0.27693319 1.6730001 174 184 161 255
-0.16477869 0.27661368 1.6710001 161 171 148 255
-0.1603962 0.27695608 1.6730001 160 170 145 255
-0.15553655 0.27647048 1.6700001 172 182 157 255
-0.1508736 0.2763156 1.669 158 168 142 255
-0.14604032 0.27582937 1.6660001 168 178 153 255
-0.14156267 0.27600509 1.6670001 160 167 145 255
-0.13707903 0.27618054 1.6680001 186 189 167 255
-0.13290724 0.27701798 1.6730001 11 9 0 255
-0.12847747 0.27735847 1.6750001 50 43 23 255
-0.12381443 0.27720186 1.674 68 53 34 255
-0.11887153 0.27638257 1.669 82 63 43 255
-0.11388715 0.27539733 1.6630001 82 63 43 255
-0.10919823 0.27507418 1.6610001 88 67 47 255
-0.10458288 0.27491623 1.6600001 89 69 51 255
-0.09997265 0.27475801 1.659 102 82 64 255
-0.095194981 0.2741026 1.6550001 100 80 64 255
-0.090493686 0.27361247 1.6520001 101 81 65 255
-0.085756496 0.2729564 1.6480001 103 81 65 255
-0.081090204 0.27246559 1.6450001 100 78 62 255
-0.076346979 0.27164316 1.6400001 99 77 61 255
-0.071762338 0.2713173 1.6380001 97 75 59 255
-0.067352675 0.27165368 1.6400001 105 85 67 255
-0.062931798 0.27198973 1.6420001 108 86 68 255
-0.058535308 0.27249116 1.6450001 99 77 59 255
-0.053957932 0.27216399 1.6430001 85 63 45 255
-0.049541838 0.27266476 1.646 71 51 35 255
-0.044972327 0.27233693 1.6440001 72 52 36 255
-0.040536679 0.27283707 1.6470001 68 50 34 255
-0.035975084 0.27250856 1.6450001 66 50 34 255
-0.031500831 0.27284238 1.6470001 72 56 40 255
-0.026933579 0.27234757 1.6440001 73 59 42 255
-0.022450879 0.2726807 1.646 72 58 41 255
-0.017946234 0.27284789 1.6470001 62 49 34 255
0.72361243 0.28185785 1.7130001 180 187 183 255
0.72488356 0.28054336 1.705 181 188 184 255
0.72696877 0.27955866 1.6990001 183 190 186 255
0.7264393 0.27758729 1.687 180 187 183 255
0.7262795 0.2757811 1.6760001 181 188 184 255
0.72998625 0.27545646 1.674 180 187 183 255
0.7314899 0.27430972 1.6670001 182 189 185 255
0.73339897 0.27332824 1.6610001 183 190 186 255
0.73083448 0.27070183 1.6450001 186 191 188 255
0.73041964 0.26889876 1.6340001 186 191 188 255
0.73039657 0.26726088 1.6240001 188 192 192 255
0.73122591 0.2659528 1.6160001 189 193 193 255
0.73383462 0.26530364 1.6120001 187 194 193 255
0.73321795 0.2635031 1.6010001 187 194 193 255
0.73346484 0.26203239 1.5920001 189 196 195 255
0.73273772 0.26023307 1.5810001 188 195 194 255
0.73381776 0.25909281 1.5740001 188 195 194 255
0.73439276 0.25778854 1.5660001 187 194 193 255
0.73492652 0.25648493 1.5580001 189 196 195 255
0.73636788 0.25551125 1.552 190 197 196 255
0.73777902 0.25453827 1.5460001 191 198 197 255
0.73771977 0.25307196 1.5370001 192 199 198 255
0.7371313 0.25144166 1.5270001 193 200 199 255
0.73600501 0.24964726 1.516 193 200 199 255
0.73628575 0.24834749 1.508 191 198 197 255
-0.57440436 0.28197867 1.7410001 171 177 160 255
-0.56935859 0.28183135 1.7400001 171 177 160 255
-0.56399363 0.2815223 1.738 164 170 152 255
-0.55863965 0.28121352 1.7360001 167 173 155 255
-0.55329651 0.28090495 1.7340001 165 171 153 255
-0.54828054 0.28075862 1.733 170 177 156 255
-0.54327005 0.2806125 1.7320001 168 175 154 255
-0.53826481 0.28046665 1.7310001 168 177 156 255
-0.53326488 0.28032097 1.7300001 169 178 157 255
-0.5282703 0.28017548 1.7290001 174 183 162 255
-0.52388662 0.28035435 1.7300001 173 182 163 255
-0.51859701 0.28004721 1.728 156 165 144 255
-0.51391274 0.2800644 1.728 154 163 142 255
-0.50922829 0.28008175 1.728 157 164 142 255
-0.50483555 0.2802614 1.7290001 178 185 163 255
-0.49956936 0.27995491 1.7270001 160 167 145 255
-0.4943136 0.27964851 1.725 154 161 139 255
-0.48906839 0.27934229 1.723 172 179 158 255
-0.4838337 0.27903613 1.7210001 144 151 130 255
-0.47944477 0.27921653 1.7220001 157 166 145 255
-0.47477421 0.27923489 1.7220001 151 160 139 255
-0.4698303 0.27909124 1.7210001 162 171 152 255
-0.46435085 0.27862328 1.7180001 150 159 140 255
-0.45968992 0.27864194 1.7180001 153 162 141 255
-0.45502847 0.27866068 1.7180001 139 149 126 255
-0.45036659 0.27867955 1.7180001 149 156 134 255
-0.44544464 0.27853626 1.7170001 151 159 134 255
-0.4410412 0.27871746 1.7180001 175 183 157 255
-0.43663174 0.27889884 1.7190001 150 159 130 255
-0.43271878 0.2794047 1.7220001 141 148 119 255
-0.42804337 0.27942392 1.7220001 134 141 110 255
-0.42336726 0.27944317 1.7220001 137 144 115 255
-0.41820431 0.27913788 1.72 158 165 136 255
-0.41377288 0.27931944 1.7210001 145 153 128 255
-0.40886 0.27917647 1.72 161 171 146 255
-0.40442193 0.27935809 1.7210001 167 175 150 255
-0.3990486 0.27889043 1.7180001 138 146 121 255
-0.39460921 0.27907208 1.7190001 136 144 119 255
-0.38971007 0.27892902 1.7180001 157 165 140 255
-0.38571215 0.27943543 1.7210001 182 189 167 255
-0.38059017 0.27912995 1.7190001 179 186 164 255
-0.37547842 0.27882439 1.7170001 131 139 114 255
-0.3703768 0.27851871 1.715 160 167 145 255
-0.36592513 0.2787002 1.7160001 136 143 121 255
-0.36083573 0.27839443 1.7140001 191 198 176 255
-0.35554868 0.27792606 1.7110001 136 143 121 255
-0.35027727 0.27745762 1.7080001 134 144 121 255
-0.3456285 0.27747637 1.7080001 182 192 167 255
-0.34097901 0.27749503 1.7080001 156 168 143 255
-0.33613187 0.27735114 1.7070001 132 144 119 255
-0.33109525 0.27704462 1.705 150 160 135 255
-0.32645172 0.27706301 1.705 144 154 129 255
-0.32161874 0.27691877 1.7040001 156 168 145 255
-0.3167904 0.27677438 1.7030001 179 189 164 255
-0.31196681 0.27662984 1.702 138 148 123 255
-0.30696735 0.27632266 1.7 155 165 140 255
-0.30233371 0.27634034 1.7 143 153 128 255
-0.29769936 0.27635795 1.7 168 178 153 255
-0.29306424 0.27637538 1.7 147 157 134 255
-0.28825873 0.27623013 1.6990001 162 171 150 255
-0.28362492 0.27624726 1.6990001 152 161 140 255
-0.27866185 0.27593899 1.697 151 161 138 255
-0.274032 0.2759558 1.697 176 186 163 255
-0.26924261 0.27580976 1.6960001 137 147 124 255
-0.264458 0.27566358 1.6950001 128 138 115 255
-0.25952479 0.2753545 1.6930001 155 162 140 255
-0.25460184 0.27504528 1.6910001 151 161 138 255
-0.25013253 0.27522376 1.692 155 165 142 255
-0.24536689 0.27507672 1.6910001 181 191 166 255
-0.24046366 0.27476683 1.6890001 150 160 135 255
-0.23571022 0.27461931 1.6880001 133 143 120 255
-0.23082468 0.27430889 1.6860001 132 142 119 255
-0.22608358 0.27416095 1.6850001 143 153 130 255
-0.22121583 0.27385005 1.6830001 165 175 152 255
-0.21648705 0.27370158 1.682 150 162 139 255
-0.21176305 0.27355292 1.6810001 131 143 120 255
-0.20716716 0.27356672 1.6810001 161 172 151 255
-0.20245011 0.27341753 1.6800001 159 169 146 255
-0.19773789 0.2732681 1.6790001 135 145 122 255
-0.19303051 0.27311841 1.6780001 173 183 160 255
-0.18844029 0.27313119 1.6780001 175 185 160 255
-0.18384947 0.27314377 1.6780001 164 174 149 255
-0.17915121 0.27299324 1.677 165 175 150 255
-0.17435379 0.27267972 1.6750001 172 182 159 255
-0.16946536 0.27220306 1.6720001 174 182 157 255
-0.16479005 0.27205172 1.6710001 166 176 151 255
-0.16011968 0.27190009 1.6700001 166 176 151 255
-0.15545422 0.27174816 1.669 165 175 150 255
-0.15079375 0.27159595 1.6680001 166 176 150 255
-0.14605056 0.27128062 1.6660001 167 177 152 255
-0.14148769 0.27129063 1.6660001 166 173 151 255
-0.13700651 0.27146322 1.6670001 183 186 164 255
-0.13267829 0.27196121 1.6700001 22 17 0 255
-0.12817976 0.27213326 1.6710001 68 58 39 255
-0.12337943 0.27165359 1.6680001 81 64 45 255
-0.11859509 0.27117354 1.6650001 92 71 51 255
-0.11368984 0.27036747 1.6600001 92 71 51 255
-0.10887732 0.26972386 1.6560001 93 72 52 255
-0.10433838 0.26973149 1.6560001 102 80 62 255
-0.099738784 0.26957589 1.6550001 109 87 69 255
-0.094971754 0.2689313 1.651 117 95 79 255
-0.090335898 0.26861221 1.649 110 88 72 255
-0.085606582 0.26796693 1.6450001 104 82 66 255
-0.081046797 0.26781005 1.6440001 100 78 62 255
-0.076305978 0.26700121 1.6390001 99 77 61 255
-0.071723744 0.26668075 1.6370001 103 81 63 255
-0.067193292 0.26652288 1.636 111 89 71 255
-0.062783077 0.26685342 1.6380001 109 87 69 255
-0.058361653 0.26718369 1.6400001 98 76 58 255
-0.053830512 0.26702482 1.6390001 81 59 41 255
-0.049364869 0.26719153 1.6400001 75 53 37 255
-0.044893552 0.26735786 1.641 72 52 36 255
-0.040490434 0.2680127 1.6450001 74 54 38 255
-0.035955857 0.26785257 1.6440001 71 53 37 255
-0.031445768 0.26785502 1.6440001 73 55 39 255
-0.026886407 0.26736838 1.641 72 54 38 255
-0.022397975 0.26753312 1.6420001 71 55 39 255
-0.017914863 0.26786044 1.6440001 69 53 37 255
-0.013437024 0.26851338 1.6480001 65 53 36 255
-0.0089317719 0.26900294 1.651 65 55 38 255
-0.0044126944 0.2696552 1.6550001 52 47 36 255
0.72439528 0.28673807 1.7720001 178 185 181 255
0.72576112 0.28349939 1.7520001 179 186 182 255
0.72386265 0.2809101 1.7360001 178 185 181 255
0.72355753 0.27896869 1.7240001 180 187 183 255
0.72403336 0.2773515 1.7140001 180 187 183 255
0.72488153 0.27589676 1.705 178 185 181 255
0.72696608 0.27492812 1.6990001 180 187 183 255
0.72686654 0.27315098 1.6880001 181 188 184 255
0.72627556 0.27121267 1.6760001 181 188 184 255
0.72910947 0.2705695 1.6720001 180 187 183 255
0.73060703 0.26944155 1.6650001 182 189 185 255
0.73206836 0.26831421 1.6580001 182 189 185 255
0.72993934 0.26589286 1.6430001 183 190 187 255
0.73130637 0.26476678 1.636 181 188 185 255
0.73218757 0.2634795 1.628 184 191 188 255
0.73347968 0.2623547 1.6210001 184 191 190 255
0.73519105 0.26139244 1.6150001 184 191 190 255
0.73412389 0.25945964 1.603 187 194 193 255
0.73345411 0.2576893 1.5920001 187 194 193 255
0.73272645 0.25591961 1.5810001 186 193 192 255
0.7338056 0.25479797 1.5740001 187 194 193 255
0.73344213 0.25319135 1.5640001 188 195 194 255
0.73302621 0.2515853 1.554 190 197 196 255
0.73493022 0.25078934 1.549 189 196 195 255
0.73824114 0.25047988 1.5470001 191 198 197 255
0.74010402 0.24968541 1.5420001 192 199 198 255
0.73759764 0.2474342 1.5280001 192 199 198 255
0.73550248 0.24534544 1.5150001 192 199 198 255
0.73382682 0.24341916 1.503 192 199 198 255
-0.60377115 0.27763382 1.7440001 168 176 159 255
-0.59801304 0.27716896 1.7410001 167 174 153 255
-0.59363455 0.27734125 1.7420001 172 179 157 255
-0.58789867 0.27687699 1.7390001 174 180 155 255
-0.58217925 0.27641299 1.7360001 171 177 152 255
-0.57647616 0.27594924 1.733 165 172 151 255
-0.57210934 0.27612272 1.7340001 163 169 151 255
-0.56740993 0.27613726 1.7340001 151 158 137 255
-0.5623861 0.27599281 1.733 142 149 128 255
-0.55704588 0.27568936 1.7310001 159 166 144 255
-0.55203563 0.27554542 1.7300001 171 178 156 255
-0.54734719 0.275561 1.7300001 164 172 147 255
-0.54265869 0.2755768 1.7300001 169 177 152 255
-0.53765911 0.27543357 1.7290001 171 179 154 255
-0.53328133 0.27560917 1.7300001 164 174 149 255
-0.52828699 0.27546632 1.7290001 169 179 156 255
-0.52360064 0.27548298 1.7290001 169 179 156 255
-0.51801378 0.27502185 1.7260001 166 173 151 255
-0.51333517 0.2750389 1.7260001 163 171 146 255
-0.50865626 0.27505615 1.7260001 165 173 148 255
-0.50426918 0.27523294 1.7270001 158 166 141 255
-0.49929777 0.27509114 1.7260001 150 158 133 255
-0.49404493 0.27479011 1.7240001 177 184 162 255
-0.48908642 0.27464855 1.723 172 179 157 255
-0.48385182 0.27434769 1.7210001 158 165 143 255
-0.47890615 0.27420637 1.72 145 152 130 255
-0.47396547 0.27406517 1.7190001 170 177 155 255
-0.46930274 0.2740835 1.7190001 151 161 138 255
-0.46463969 0.27410194 1.7190001 146 156 133 255
-0.45997611 0.27412045 1.7190001 151 161 138 255
-0.45504722 0.2739796 1.7180001 152 159 137 255
-0.45038536 0.27399832 1.7180001 133 140 118 255
-0.44546354 0.27385759 1.7170001 169 177 152 255
-0.44106013 0.27403593 1.7180001 156 164 138 255
-0.43665072 0.27421439 1.7190001 146 153 124 255
-0.43273792 0.27471194 1.7220001 137 144 115 255
-0.42831105 0.27489051 1.723 131 138 107 255
-0.42363229 0.27490962 1.723 142 149 120 255
-0.41846669 0.27460963 1.7210001 154 161 132 255
-0.41355169 0.2744692 1.72 145 153 128 255
-0.40911698 0.27464789 1.7210001 171 179 154 255
-0.40444118 0.27466708 1.7210001 174 182 157 255
-0.39953244 0.27452663 1.72 138 146 121 255
-0.39462844 0.27438617 1.7190001 135 143 118 255
-0.39018291 0.27456489 1.72 136 144 119 255
-0.38595545 0.27490333 1.7220001 169 177 152 255
-0.38105214 0.27476275 1.7210001 182 189 167 255
-0.37571615 0.27430281 1.7180001 150 158 133 255
-0.37061179 0.27400243 1.7160001 156 163 141 255
-0.36594412 0.27402139 1.7160001 135 142 120 255
-0.3612757 0.27404025 1.7160001 172 180 155 255
-0.35598308 0.27357993 1.7130001 168 176 151 255
-0.35070613 0.27311948 1.71 138 148 125 255
-0.34584948 0.27297837 1.7090001 177 187 162 255
-0.34119722 0.27299687 1.7090001 150 160 135 255
-0.33634722 0.27285552 1.7080001 132 142 117 255
-0.33130777 0.27255434 1.7060001 149 159 133 255
-0.32646996 0.27241275 1.705 133 143 118 255
-0.32163683 0.27227104 1.7040001 157 167 144 255
-0.3169944 0.27228901 1.7040001 179 189 164 255
-0.31216794 0.272147 1.7030001 164 174 149 255
-0.30734619 0.27200493 1.702 153 163 140 255
-0.30235127 0.27170283 1.7 148 158 135 255
-0.29736653 0.2714006 1.6980001 165 175 152 255
-0.29290918 0.27157772 1.6990001 156 166 143 255
-0.2882759 0.27159482 1.6990001 166 175 154 255
-0.28364187 0.27161178 1.6990001 157 167 144 255
-0.27867869 0.27130881 1.697 156 166 143 255
-0.2740486 0.27132541 1.697 177 187 164 255
-0.2692591 0.271182 1.6960001 161 171 148 255
-0.26463032 0.27119824 1.6960001 138 146 121 255
-0.25954086 0.27073458 1.6930001 158 166 141 255
-0.25476822 0.27059051 1.692 146 154 129 255
-0.25000036 0.27044627 1.6910001 142 152 127 255
-0.24552746 0.27062169 1.692 181 191 166 255
-0.24062122 0.27031705 1.6900001 162 172 149 255
-0.23572521 0.2700122 1.6880001 133 145 122 255
-0.23070256 0.26954713 1.6850001 135 145 122 255
-0.22609815 0.26956168 1.6850001 146 156 131 255
-0.22136161 0.26941609 1.6840001 171 181 156 255
-0.21688728 0.2695902 1.6850001 149 159 134 255
-0.21202889 0.26928416 1.6830001 148 158 133 255
-0.20755053 0.26945782 1.6840001 150 160 135 255
-0.20270452 0.26915124 1.682 155 165 140 255
-0.19798656 0.26900443 1.6810001 136 146 121 255
-0.19315842 0.26869729 1.6790001 174 184 159 255
-0.18856521 0.26870996 1.6790001 169 179 154 255
-0.18386182 0.26856232 1.6780001 174 184 159 255
-0.17916332 0.26841447 1.677 168 178 153 255
-0.17436561 0.26810622 1.6750001 169 179 153 255
-0.16957825 0.26779771 1.6730001 169 179 153 255
-0.1647027 0.2673288 1.6700001 171 179 153 255
-0.16003476 0.26717979 1.669 169 179 153 255
-0.15537179 0.26703048 1.6680001 170 178 152 255
-0.15080416 0.26704097 1.6680001 168 178 153 255
-0.14614832 0.26689106 1.6670001 170 180 155 255
-0.14149752 0.26674089 1.6660001 166 172 147 255
-0.13701604 0.26691061 1.6670001 188 189 165 255
-0.1326081 0.26724023 1.669 31 24 3 255
-0.12803531 0.26724932 1.669 78 67 46 255
-0.12324016 0.26677769 1.6660001 88 68 50 255
-0.11838976 0.26614565 1.6620001 95 71 53 255
-0.11362937 0.26567337 1.659 97 73 55 255
-0.10881928 0.26504067 1.6550001 108 84 66 255
-0.10428277 0.26504815 1.6550001 115 91 75 255
-0.099625349 0.26473507 1.6530001 123 99 83 255
-0.094863482 0.26410136 1.649 121 99 83 255
-0.090232775 0.2637876 1.6470001 118 96 80 255
-0.08545658 0.26299301 1.6420001 115 91 75 255
-0.080904707 0.26283878 1.641 107 83 65 255
-0.07626491 0.26236391 1.6380001 111 85 67 255
-0.071685091 0.26204881 1.636 108 82 64 255
-0.067198142 0.26205382 1.636 110 84 65 255
-0.062672615 0.26189831 1.6350001 116 90 71 255
-0.058223516 0.26206282 1.636 109 83 65 255
-0.053703036 0.26190668 1.6350001 89 63 45 255
-0.049278144 0.26223078 1.6370001 88 62 44 255
-0.044760019 0.26207396 1.636 83 56 41 255
-0.040345676 0.2625576 1.6390001 84 60 44 255
-0.035827242 0.26240021 1.6380001 87 63 47 255
-0.031352412 0.26256281 1.6390001 84 60 42 255
-0.026790056 0.26192415 1.6350001 81 57 39 255
-0.022317756 0.26208609 1.636 82 59 39 255
-0.017861681 0.26256815 1.6390001 73 51 33 255
-0.013421695 0.26369071 1.646 71 51 33 255
-0.0089107836 0.26385173 1.6470001 69 52 33 255
-0.0043996838 0.2643328 1.6500001 66 52 35 255
0.00012781804 0.26465335 1.6520001 64 51 36 255
0.72327626 0.27777126 1.7460001 177 184 180 255
0.72355694 0.27427092 1.7240001 180 185 181 255
0.72487712 0.27299893 1.7160001 180 187 183 255
0.7253049 0.27140936 1.7060001 178 185 181 255
0.7265358 0.27013859 1.6980001 179 186 182 255
0.72643286 0.26839113 1.687 178 185 181 255
0.72583854 0.26648524 1.6750001 182 189 185 255
0.72779685 0.26553446 1.669 181 188 184 255
0.72972447 0.26458439 1.6630001 181 188 185 255
0.73073816 0.26331672 1.6550001 182 189 186 255
0.73082155 0.26173145 1.6450001 184 191 188 255
0.73085243 0.2601468 1.6350001 183 190 187 255
0.73262972 0.2591992 1.6290001 182 189 186 255
0.73256642 0.25761577 1.6190001 185 192 191 255
0.73472679 0.25682855 1.6140001 183 190 189 255
0.73365635 0.25492814 1.6020001 186 193 192 255
0.73482591 0.25382394 1.595 186 193 190 255
0.73317891 0.25176555 1.582 187 194 191 255
0.73379397 0.25050345 1.5740001 188 195 192 255
0.73296088 0.24876451 1.5630001 189 196 195 255
0.73301327 0.24734446 1.554 189 196 195 255
0.73444206 0.24640256 1.5480001 190 197 196 255
0.73679507 0.24577968 1.544 192 199 198 255
0.73864889 0.24499832 1.539 192 199 198 255
0.73709905 0.24310321 1.5270001 193 200 199 255
0.73500049 0.24104942 1.5140001 192 199 198 255
0.73332143 0.23915541 1.5020001 195 202 199 255
-0.6336056 0.27344114 1.748 173 181 166 255
-0.62778562 0.27298242 1.7450001 170 178 163 255
-0.62198246 0.27252403 1.7420001 171 177 160 255
-0.6161961 0.27206597 1.7390001 173 179 162 255
-0.61112958 0.27192116 1.738 170 179 160 255
-0.60572004 0.27162021 1.7360001 172 178 160 255
-0.60066789 0.27147609 1.7350001 167 174 153 255
-0.59630847 0.27164522 1.7360001 165 173 148 255
-0.59228462 0.27197117 1.738 156 164 138 255
-0.58723605 0.271828 1.7370001 157 164 135 255
-0.58152229 0.27137214 1.7340001 165 172 141 255
-0.57615763 0.27107307 1.7320001 157 164 133 255
-0.57146376 0.27108723 1.7320001 159 166 137 255
-0.56709731 0.27125821 1.733 156 163 134 255
-0.56240094 0.27127293 1.733 170 177 148 255
-0.55706096 0.27097487 1.7310001 145 152 123 255
-0.55205107 0.27083358 1.7300001 166 172 146 255
-0.54704642 0.27069253 1.7290001 171 178 149 255
-0.54298824 0.27102137 1.7310001 170 179 150 255
-0.53829718 0.27103734 1.7310001 165 174 145 255
-0.53422242 0.27136669 1.733 162 171 142 255
-0.52922016 0.27122653 1.7320001 165 174 145 255
-0.52482867 0.27139974 1.733 177 186 157 255
-0.51923126 0.27094671 1.7300001 165 174 145 255
-0.51454198 0.2709637 1.7300001 162 171 142 255
-0.50985241 0.27098083 1.7300001 169 176 147 255
-0.50545466 0.27115479 1.7310001 151 159 133 255
-0.50047261 0.27101567 1.7300001 172 180 154 255
-0.49549556 0.27087662 1.7290001 167 175 149 255
-0.49052358 0.27073771 1.728 165 173 147 255
-0.48555672 0.27059895 1.7270001 163 171 145 255
-0.48031646 0.27030358 1.725 160 168 142 255
-0.47508657 0.2700083 1.723 164 173 144 255
-0.47014016 0.2698698 1.7220001 161 169 143 255
-0.46546906 0.26988813 1.7220001 161 169 143 255
-0.46106499 0.27006325 1.723 158 166 140 255
-0.45586047 0.26976827 1.7210001 156 164 138 255
-0.45119056 0.26978686 1.7210001 152 160 134 255
-0.4462606 0.2696487 1.72 159 166 137 255
-0.44133568 0.26951066 1.7190001 137 144 115 255
-0.43666953 0.26952937 1.7190001 144 151 122 255
-0.43275687 0.27001864 1.7220001 133 140 109 255
-0.42833006 0.27019432 1.723 134 139 108 255
-0.42340547 0.27005643 1.7220001 150 155 124 255
-0.41848573 0.26991853 1.7210001 140 145 114 255
-0.41381118 0.26993746 1.7210001 139 146 117 255
-0.40961152 0.2702702 1.723 161 167 141 255
-0.40493026 0.27028918 1.723 175 181 155 255
-0.39978376 0.26999441 1.7210001 136 142 116 255
-0.39510664 0.27001339 1.7210001 141 147 121 255
-0.39065573 0.27018926 1.7220001 142 148 122 255
-0.38619864 0.27036512 1.723 158 166 140 255
-0.38151398 0.27038407 1.723 171 179 154 255
-0.37617248 0.26993215 1.72 155 165 140 255
-0.37127864 0.26979405 1.7190001 143 153 127 255
-0.36660272 0.26981279 1.7190001 131 141 115 255
-0.3617155 0.26967454 1.7180001 169 179 153 255
-0.35662523 0.26937923 1.7160001 179 189 163 255
-0.3515451 0.2690838 1.7140001 144 152 126 255
-0.34667745 0.26894522 1.7130001 167 177 151 255
-0.34181455 0.26880661 1.7120001 137 145 119 255
-0.33695632 0.26866785 1.7110001 144 152 126 255
-0.33190858 0.26837194 1.7090001 145 155 129 255
-0.32687101 0.26807591 1.7070001 137 147 122 255
-0.32203227 0.26793674 1.7060001 160 170 145 255
-0.31757036 0.26811162 1.7070001 165 175 150 255
-0.31273559 0.26797223 1.7060001 176 186 161 255
-0.3079055 0.26783267 1.705 150 157 135 255
-0.30272439 0.26737878 1.702 158 165 143 255
-0.29790917 0.26723894 1.7010001 163 171 146 255
-0.29292622 0.26694179 1.6990001 162 170 145 255
-0.28829283 0.26695874 1.6990001 152 162 139 255
-0.28349167 0.26681837 1.6980001 152 160 135 255
-0.2788595 0.266835 1.6980001 161 171 146 255
-0.27406505 0.26669428 1.697 169 179 156 255
-0.26927531 0.26655337 1.6960001 163 173 150 255
-0.26464638 0.2665695 1.6960001 135 145 120 255
-0.2597101 0.26627105 1.6940001 146 154 128 255
-0.25478393 0.26597235 1.692 143 151 126 255
-0.25001585 0.26583067 1.6910001 144 154 129 255
-0.24554273 0.26600313 1.692 160 170 147 255
-0.24077873 0.26586109 1.6910001 175 185 162 255
-0.23587975 0.26556152 1.6890001 145 155 132 255
-0.23071717 0.26494724 1.6850001 134 144 121 255
-0.22624676 0.26511893 1.6860001 141 151 125 255
-0.22177015 0.26529035 1.687 178 188 162 255
-0.21715872 0.26530439 1.687 139 149 123 255
-0.21229459 0.26500365 1.6850001 150 160 134 255
-0.20756403 0.26485991 1.6840001 147 157 131 255
-0.2030793 0.2650305 1.6850001 156 166 140 255
-0.19823511 0.26472896 1.6830001 136 146 121 255
-0.1935163 0.26458448 1.682 170 180 154 255
-0.18868999 0.26428241 1.6800001 169 179 154 255
-0.18398364 0.26413742 1.6790001 176 186 160 255
-0.17917527 0.26383477 1.677 162 172 146 255
-0.17448141 0.26368922 1.6760001 171 180 151 255
-0.16958968 0.26322871 1.6730001 174 183 154 255
-0.16491108 0.26308256 1.6720001 170 179 150 255
-0.16014151 0.26277879 1.6700001 171 180 151 255
-0.15566181 0.26294681 1.6710001 172 181 152 255
-0.15099528 0.26279986 1.6700001 170 178 152 255
-0.14624603 0.26249525 1.6680001 170 177 148 255
-0.1414223 0.26203296 1.6650001 177 180 156 255
-0.13694331 0.26219985 1.6660001 193 192 168 255
-0.13253783 0.26252386 1.6680001 34 29 8 255
-0.12812091 0.2628476 1.6700001 76 62 42 255
-0.12324873 0.26222673 1.6660001 91 69 51 255
-0.11839801 0.26160547 1.6620001 94 71 51 255
-0.11363734 0.2611413 1.659 101 75 57 255
-0.10895842 0.26083422 1.6570001 110 84 66 255
-0.10435311 0.26068428 1.6560001 113 89 73 255
-0.0995721 0.26006174 1.6520001 121 97 81 255
-0.094870172 0.25959623 1.649 124 100 84 255
-0.09023916 0.25928789 1.6470001 120 96 80 255
-0.085514687 0.25866437 1.6430001 113 89 73 255
-0.080910452 0.25835535 1.641 107 81 63 255
-0.076270334 0.25788862 1.6380001 104 78 60 255
-0.071734026 0.25773638 1.6370001 103 77 59 255
-0.067202941 0.25758386 1.636 111 85 67 255
-0.0626771 0.25743103 1.6350001 114 88 69 255
-0.058298871 0.25790769 1.6380001 110 82 64 255
-0.053805426 0.25791168 1.6380001 105 77 59 255
-0.049371991 0.25823027 1.6400001 100 72 54 255
-0.044790592 0.25776124 1.6370001 96 70 52 255
-0.040250111 0.25744939 1.6350001 101 75 57 255
-0.035742316 0.2572946 1.6340001 99 73 55 255
-0.031259019 0.25729701 1.6340001 95 69 51 255
-0.026759215 0.25714165 1.6330001 89 63 44 255
-0.022292079 0.25730085 1.6340001 83 57 38 255
-0.017830273 0.25761724 1.636 80 56 38 255
-0.013373734 0.25824821 1.6400001 72 50 32 255
-0.0088789612 0.25840646 1.641 69 49 31 255
-0.004389334 0.25919431 1.646 63 47 31 255
0.00012774988 0.25998181 1.651 63 48 33 255
0.0046835598 0.26139882 1.6600001 60 49 36 255
0.7248081 0.2772392 1.7730001 177 184 180 255
0.7222268 0.27442271 1.7550001 175 182 178 255
0.72698826 0.2691046 1.7210001 177 184 181 255
0.72742921 0.26754206 1.7110001 177 184 181 255
0.72738934 0.26582375 1.7 176 183 180 255
0.72729135 0.26410604 1.6890001 176 183 180 255
0.72800183 0.26270163 1.6800001 180 187 183 255
0.72779286 0.26098511 1.669 183 190 187 255
0.72971982 0.26005104 1.6630001 181 188 185 255
0.72896665 0.25817934 1.651 181 188 185 255
0.73125994 0.25740293 1.646 182 189 186 255
0.7312929 0.25584519 1.636 180 187 184 255
0.73352194 0.25507 1.631 183 190 189 255
0.73301107 0.25335711 1.6200001 183 190 189 255
0.7333526 0.25195763 1.6110001 184 191 188 255
0.73364717 0.2505587 1.6020001 185 192 189 255
0.73481607 0.24947321 1.595 188 195 192 255
0.73548561 0.24823195 1.5870001 188 195 192 255
0.73518133 0.24667844 1.577 189 196 193 255
0.73482472 0.24512555 1.567 188 195 194 255
0.73441571 0.24357322 1.557 189 196 195 255
0.73585218 0.24264728 1.5510001 189 196 195 255
0.73678112 0.24156551 1.544 191 198 197 255
0.73815423 0.24064083 1.5380001 193 200 199 255
0.73563564 0.23846506 1.524 192 199 198 255
0.73547 0.23707218 1.5150001 191 198 197 255
0.73428106 0.23536688 1.5040001 192 199 198 255
-0.66872305 0.26938629 1.7530001 170 178 163 255
-0.66320682 0.2690866 1.751 171 180 161 255
-0.65619826 0.26817265 1.7450001 168 177 158 255
-0.65034294 0.26772013 1.7420001 168 178 161 255
-0.64524591 0.26757538 1.7410001 168 178 161 255
-0.64015502 0.26743105 1.7400001 166 176 159 255
-0.63580042 0.26759449 1.7410001 152 162 145 255
-0.63071615 0.26745099 1.7400001 168 177 158 255
-0.62563777 0.26730776 1.7390001 154 163 144 255
-0.62020832 0.26701126 1.7370001 160 166 148 255
-0.6154989 0.26702252 1.7370001 176 183 162 255
-0.60938323 0.2664192 1.733 161 168 146 255
