ply
format ascii 1.0
comment PCL generated
element vertex 957
property float x
property float y
property float z
property uchar red
property uchar green
property uchar blue
property uchar alpha
element camera 0
property float view_px
property float view_py
property float view_pz
property float x_axisx
property float x_axisy
property float x_axisz
property float y_axisx
property float y_axisy
property float y_axisz
property float z_axisx
property float z_axisy
property float z_axisz
property float focal
property float scalex
property float scaley
property float centerx
property float centery
property int viewportx
property int viewporty
property float k1
property float k2
end_header
0.75891161 -0.021348571 1.6980001 190 195 201 255
0.75679433 -0.021160007 1.6830001 188 193 199 255
0.75369233 -0.020946352 1.6660001 192 195 201 255
0.75140995 -0.020757891 1.651 193 196 202 255
0.74950564 -0.020582059 1.6370001 190 195 201 255
0.74936926 -0.020456571 1.6270001 192 197 203 255
0.74871725 -0.020318562 1.6160001 192 197 203 255
0.74940538 -0.020218326 1.608 191 196 202 255
0.74723959 -0.020042704 1.5940001 192 197 204 255
0.74547088 -0.019879702 1.5810001 192 197 204 255
0.74410766 -0.019729326 1.5690001 192 197 204 255
0.74363518 -0.019604148 1.559 188 193 200 255
0.74119145 -0.019428724 1.5450001 188 193 199 255
0.73867351 -0.019253343 1.531 191 196 202 255
0.73753709 -0.019115742 1.5200001 194 199 205 255
0.73634291 -0.018978188 1.5090001 197 202 208 255
-0.72969806 -0.030578587 1.9970001 166 170 163 255
-0.7224806 -0.030503821 1.9920001 166 170 162 255
-0.71097064 -0.030245319 1.9750001 165 170 159 255
-0.69883841 -0.029956192 1.9560001 166 171 160 255
-0.68893671 -0.029758964 1.9430001 166 171 160 255
-0.68297607 -0.029730234 1.9410001 168 173 162 255
-0.67632806 -0.0296709 1.937 174 179 168 255
-0.66762298 -0.029519677 1.927 177 181 173 255
-0.65828466 -0.029337833 1.9150001 179 183 175 255
-0.64969337 -0.029186634 1.9050001 182 186 178 255
-0.6425094 -0.029096732 1.899 183 187 179 255
-0.63535804 -0.029006852 1.8930001 182 188 180 255
-0.62957066 -0.028978283 1.891 177 183 175 255
-0.62346363 -0.028934408 1.8880001 172 177 166 255
-0.61770034 -0.028905885 1.886 177 182 171 255
-0.61162275 -0.028862055 1.8830001 165 170 158 255
-0.60652751 -0.028864225 1.8830001 167 172 161 255
-0.60111266 -0.028851096 1.8820001 177 182 171 255
-0.59538615 -0.028822653 1.8800001 187 192 181 255
-0.58967018 -0.028794229 1.8780001 159 164 153 255
-0.58458716 -0.028796485 1.8780001 156 161 149 255
-0.57919514 -0.028783426 1.8770001 157 162 150 255
-0.57411408 -0.028785722 1.8770001 155 160 149 255
-0.56903249 -0.028788038 1.8770001 154 159 148 255
-0.56395048 -0.02879037 1.8770001 149 153 145 255
-0.55857015 -0.028777378 1.876 150 155 144 255
-0.55378479 -0.028795082 1.8770001 154 159 148 255
-0.54870123 -0.028797463 1.8770001 151 156 145 255
-0.54419619 -0.028830541 1.8790001 163 168 157 255
-0.53910589 -0.02883295 1.8790001 163 167 159 255
-0.53401506 -0.028835371 1.8790001 163 169 161 255
-0.52864194 -0.028822456 1.8780001 159 165 157 255
-0.52327371 -0.028809547 1.8770001 162 168 160 255
-0.51846224 -0.028827345 1.8780001 165 171 163 255
-0.51255119 -0.02878375 1.8750001 176 182 174 255
-0.50584376 -0.028694097 1.8690001 182 189 178 255
-0.499704 -0.028635142 1.8650001 175 182 171 255
-0.49411556 -0.028606892 1.863 175 181 173 255
-0.48827469 -0.028563287 1.8600001 170 176 168 255
-0.48218945 -0.028504319 1.8560001 177 183 175 255
-0.4766393 -0.028476063 1.8540001 185 191 183 255
-0.47033605 -0.028401721 1.8490001 185 191 183 255
-0.4638074 -0.028312005 1.8430001 187 194 183 255
-0.45780846 -0.028253004 1.8390001 196 201 189 255
-0.45281518 -0.028255448 1.8390001 191 196 184 255
-0.44757757 -0.028242528 1.8380001 175 180 168 255
-0.44234449 -0.028229602 1.8370001 174 179 165 255
-0.43687782 -0.028201303 1.835 177 182 168 255
-0.4314211 -0.02817299 1.8330001 175 181 164 255
-0.42597437 -0.028144676 1.8310001 174 180 163 255
-0.42099738 -0.028147092 1.8310001 146 151 137 255
-0.41624674 -0.028164882 1.8320001 157 160 146 255
-0.41148964 -0.028182663 1.8330001 168 171 159 255
-0.40650436 -0.028185066 1.8330001 191 194 182 255
-0.40108004 -0.028156703 1.8310001 192 195 181 255
-0.39523301 -0.028097572 1.8270001 166 170 152 255
-0.38983396 -0.028069178 1.825 177 179 159 255
-0.38465568 -0.028056156 1.8240001 176 179 157 255
-0.37989819 -0.028073879 1.825 181 186 165 255
-0.37431258 -0.028030066 1.8220001 204 210 193 255
-0.36874226 -0.027986225 1.8190001 197 202 188 255
-0.36298728 -0.02792698 1.8150001 183 191 174 255
-0.35764769 -0.027898489 1.8130001 171 177 160 255
-0.35270709 -0.027900757 1.8130001 164 170 152 255
-0.34814909 -0.027933788 1.8150001 153 158 137 255
-0.34395745 -0.027997598 1.8190001 151 156 134 255
-0.33937022 -0.028030612 1.8210001 134 139 118 255
-0.33495471 -0.028079007 1.8240001 137 139 119 255
-0.33052191 -0.028127396 1.8270001 169 172 150 255
-0.32624984 -0.028191166 1.8310001 165 168 146 255
-0.32177952 -0.02823953 1.8340001 138 141 119 255
-0.31763729 -0.028318679 1.8390001 133 136 112 255
-0.3138068 -0.028428625 1.8460001 130 133 111 255
-0.3096025 -0.02850776 1.8510001 122 125 103 255
-0.30520546 -0.028571485 1.8550001 114 117 95 255
-0.30078545 -0.028635191 1.8590001 110 112 92 255
-0.29586551 -0.028652674 1.8600001 106 108 88 255
-0.29109541 -0.028685542 1.8620001 84 84 66 255
-0.28585261 -0.028672166 1.8610001 33 33 15 255
-0.27985996 -0.028581725 1.8550001 27 26 10 255
-0.27375105 -0.028475836 1.848 28 25 11 255
-0.26855186 -0.028462369 1.8470001 30 27 13 255
-0.26349992 -0.028464286 1.8470001 31 28 14 255
-0.2591466 -0.028543232 1.8520001 28 25 11 255
-0.25449067 -0.02859134 1.8550001 26 24 13 255
-0.25008634 -0.028670253 1.8600001 33 31 20 255
-0.24539027 -0.028718311 1.863 28 28 18 255
-0.2411928 -0.028828016 1.8700001 37 39 31 255
-0.23695613 -0.028937705 1.8770001 37 38 32 255
-0.23218624 -0.028985703 1.8800001 60 63 59 255
-0.22703674 -0.028987417 1.8800001 69 72 69 255
-0.2212963 -0.028912006 1.8750001 98 102 104 255
-0.21523656 -0.02879029 1.8670001 96 99 103 255
-0.20966998 -0.02873021 1.863 84 87 93 255
-0.20434415 -0.02870094 1.8610001 85 88 94 255
-0.19934969 -0.028717902 1.8620001 103 106 110 255
-0.1939317 -0.028673138 1.8590001 101 104 108 255
-0.18893568 -0.028690031 1.8600001 88 91 95 255
-0.18383464 -0.028691471 1.8600001 81 85 87 255
-0.17873287 -0.028692871 1.8600001 81 85 85 255
-0.17363034 -0.028694237 1.8600001 81 84 81 255
-0.16843657 -0.028680142 1.8590001 88 91 88 255
-0.16377473 -0.02875858 1.8640001 82 85 81 255
-0.15899971 -0.02882156 1.868 77 80 76 255
-0.15428445 -0.02889994 1.8730001 76 77 71 255
-0.14954109 -0.028978284 1.8780001 71 72 66 255
-0.14507721 -0.029118324 1.8870001 71 72 66 255
-0.14034091 -0.029212041 1.8930001 72 73 67 255
-0.13542828 -0.029274866 1.8970001 73 74 68 255
-0.13035583 -0.029306788 1.899 73 76 72 255
-0.12520596 -0.029323243 1.9000001 72 75 71 255
-0.12005008 -0.029339654 1.9010001 71 74 70 255
-0.11470696 -0.029309725 1.899 71 74 70 255
-0.10937437 -0.029279757 1.8970001 74 77 74 255
-0.10405231 -0.029249746 1.8950001 86 89 86 255
-0.099105909 -0.029327741 1.9000001 79 82 79 255
-0.094428092 -0.029498316 1.9110001 71 74 70 255
-0.089362755 -0.029560803 1.9150001 68 71 67 255
-0.083967648 -0.029515198 1.9120001 70 73 69 255
-0.078547493 -0.029454108 1.9080001 76 79 75 255
-0.073264249 -0.029439285 1.9070001 77 80 76 255
-0.068093188 -0.029470736 1.909 78 81 77 255
-0.06310837 -0.029594777 1.9170001 72 75 71 255
-0.057958595 -0.029657019 1.9210001 65 69 62 255
-0.052676894 -0.029657472 1.9210001 66 70 63 255
-0.047345616 -0.029627005 1.9190001 70 74 67 255
-0.042068973 -0.02962737 1.9190001 72 76 69 255
-0.036830503 -0.029658569 1.9210001 71 75 68 255
-0.03151517 -0.029627971 1.9190001 73 77 70 255
-0.026279066 -0.029674523 1.9220001 72 76 69 255
-0.02098266 -0.029659281 1.9210001 69 73 66 255
-0.015708005 -0.029674871 1.9220001 74 78 71 255
-0.010422358 -0.029674975 1.9220001 72 76 69 255
-0.005147357 -0.0297368 1.9260001 72 73 67 255
0.0001497459 -0.02981402 1.9310001 69 72 68 255
0.0054715206 -0.029875753 1.9350001 70 74 67 255
0.010809696 -0.029922007 1.9380001 70 73 69 255
0.016164325 -0.029968215 1.9410001 73 76 72 255
0.021535382 -0.030014377 1.9440001 71 75 68 255
0.026895188 -0.030029619 1.9450001 72 76 69 255
0.032243799 -0.030029375 1.9450001 71 75 68 255
0.037592266 -0.03002909 1.9450001 71 75 68 255
0.0429185 -0.030013323 1.9440001 71 75 68 255
0.048313521 -0.030043826 1.9460001 74 78 71 255
0.053746916 -0.030089727 1.9490001 75 79 72 255
0.059287544 -0.030181896 1.955 76 80 73 255
0.064794756 -0.030243143 1.9590001 76 80 73 255
0.070216209 -0.030258032 1.96 74 77 73 255
0.075604282 -0.030257436 1.96 75 78 74 255
0.081074685 -0.030287677 1.9620001 76 79 75 255
0.086599797 -0.030333309 1.9650002 76 79 75 255
0.092094205 -0.030363459 1.9670001 76 79 75 255
0.097400948 -0.03033182 1.9650002 76 79 75 255
0.10264397 -0.030284707 1.9620001 76 79 75 255
0.10798017 -0.03026842 1.9610001 75 78 74 255
0.11354169 -0.030313836 1.9640001 70 73 69 255
0.1191192 -0.030359205 1.9670001 76 77 73 255
0.12464937 -0.030389095 1.9690001 75 76 72 255
0.13012399 -0.03040351 1.9700001 67 71 64 255
0.13546592 -0.03038702 1.9690001 72 75 71 255
0.14108799 -0.030432217 1.9720001 77 80 76 255
0.14657736 -0.030446505 1.973 72 75 71 255
0.15207162 -0.030460753 1.9740001 75 78 74 255
0.15757078 -0.030474965 1.9750001 76 79 75 255
0.16323979 -0.030519988 1.978 75 78 74 255
0.16866881 -0.030518685 1.978 72 75 71 255
0.17400911 -0.030501915 1.9770001 73 74 70 255
0.17952475 -0.030515963 1.978 77 78 74 255
0.18551268 -0.030607106 1.9840001 79 80 76 255
0.19172528 -0.030729055 1.9920001 75 76 72 255
0.19778302 -0.030820103 1.9980001 70 74 67 255
0.20346597 -0.030849406 2 69 73 66 255
0.21991599 -0.030844547 2 71 75 68 255
0.22472149 -0.030750331 1.9940001 71 75 68 255
0.22972409 -0.030686928 1.9900001 71 74 70 255
0.23494023 -0.030654334 1.988 73 76 72 255
0.24050735 -0.030667972 1.9890001 76 79 76 255
0.24620265 -0.03069699 1.9910001 80 83 80 255
0.25152883 -0.030679721 1.9900001 77 80 77 255
0.25723594 -0.030708669 1.9920001 76 79 76 255
0.26255748 -0.030691335 1.9910001 78 81 78 255
0.26841107 -0.030735629 1.9940001 78 80 80 255
0.27414274 -0.030764475 1.9960001 80 82 82 255
0.64960605 -0.030639935 1.9990001 23 24 18 255
0.65435964 -0.030607006 1.9970001 17 19 9 255
0.65943253 -0.03058943 1.9960001 26 29 17 255
0.66283429 -0.030495265 1.9900001 23 25 15 255
0.66620356 -0.030401142 1.9840001 24 27 15 255
0.66954017 -0.030307062 1.978 24 27 15 255
0.673868 -0.030258993 1.9750001 21 24 12 255
0.67921114 -0.030256916 1.9750001 20 23 11 255
0.68559408 -0.030300831 1.978 21 24 12 255
0.69094551 -0.030298825 1.978 19 22 10 255
0.69524097 -0.030250901 1.9750001 20 23 9 255
0.69881082 -0.030172391 1.9700001 19 22 10 255
0.70449835 -0.030185809 1.9710001 20 23 11 255
0.70947134 -0.030168643 1.9700001 18 21 9 255
0.71589059 -0.030212771 1.973 18 21 9 255
0.72342294 -0.030302865 1.9790001 18 20 10 255
0.73577553 -0.030592045 1.9980001 15 20 8 255
0.74155402 -0.03060564 1.9990001 26 32 24 255
0.74621737 -0.030573353 1.9970001 56 62 55 255
0.74898863 -0.030464569 1.9900001 86 93 90 255
0.7521016 -0.030371152 1.9840001 117 124 123 255
0.75327379 -0.030201256 1.973 142 147 153 255
0.75477153 -0.030046726 1.9630001 148 153 159 255
0.75699031 -0.029922877 1.955 151 156 162 255
0.75877649 -0.02978378 1.9460001 153 158 164 255
0.75776649 -0.029537618 1.9300001 157 162 168 255
0.75864726 -0.029368049 1.9190001 162 167 173 255
0.75628501 -0.029076116 1.9000001 164 169 175 255
0.75662607 -0.028891381 1.8880001 164 169 175 255
0.75730646 -0.028722012 1.8770001 168 173 180 255
0.76077169 -0.028659822 1.8730001 169 174 181 255
0.76176274 -0.028505882 1.863 172 177 184 255
0.75981975 -0.028244907 1.8460001 175 180 187 255
0.75778562 -0.027984003 1.8290001 175 180 187 255
0.75941378 -0.027860869 1.8210001 178 183 190 255
0.76267886 -0.027798995 1.817 178 183 190 255
0.76338887 -0.02764539 1.807 181 186 192 255
0.76319551 -0.027461255 1.7950001 181 186 192 255
0.76336652 -0.027292484 1.784 181 186 192 255
0.76563227 -0.027200274 1.7780001 182 187 193 255
0.76396698 -0.026970444 1.7630001 185 190 197 255
0.76134968 -0.026710086 1.7460001 187 192 199 255
0.76083547 -0.026526285 1.7340001 187 192 199 255
0.76202363 -0.026403742 1.7260001 187 192 199 255
0.76405859 -0.026311861 1.72 188 193 199 255
0.76248717 -0.026097666 1.7060001 189 194 200 255
0.75994205 -0.025852941 1.6900001 189 194 200 255
0.75731158 -0.025608279 1.674 191 194 200 255
0.75505114 -0.025378982 1.659 187 190 196 255
0.7531687 -0.025165046 1.6450001 176 179 185 255
0.75167251 -0.024966471 1.6320001 187 192 198 255
0.75149751 -0.024813853 1.6220001 190 195 201 255
0.75127006 -0.024661303 1.6120001 193 198 204 255
0.75052148 -0.024493515 1.6010001 189 194 201 255
0.74877203 -0.02429519 1.5880001 191 196 203 255
0.74695373 -0.02409693 1.575 193 198 205 255
0.74363577 -0.023852829 1.559 191 196 203 255
0.74119216 -0.023639388 1.5450001 193 198 204 255
0.74012172 -0.023471905 1.534 195 200 207 255
0.74044925 -0.023350388 1.526 196 201 207 255
0.73927158 -0.023183031 1.5150001 196 201 207 255
1.2444999 -0.027832998 1.7920001 211 216 223 255
-0.93827683 -0.034292348 1.9020001 50 44 41 255
-0.93010437 -0.034182541 1.8960001 40 31 26 255
-0.91757786 -0.033910595 1.881 42 24 18 255
-0.90465218 -0.03362076 1.8650001 92 72 64 255
-0.89664084 -0.033511318 1.8590001 118 99 89 255
-0.8953796 -0.033654351 1.8670001 87 70 60 255
-0.89073974 -0.033671297 1.868 167 151 141 255
-0.72921085 -0.03573446 1.9810001 163 167 160 255
-0.72165745 -0.035628274 1.9750001 163 167 159 255
-0.712686 -0.035449959 1.9650002 163 168 157 255
-0.70196903 -0.035181463 1.95 164 169 157 255
-0.69169074 -0.034931023 1.9360001 168 173 162 255
-0.68290699 -0.034752775 1.9260001 172 177 166 255
-0.67664033 -0.034700856 1.9230001 177 182 171 255
-0.66969192 -0.03461289 1.9180001 180 184 176 255
-0.66173106 -0.0344708 1.9100001 184 188 180 255
-0.65312624 -0.034292638 1.9000001 186 191 180 255
-0.64525753 -0.034150586 1.8920001 188 192 184 255
-0.63844711 -0.034062702 1.8870001 181 187 180 255
-0.63199943 -0.033992901 1.8830001 171 177 169 255
-0.62757081 -0.034031443 1.8850001 164 171 160 255
-0.62214041 -0.034015857 1.8840001 165 170 159 255
-0.61671543 -0.0340003 1.8830001 173 178 167 255
-0.61064601 -0.033948656 1.8800001 160 165 153 255
-0.60555881 -0.033951208 1.8800001 182 187 176 255
-0.59983265 -0.033917669 1.8780001 186 192 184 255
-0.59380019 -0.033866089 1.8750001 163 170 159 255
-0.58778375 -0.033814531 1.8720001 165 170 159 255
-0.582717 -0.03381718 1.8720001 159 164 153 255
-0.5773412 -0.033801783 1.8710001 154 159 147 255
-0.57258224 -0.033822548 1.8720001 154 159 148 255
-0.56690794 -0.033789128 1.8700001 150 155 143 255
-0.56214523 -0.033809926 1.8710001 151 156 144 255
-0.5570789 -0.033812683 1.8710001 147 150 138 255
-0.55260211 -0.033851609 1.8730001 151 154 140 255
-0.54694462 -0.033818249 1.8710001 171 174 160 255
-0.54245591 -0.033857215 1.8730001 169 172 160 255
-0.53680801 -0.033823881 1.8710001 161 166 155 255
-0.53202301 -0.033844799 1.8720001 158 163 152 255
-0.52666885 -0.03382957 1.8710001 163 170 159 255
-0.52131963 -0.033814348 1.8700001 163 170 159 255
-0.51542276 -0.033762965 1.8670001 176 183 171 255
-0.50926816 -0.0336935 1.863 176 181 169 255
-0.50286394 -0.033605944 1.858 161 166 152 255
-0.49728984 -0.033572648 1.8560001 162 167 153 255
-0.49172589 -0.033539351 1.8540001 177 182 170 255
-0.48669693 -0.033542238 1.8540001 185 190 178 255
-0.48088774 -0.033490848 1.8510001 201 206 194 255
-0.47509414 -0.033439457 1.848 172 177 165 255
-0.46829838 -0.033315666 1.8410001 189 194 182 255
-0.46204317 -0.033228058 1.8360001 191 196 182 255
-0.45581424 -0.033140436 1.8310001 195 200 186 255
-0.45035025 -0.033107098 1.8290001 186 191 177 255
-0.44489625 -0.033073749 1.8270001 179 184 170 255
-0.43993384 -0.03307661 1.8270001 178 183 169 255
-0.43449441 -0.03304325 1.825 174 179 165 255
-0.42977098 -0.033064209 1.8260001 180 185 171 255
-0.42457587 -0.033048943 1.825 150 155 141 255
-0.41984513 -0.03306989 1.8260001 149 152 138 255
-0.41465357 -0.033054609 1.825 151 154 140 255
-0.41014007 -0.033093661 1.8270001 196 199 185 255
-0.40539289 -0.03311459 1.8280001 188 192 175 255
-0.39998218 -0.03308117 1.8260001 166 168 150 255
-0.39393246 -0.03299338 1.8210001 180 183 161 255
-0.38876331 -0.032978036 1.8200001 176 179 155 255
-0.38380957 -0.032980803 1.8200001 177 180 156 255
-0.37885484 -0.03298356 1.8200001 177 182 160 255
-0.37348828 -0.032950055 1.8180001 201 207 189 255
-0.36752346 -0.032862149 1.8130001 201 207 190 255
-0.36198485 -0.032810468 1.8100001 181 188 176 255
-0.35665885 -0.032776888 1.8080001 172 180 165 255
-0.3517319 -0.032779552 1.8080001 160 166 149 255
-0.34718758 -0.032818463 1.8100001 158 162 144 255
-0.34300953 -0.03289362 1.8140001 146 148 128 255
-0.33843598 -0.032932509 1.8160001 141 144 122 255
-0.3344014 -0.03302579 1.8210001 136 139 115 255
-0.33015767 -0.033100929 1.825 164 165 141 255
-0.32589111 -0.03317605 1.8290001 159 160 136 255
-0.32107538 -0.033196747 1.83 132 133 109 255
-0.31659862 -0.033253703 1.8330001 135 136 112 255
-0.31244451 -0.033346932 1.8380001 129 130 106 255
-0.30826211 -0.03344015 1.8430001 128 130 104 255
-0.3040514 -0.033533357 1.848 128 130 104 255
-0.29948881 -0.033590257 1.8510001 99 100 76 255
-0.29490882 -0.033647135 1.8540001 83 84 62 255
-0.28984252 -0.033649549 1.8540001 45 45 27 255
-0.284468 -0.03361563 1.8520001 26 24 6 255
-0.27819827 -0.033472762 1.8440001 30 27 11 255
-0.27241576 -0.033384308 1.8390001 28 25 9 255
-0.2670958 -0.033350274 1.8370001 31 28 12 255
-0.26235655 -0.033388827 1.8390001 34 30 14 255
-0.25802514 -0.033481825 1.8440001 37 33 17 255
-0.25325394 -0.03352033 1.8460001 29 26 10 255
-0.24887425 -0.033613287 1.8510001 30 27 13 255
-0.24420285 -0.033669896 1.8540001 33 30 16 255
-0.2399011 -0.033780966 1.8600001 20 18 7 255
-0.23556557 -0.033892017 1.8660001 23 23 13 255
-0.23094934 -0.033966713 1.8700001 21 22 16 255
-0.22582728 -0.033968724 1.8700001 63 67 60 255
-0.22023226 -0.033898033 1.8660001 82 86 86 255
-0.21454304 -0.033809125 1.8610001 95 99 101 255
-0.208993 -0.033738345 1.8570001 84 87 91 255
-0.20368364 -0.033703852 1.8550001 90 93 99 255
-0.19817035 -0.033632975 1.8510001 104 107 111 255
-0.19278257 -0.033580229 1.848 96 99 103 255
-0.18761361 -0.033563774 1.8470001 85 88 92 255
-0.1827459 -0.033601798 1.8490001 83 87 89 255
-0.17777042 -0.033621617 1.8500001 84 86 86 255
-0.17278874 -0.033641394 1.8510001 74 76 76 255
-0.1678915 -0.033679307 1.853 81 84 81 255
-0.16333406 -0.033789884 1.8590001 74 77 74 255
-0.15865788 -0.033882249 1.8640001 69 72 68 255
-0.15395363 -0.033974588 1.8690001 68 72 65 255
-0.14906205 -0.034030527 1.8720001 70 71 65 255
-0.14415337 -0.034086429 1.8750001 68 69 63 255
-0.13922764 -0.034142289 1.8780001 73 74 68 255
-0.13428485 -0.034198109 1.881 76 77 71 255
-0.12959963 -0.034326613 1.8880001 78 81 77 255
-0.1246777 -0.034400538 1.8920001 78 81 77 255
-0.11973328 -0.034474414 1.8960001 72 75 71 255
-0.11446436 -0.034457333 1.8950001 70 73 69 255
-0.10914279 -0.034422021 1.8930001 73 76 73 255
-0.10383175 -0.034386665 1.891 82 85 82 255
-0.098948561 -0.034496736 1.8970001 78 81 77 255
-0.094229616 -0.034679506 1.9070001 71 74 70 255
-0.089128658 -0.034734935 1.9100001 64 67 63 255
-0.083791249 -0.034699388 1.9080001 70 74 67 255
-0.078299791 -0.034591042 1.9020001 72 75 71 255
-0.073109932 -0.034609955 1.9030001 74 77 73 255
-0.068056919 -0.034701563 1.9080001 75 78 74 255
-0.063140728 -0.034884069 1.9180001 71 74 70 255
-0.057988252 -0.034957401 1.9220001 65 69 62 255
-0.052648999 -0.034921553 1.9200001 63 67 60 255
-0.04729585 -0.034867473 1.9170001 67 71 64 255
-0.042068601 -0.034904279 1.9190001 65 69 62 255
-0.036811002 -0.034922849 1.9200001 67 71 64 255
-0.031531315 -0.034923177 1.9200001 67 71 64 255
-0.026251491 -0.034923457 1.9200001 67 71 64 255
-0.020960627 -0.034905493 1.9190001 70 71 65 255
-0.015691519 -0.034923863 1.9200001 73 74 68 255
-0.010416843 -0.034942176 1.9210001 71 72 66 255
-0.0051419656 -0.034996822 1.9240001 73 74 68 255
0.00014943436 -0.035051413 1.927 71 75 68 255
0.0054601617 -0.035124145 1.9310001 68 72 65 255
0.010792866 -0.035196826 1.9350001 72 75 71 255
0.016155852 -0.035287645 1.9400001 68 71 67 255
0.021535192 -0.035360221 1.9440001 71 75 68 255
0.026867291 -0.035341796 1.9430001 73 77 70 255
0.032210357 -0.035341512 1.9430001 69 73 66 255
0.037533954 -0.035322987 1.9420002 70 74 67 255
0.042873967 -0.035322599 1.9420002 70 74 67 255
0.048213791 -0.035322163 1.9420002 69 73 66 255
0.05363613 -0.035376232 1.9450001 69 73 66 255
0.059135389 -0.035466634 1.95 72 76 69 255
0.064694963 -0.035575166 1.9560001 74 78 71 255
0.070108123 -0.035592712 1.9570001 75 79 72 255
0.075487897 -0.035592012 1.9570001 76 80 73 255
0.080949999 -0.035627637 1.9590001 75 79 72 255
0.086510889 -0.035699587 1.9630001 75 79 72 255
0.091999762 -0.035735108 1.9650002 74 78 71 255
0.097300954 -0.035697829 1.9630001 74 78 71 255
0.10259074 -0.035660513 1.9610001 76 79 75 255
0.10792416 -0.035641328 1.96 75 78 74 255
0.11348287 -0.035694834 1.9630001 75 78 74 255
0.11899704 -0.035730105 1.9650002 78 79 75 255
0.12445837 -0.035747137 1.9660001 71 72 66 255
0.12985863 -0.035745937 1.9660001 72 76 69 255
0.13532715 -0.035762876 1.9670001 73 77 70 255
0.14094371 -0.035816129 1.9700001 73 76 72 255
0.14642751 -0.035832964 1.9710001 73 76 73 255
0.15199329 -0.035867929 1.973 72 75 71 255
0.1576492 -0.03592103 1.9760001 72 75 71 255
0.16323839 -0.035955895 1.978 73 76 72 255
0.16875264 -0.035972539 1.9790001 73 76 72 255
0.17409565 -0.03595278 1.978 74 77 73 255
0.17970476 -0.035987508 1.9800001 77 78 74 255
0.18569812 -0.036094882 1.9860001 74 77 73 255
0.19162743 -0.036184032 1.9910001 66 67 61 255
0.19748439 -0.036254954 1.9950001 71 75 68 255
0.20295562 -0.036253139 1.9950001 73 77 70 255
0.20873946 -0.036305789 1.9980001 74 75 69 255
0.21432447 -0.036322054 1.9990001 73 77 70 255
0.21980423 -0.036320105 1.9990001 71 75 68 255
0.22483236 -0.036245447 1.9950001 71 75 68 255
0.22983764 -0.036170747 1.9910001 70 74 67 255
0.23505652 -0.036132354 1.9890001 73 76 72 255
0.24050537 -0.03613025 1.9890001 77 80 77 255
0.24595332 -0.036128107 1.9890001 79 82 79 255
0.25127399 -0.036107767 1.988 76 79 76 255
0.25671732 -0.036105551 1.988 76 79 76 255
0.26202792 -0.036085136 1.9870001 81 84 81 255
0.2677359 -0.036119167 1.9890001 81 84 81 255
0.27372855 -0.036189474 1.9930001 78 81 78 255
0.6590997 -0.036019828 1.9950001 25 28 16 255
0.66216576 -0.03589084 1.988 24 26 16 255
0.66586542 -0.035798009 1.983 23 26 14 255
0.67089182 -0.035777435 1.9820001 22 25 13 255
0.67523038 -0.035720795 1.9790001 21 24 12 255
0.68127233 -0.03575445 1.9810001 21 24 12 255
0.6880182 -0.035824232 1.9850001 20 23 9 255
0.69303918 -0.03580381 1.9840001 20 23 11 255
0.69664687 -0.035711259 1.9790001 21 24 12 255
0.69987279 -0.035600711 1.973 19 22 10 255
0.70521122 -0.035598483 1.973 19 22 10 255
0.71018958 -0.035578262 1.9720001 18 21 9 255
0.71733987 -0.035666324 1.9770001 20 23 11 255
0.72780758 -0.035916787 1.9910001 19 21 11 255
0.74696296 -0.036055062 1.9990001 64 72 65 255
0.7493633 -0.035908867 1.9910001 92 99 96 255
0.75209999 -0.035780776 1.9840001 121 128 127 255
0.75327206 -0.035580616 1.973 142 148 151 255
0.75515455 -0.035416607 1.9640001 149 154 160 255
0.75698876 -0.035252664 1.955 153 158 164 255
0.75877506 -0.035088796 1.9460001 155 160 166 255
0.75815773 -0.034816824 1.9310001 158 163 169 255
0.75943667 -0.034635082 1.9210001 159 164 170 255
0.75707984 -0.034291148 1.9020001 163 168 174 255
0.75862867 -0.034127597 1.8930001 165 170 176 255
0.75811231 -0.033873975 1.8790001 167 172 178 255
0.76117671 -0.033782683 1.8740001 169 174 181 255
0.76094401 -0.033547249 1.8610001 172 177 184 255
0.75940722 -0.03325782 1.845 175 180 187 255
0.75902784 -0.033022553 1.8320001 177 182 189 255
0.75983012 -0.032841437 1.8220001 178 183 190 255
0.76309788 -0.032768544 1.8180001 179 184 190 255
0.76381069 -0.03258758 1.8080001 177 182 188 255
0.76489574 -0.032424722 1.7990001 180 185 191 255
0.76507753 -0.032225892 1.7880001 182 187 193 255
0.76649302 -0.032081209 1.7800001 184 189 195 255
0.76483327 -0.031810444 1.7650001 184 189 195 255
0.76396573 -0.031575806 1.7520001 186 191 197 255
0.76390666 -0.031377293 1.7410001 188 193 200 255
0.7655555 -0.03125095 1.7340001 188 193 200 255
0.76583546 -0.031070612 1.7240001 189 194 200 255
0.7642749 -0.030818265 1.71 187 192 198 255
0.76264012 -0.030565998 1.6960001 188 193 199 255
0.75957382 -0.030259743 1.6790001 188 193 199 255
0.75823724 -0.030025648 1.6660001 193 196 202 255
0.75545824 -0.029737564 1.6500001 192 195 201 255
0.75535756 -0.029557694 1.6400001 186 191 197 255
0.75427783 -0.029341849 1.628 188 193 199 255
0.75406682 -0.029162129 1.618 190 195 201 255
0.75239718 -0.028928414 1.605 192 197 204 255
0.75160187 -0.028730821 1.5940001 192 197 204 255
0.74932575 -0.02847922 1.58 194 199 206 255
0.7450676 -0.028155597 1.562 196 201 207 255
0.74119306 -0.027850065 1.5450001 195 200 206 255
0.74012268 -0.027652754 1.534 194 199 206 255
0.74093556 -0.027527623 1.5270001 194 199 206 255
0.7407366 -0.027366515 1.5180001 195 200 207 255
0.73705596 -0.027079275 1.5020001 194 199 206 255
1.2045809 -0.030877767 1.682 212 217 224 255
-0.9883638 -0.038013473 1.8290001 28 26 15 255
-0.93711126 -0.036976125 1.7800001 23 20 6 255
-0.9803682 -0.039088052 1.8820001 26 20 4 255
-0.98033506 -0.039292485 1.8920001 29 21 5 255
-0.97355133 -0.039227076 1.8890001 59 46 31 255
-0.96730113 -0.039182585 1.8870001 88 73 58 255
-0.9620859 -0.039179768 1.8870001 108 95 82 255
-0.96143883 -0.039363947 1.8960001 104 92 83 255
-0.95267677 -0.039216075 1.8890001 86 80 73 255
-0.94053543 -0.039354566 1.8960001 88 85 81 255
-0.92989242 -0.039124239 1.8850001 49 34 29 255
-0.91980416 -0.038914818 1.8750001 126 106 100 255
-0.9073354 -0.038601782 1.8600001 155 130 118 255
-0.90028793 -0.03851717 1.8560001 137 109 98 255
-0.89471281 -0.038494941 1.8550001 102 77 63 255
-0.89250326 -0.038618091 1.8610001 104 74 60 255
-0.89121765 -0.038782857 1.8690001 45 29 14 255
-0.89226174 -0.039051481 1.8820001 42 27 14 255
-0.8880524 -0.039091956 1.8840001 33 24 11 255
-0.87821162 -0.038883559 1.8740001 32 23 10 255
-0.87262118 -0.03886202 1.8730001 37 30 19 255
-0.86750209 -0.038861338 1.8730001 47 39 30 255
-0.86192518 -0.038840014 1.8720001 46 41 31 255
-0.72752506 -0.040740199 1.9620001 159 163 156 255
-0.71963811 -0.040597118 1.955 161 165 158 255
-0.71215492 -0.040474843 1.9490001 167 172 161 255
-0.70470458 -0.040352609 1.9430001 168 173 162 255
-0.6972869 -0.040230408 1.937 165 170 158 255
-0.68775845 -0.03998363 1.9250001 172 177 165 255
-0.67829514 -0.039736867 1.9130001 177 182 171 255
-0.67100811 -0.039614763 1.9070001 182 187 176 255
-0.66445208 -0.039534241 1.9030001 185 189 181 255
-0.65687823 -0.039391425 1.8960001 185 189 181 255
-0.64968616 -0.039269414 1.8900001 183 188 177 255
-0.64252663 -0.039147429 1.8840001 175 180 169 255
-0.63607621 -0.039067023 1.8800001 171 177 169 255
-0.63065428 -0.039048996 1.8790001 174 180 172 255
-0.62557054 -0.039051786 1.8790001 164 169 158 255
-0.62048668 -0.039054617 1.8790001 179 184 173 255
-0.61507517 -0.039036699 1.8780001 150 155 144 255
-0.60966885 -0.03901881 1.8770001 180 185 173 255
-0.60458976 -0.039021745 1.8770001 184 189 178 255
-0.59887171 -0.038983125 1.8750001 164 168 160 255
-0.59221393 -0.038882155 1.8700001 167 173 165 255
-0.58621103 -0.038822789 1.8670001 140 144 136 255
-0.58084649 -0.03880503 1.8660001 144 148 140 255
-0.57579547 -0.038808092 1.8660001 144 149 138 255
-0.5707441 -0.038811181 1.8660001 144 149 138 255
-0.56538916 -0.038793497 1.8650001 150 155 143 255
-0.56033963 -0.038796633 1.8650001 159 164 150 255
-0.55528951 -0.038799793 1.8650001 169 172 158 255
-0.55082887 -0.038844585 1.8670001 184 187 173 255
-0.54489535 -0.038785364 1.8640001 181 184 170 255
-0.53955668 -0.038767774 1.863 184 187 175 255
-0.53336203 -0.038687758 1.8590001 182 187 175 255
-0.52832538 -0.038690999 1.8590001 174 179 168 255
-0.52328801 -0.038694259 1.8590001 172 179 168 255
-0.5179711 -0.038676709 1.858 174 181 169 255
-0.51155472 -0.038575903 1.853 183 188 174 255
-0.50543809 -0.038495909 1.8490001 172 177 163 255
-0.49961317 -0.038436733 1.8460001 162 168 151 255
-0.49514329 -0.038481668 1.848 176 180 163 255
-0.48986626 -0.038464148 1.8470001 180 185 171 255
-0.48511872 -0.038488276 1.848 193 198 184 255
-0.47880629 -0.038387448 1.8430001 190 195 181 255
-0.4725202 -0.038286608 1.8380001 172 177 163 255
-0.46575162 -0.038144082 1.8310001 186 192 175 255
-0.45977521 -0.038064044 1.8270001 189 195 178 255
-0.45406857 -0.038004823 1.8240001 187 193 176 255
-0.4486236 -0.03796643 1.8220001 183 189 172 255
-0.44318861 -0.03792803 1.8200001 179 184 170 255
-0.43824524 -0.037931308 1.8200001 169 174 160 255
-0.43306285 -0.037913732 1.8190001 174 179 165 255
-0.42835572 -0.037937842 1.8200001 165 170 156 255
-0.42340958 -0.037941102 1.8200001 141 146 132 255
-0.41869247 -0.037965208 1.8210001 151 154 140 255
-0.41351455 -0.037947606 1.8200001 163 166 152 255
-0.40923908 -0.038013399 1.8230001 182 185 171 255
-0.40428105 -0.038016636 1.8230001 169 173 156 255
-0.39888394 -0.037978146 1.8210001 172 174 156 255
-0.39284781 -0.037877072 1.8160001 184 187 165 255
-0.38747874 -0.037838541 1.8140001 167 171 145 255
-0.38254133 -0.037841715 1.8140001 176 180 154 255
-0.37760293 -0.03784487 1.8140001 177 182 160 255
-0.37225267 -0.037806284 1.812 196 202 184 255
-0.36610156 -0.037684213 1.8060001 200 206 189 255
-0.36078203 -0.037645571 1.8040001 182 189 177 255
-0.35547239 -0.037606906 1.802 172 180 165 255
-0.3509509 -0.037651703 1.8040001 158 164 147 255
-0.34641746 -0.037696481 1.8060001 154 158 140 255
-0.34225035 -0.037782997 1.8100001 153 155 135 255
-0.3376877 -0.037827753 1.812 139 142 120 255
-0.33366406 -0.037935127 1.817 144 147 123 255
-0.32925037 -0.038000733 1.8200001 153 156 132 255
-0.32499748 -0.038087212 1.8240001 149 152 128 255
-0.32037085 -0.038131904 1.8260001 138 139 115 255
-0.31607774 -0.038218349 1.83 135 136 112 255
-0.31176186 -0.038304776 1.8340001 132 132 106 255
-0.30742314 -0.038391192 1.8380001 129 131 103 255
-0.3030616 -0.038477592 1.8420001 128 130 102 255
-0.29835361 -0.038522191 1.8440001 129 130 106 255
-0.29347464 -0.038545873 1.845 101 101 81 255
-0.28827661 -0.038527742 1.8440001 39 39 21 255
-0.28292951 -0.038488679 1.8420001 26 25 9 255
-0.27713972 -0.038386885 1.8370001 28 25 11 255
-0.27167264 -0.038326845 1.8340001 29 26 10 255
-0.26636639 -0.038287655 1.8320001 30 27 11 255
-0.26149815 -0.038311124 1.8330001 31 28 12 255
-0.25690335 -0.038376372 1.8360001 33 29 13 255
-0.25229126 -0.038441587 1.8390001 29 26 10 255
-0.24766186 -0.038506776 1.8420001 28 25 9 255
-0.24341029 -0.03863465 1.848 29 26 10 255
-0.23925395 -0.038783409 1.8550001 22 21 7 255
-0.23455343 -0.038848512 1.858 22 22 12 255
-0.22971213 -0.038892668 1.8600001 34 36 28 255
-0.22461751 -0.03889497 1.8600001 69 70 64 255
-0.21916796 -0.03883449 1.8570001 97 102 99 255
-0.21338819 -0.038711216 1.8510001 83 87 87 255
-0.20786557 -0.038629722 1.8470001 87 91 93 255
-0.20225425 -0.038527254 1.8420001 103 107 109 255
-0.19645546 -0.038382895 1.835 101 105 107 255
-0.19111159 -0.038322154 1.8320001 101 105 107 255
-0.18629128 -0.038365956 1.8340001 91 93 95 255
-0.18165694 -0.038451556 1.8380001 91 93 93 255
-0.17671169 -0.038474355 1.8390001 88 91 88 255
-0.17176022 -0.038497109 1.84 84 87 84 255
-0.16707441 -0.038582586 1.8440001 85 88 85 255
-0.16271742 -0.038751721 1.8520001 77 80 76 255
-0.15814561 -0.03887897 1.858 66 69 66 255
-0.15354022 -0.039006181 1.8640001 63 66 62 255
-0.14866243 -0.039070573 1.8670001 62 63 57 255
-0.14361377 -0.039093066 1.868 63 66 62 255
-0.13855904 -0.039115507 1.8690001 70 71 67 255
-0.13356961 -0.039158832 1.8710001 72 75 71 255
-0.12877458 -0.039264891 1.876 72 75 71 255
-0.12401746 -0.039391842 1.8820001 74 77 73 255
-0.11935316 -0.039560609 1.8900001 75 78 74 255
-0.11428199 -0.03960374 1.8920001 71 74 70 255
-0.10896871 -0.039563086 1.8900001 71 74 71 255
-0.10361107 -0.039501447 1.8870001 76 79 76 255
-0.09868674 -0.039607219 1.8920001 81 84 80 255
-0.093882762 -0.039775752 1.9000001 72 75 71 255
-0.088894419 -0.039881423 1.9050001 67 68 64 255
-0.083614722 -0.039861433 1.904 63 66 62 255
-0.078134328 -0.039736707 1.8980001 67 70 66 255
-0.072993919 -0.03977941 1.9000001 76 79 75 255
-0.067984879 -0.039905809 1.9060001 75 79 72 255
-0.063140079 -0.040157776 1.9180001 70 74 67 255
-0.057957482 -0.040221255 1.9210001 64 68 61 255
-0.052675884 -0.04022187 1.9210001 62 66 59 255
-0.047295362 -0.040138669 1.9170001 65 69 62 255
-0.042068165 -0.040181041 1.9190001 63 67 60 255
-0.036810622 -0.040202416 1.9200001 64 68 61 255
-0.031514566 -0.040181857 1.9190001 64 68 61 255
-0.026237546 -0.040182181 1.9190001 63 67 60 255
-0.020927642 -0.040119618 1.9160001 67 68 62 255
-0.015675012 -0.040161703 1.9180001 67 68 62 255
-0.01040589 -0.040182788 1.9190001 66 67 61 255
-0.0051365672 -0.040245689 1.9220001 70 71 65 255
0.00014927772 -0.040308539 1.9250001 68 69 63 255
0.0054487945 -0.040350385 1.927 67 71 64 255
0.010776021 -0.040454995 1.932 68 72 65 255
0.016122375 -0.040538602 1.9360001 71 75 68 255
0.021501735 -0.040643092 1.9410001 66 70 63 255
0.026839357 -0.04064282 1.9410001 67 71 64 255
0.032176871 -0.040642496 1.9410001 70 73 69 255
0.037533566 -0.040663049 1.9420002 67 70 66 255
0.042873524 -0.040662602 1.9420002 67 71 64 255
0.048188463 -0.040641159 1.9410001 68 72 65 255
0.053497698 -0.04061966 1.9400001 71 72 66 255
0.058922503 -0.04068185 1.9430001 69 70 64 255
0.06439662 -0.040764917 1.9470001 72 73 67 255
0.069928281 -0.040868863 1.9520001 75 76 70 255
0.075371407 -0.040909939 1.9540001 77 78 72 255
0.080866523 -0.040971886 1.9570001 73 77 70 255
0.086333722 -0.041012838 1.9590001 73 77 70 255
0.091905177 -0.041095603 1.9630001 73 77 70 255
0.097250387 -0.041073631 1.9620001 73 77 70 255
0.10258969 -0.041051608 1.9610001 73 76 72 255
0.10792306 -0.04102952 1.96 75 78 74 255
0.11348172 -0.041091114 1.9630001 76 79 75 255
0.11893528 -0.041110788 1.9640001 70 71 67 255
0.1243305 -0.041109461 1.9640001 72 76 69 255
0.12972523 -0.04110809 1.9640001 73 77 70 255
0.13532577 -0.041169446 1.9670001 74 78 71 255
0.14094228 -0.041230749 1.9700001 72 75 71 255
0.14635178 -0.041229207 1.9700001 74 77 73 255
0.15183769 -0.041248534 1.9710001 74 77 73 255
0.15748806 -0.041309662 1.9740001 73 76 72 255
0.16307171 -0.041349802 1.9760001 72 75 71 255
0.16866568 -0.041389886 1.978 74 78 71 255
0.17426996 -0.041429926 1.9800001 77 81 74 255
0.17988449 -0.041469894 1.9820001 75 79 72 255
0.18560278 -0.041530736 1.9850001 61 65 58 255
0.1911443 -0.041549675 1.9860001 70 74 67 255
0.19688854 -0.041610409 1.9890001 72 76 69 255
0.2025467 -0.041650161 1.9910001 72 76 69 255
0.208424 -0.041731704 1.9950001 71 75 68 255
0.21410801 -0.041771345 1.9970001 70 74 67 255
0.21969216 -0.041790023 1.9980001 70 74 67 255
0.22483018 -0.041724987 1.9950001 71 75 68 255
0.22983542 -0.041639 1.9910001 72 75 71 255
0.23517247 -0.041615717 1.9900001 71 74 70 255
0.24050307 -0.041592382 1.9890001 76 79 76 255
0.2457037 -0.041548103 1.9870001 77 80 77 255
0.25063965 -0.041461963 1.983 77 82 79 255
0.25594017 -0.041438516 1.9820001 74 79 76 255
0.26162985 -0.041477744 1.9840001 74 79 76 255
0.26746419 -0.041537829 1.9870001 78 81 78 255
0.27372602 -0.041660581 1.9930001 73 78 74 255
0.65843606 -0.041423913 1.9930001 25 28 16 255
0.66182989 -0.041296214 1.9870001 27 28 16 255
0.6648553 -0.041147795 1.9800001 23 24 10 255
0.67156613 -0.041228019 1.9840001 22 23 11 255
0.67693377 -0.041225154 1.9840001 23 24 12 255
0.68402094 -0.041326221 1.9890001 23 24 10 255
0.69009525 -0.041364998 1.9910001 22 23 9 255
0.69443387 -0.041299932 1.988 22 23 11 255
0.69734848 -0.04115184 1.9810001 19 22 10 255
0.70022517 -0.041003812 1.9740001 18 21 9 255
0.70592368 -0.041022021 1.9750001 18 21 9 255
0.71162784 -0.041040283 1.9760001 17 20 8 255
0.72132897 -0.041287038 1.988 18 21 9 255
0.75161952 -0.041462392 1.9970001 85 92 88 255
0.75399345 -0.041294172 1.9890001 130 137 136 255
0.75441563 -0.04102223 1.9760001 141 147 150 255
0.75476819 -0.040750384 1.9630001 147 153 156 255
0.75543827 -0.040499389 1.9510001 152 157 163 255
0.75721383 -0.040310755 1.9420002 155 160 166 255
0.75776345 -0.040059935 1.9300001 158 163 169 255
0.76101643 -0.039954498 1.9250001 161 166 172 255
0.76026279 -0.039641593 1.9100001 163 168 174 255
0.76063108 -0.039391045 1.8980001 165 170 176 255
0.75932139 -0.039057575 1.8820001 166 171 177 255
0.75995702 -0.038827967 1.8710001 170 175 182 255
0.75848967 -0.038494691 1.8550001 172 177 184 255
0.75817138 -0.038223762 1.8420001 174 179 186 255
0.75944114 -0.038035933 1.8330001 176 181 188 255
0.76066327 -0.037848189 1.8240001 176 181 188 255
0.76183784 -0.037660528 1.8150001 179 184 190 255
0.76296508 -0.037472963 1.8060001 178 183 189 255
0.76446992 -0.037306234 1.7980001 178 183 189 255
0.7663607 -0.037160341 1.7910001 181 186 192 255
0.76778442 -0.036993787 1.7830001 183 188 194 255
0.7669996 -0.036723588 1.7700001 185 190 196 255
0.76570958 -0.036432724 1.756 184 189 195 255
0.76522273 -0.036183454 1.7440001 185 190 196 255
0.76599687 -0.035996515 1.7350001 187 192 198 255
0.76539111 -0.035747427 1.723 186 191 197 255
0.76561576 -0.035539918 1.7130001 188 193 199 255
0.76398921 -0.035249513 1.6990001 187 192 198 255
0.76138353 -0.034917708 1.6830001 189 194 200 255
0.75960279 -0.034627479 1.669 190 195 201 255
0.75866359 -0.034378834 1.6570001 189 194 200 255
0.75904268 -0.034192525 1.6480001 189 194 200 255
0.75891155 -0.033985548 1.6380001 188 193 199 255
0.75732982 -0.033716422 1.6250001 190 195 201 255
0.75474179 -0.033405874 1.6100001 191 196 202 255
0.75301713 -0.033136912 1.5970001 190 195 201 255
0.75074941 -0.032847282 1.5830001 194 199 205 255
0.74793053 -0.032536987 1.5680001 194 199 205 255
0.74455214 -0.032206014 1.552 194 199 206 255
0.74301875 -0.031958133 1.5400001 195 200 207 255
0.74287754 -0.031772584 1.531 192 197 204 255
0.74220169 -0.031566367 1.521 196 201 208 255
0.7404924 -0.031318728 1.5090001 196 201 208 255
-1.0237014 -0.044098049 1.8750001 28 28 18 255
-0.99510431 -0.043081604 1.8320001 26 27 15 255
-0.97485858 -0.042418282 1.8040001 25 24 10 255
-0.97466534 -0.042625181 1.8130001 24 22 11 255
-0.95605481 -0.042240176 1.7970001 25 21 10 255
-0.95370376 -0.042353533 1.802 23 19 8 255
-0.98140132 -0.044037636 1.8740001 32 19 4 255
-0.98505992 -0.044433262 1.891 40 26 9 255
-0.98241121 -0.044547051 1.8960001 76 60 44 255
-0.97355467 -0.044379063 1.8890001 93 73 57 255
-0.97294307 -0.044587124 1.8980001 100 80 64 255
-0.96463811 -0.044442978 1.8920001 111 96 83 255
-0.9604274 -0.04448691 1.8940001 117 103 93 255
-0.94561887 -0.044037774 1.8750001 37 29 22 255
-0.93944567 -0.043988097 1.8730001 40 35 28 255
-0.93628025 -0.044079483 1.8770001 53 38 32 255
-0.93260044 -0.044147518 1.8800001 71 43 35 255
-0.92496133 -0.04402785 1.8750001 166 126 116 255
-0.91440994 -0.043767452 1.8640001 176 136 126 255
-0.90538579 -0.043577652 1.8560001 163 131 116 255
-0.90028965 -0.043575849 1.8560001 128 96 81 255
-0.89567894 -0.04359765 1.8570001 107 79 61 255
-0.89202511 -0.043666538 1.8600001 71 45 27 255
-0.88883471 -0.043759033 1.8640001 71 53 37 255
-0.88515139 -0.043828182 1.8670001 57 43 26 255
-0.88004023 -0.043827027 1.8670001 39 26 11 255
-0.87305748 -0.043732107 1.863 51 38 23 255
-0.86609948 -0.04363732 1.8590001 48 35 20 255
-0.86426067 -0.043800864 1.8660001 86 75 60 255
-0.860084 -0.043847155 1.868 59 50 37 255
-0.86001819 -0.044104822 1.8790001 41 34 21 255
-0.85489011 -0.044104405 1.8790001 33 29 18 255
-0.83924681 -0.043822262 1.8670001 33 31 21 255
-0.82700968 -0.043446641 1.8510001 29 27 17 255
-0.82196683 -0.043446682 1.8510001 31 31 21 255
-0.81339532 -0.043259054 1.8430001 29 27 17 255
-0.72536314 -0.045618299 1.9420002 165 169 162 255
-0.72047728 -0.045644265 1.9430001 161 166 155 255
-0.71300983 -0.045505855 1.937 162 167 155 255
-0.70447916 -0.045297008 1.9280001 167 172 160 255
-0.69817358 -0.04522917 1.9250001 167 172 160 255
-0.69080472 -0.045090903 1.9190001 172 177 165 255
-0.68239665 -0.044882175 1.9100001 177 182 170 255
-0.67261934 -0.04457948 1.8970001 181 186 175 255
-0.66607928 -0.044488315 1.8930001 183 188 176 255
-0.65956104 -0.04439719 1.8890001 186 191 180 255
-0.65306449 -0.044306103 1.8850001 176 181 170 255
-0.64624596 -0.044191554 1.8800001 171 176 164 255
-0.64013648 -0.044124048 1.8770001 177 182 170 255
-0.63471991 -0.044103596 1.876 170 175 164 255
-0.62863761 -0.044036176 1.8730001 159 164 153 255
-0.62390292 -0.044062827 1.8740001 153 158 146 255
-0.61850238 -0.044042505 1.8730001 160 163 151 255
-0.61343455 -0.044045731 1.8730001 174 177 165 255
-0.60804164 -0.044025481 1.8720001 182 185 171 255
-0.60168767 -0.043934703 1.868 173 178 164 255
-0.59567457 -0.043867476 1.8650001 173 178 166 255
-0.58967727 -0.043800272 1.8620001 166 171 159 255
-0.58400995 -0.043756612 1.8600001 157 162 151 255
-0.57897556 -0.043760028 1.8600001 164 169 157 255
-0.57424933 -0.043787006 1.8610001 193 196 184 255
-0.56951743 -0.043814022 1.8620001 184 189 177 255
-0.56387001 -0.043770466 1.8600001 180 185 171 255
-0.55883396 -0.043774001 1.8600001 191 195 178 255
-0.55349964 -0.043754026 1.8590001 188 192 175 255
-0.54817015 -0.043734066 1.858 179 183 166 255
-0.54167634 -0.043619964 1.853 186 190 173 255
-0.535209 -0.043505874 1.848 183 186 172 255
-0.52934194 -0.043438863 1.845 171 174 160 255
-0.52491152 -0.04348959 1.8470001 176 179 165 255
-0.52046961 -0.043540347 1.8490001 178 183 169 255
-0.51517987 -0.043520465 1.848 182 188 171 255
-0.50851452 -0.043382846 1.8420001 181 185 168 255
-0.50297445 -0.043339428 1.84 157 161 143 255
-0.49771509 -0.043319568 1.8390001 164 168 150 255
-0.49326426 -0.043370388 1.8410001 176 180 162 255
-0.4877409 -0.043326989 1.8390001 181 185 168 255
-0.48249015 -0.043307148 1.8380001 192 198 180 255
-0.475945 -0.043169491 1.8320001 183 189 171 255
-0.47020298 -0.04310251 1.8290001 190 196 178 255
-0.46396756 -0.042988386 1.8240001 182 188 170 255
-0.45876503 -0.042968523 1.8230001 190 196 178 255
-0.45331827 -0.04292509 1.8210001 185 191 174 255
-0.44763523 -0.042858072 1.8180001 178 184 167 255
-0.44221112 -0.042814616 1.8160001 175 183 168 255
-0.43727857 -0.042818308 1.8160001 172 179 167 255
-0.43258318 -0.04284557 1.817 174 181 169 255
-0.42811689 -0.042896423 1.8190001 159 164 152 255
-0.42317349 -0.042900112 1.8190001 143 148 136 255
-0.41822913 -0.042903785 1.8190001 158 163 151 255
-0.41260228 -0.042836685 1.8160001 165 170 158 255
-0.40788874 -0.042863932 1.817 179 184 172 255
-0.40294701 -0.042867575 1.817 178 183 169 255
-0.39756629 -0.042824019 1.8150001 178 182 164 255
-0.39176282 -0.042733252 1.8110001 180 185 163 255
-0.38662091 -0.042713244 1.8100001 173 177 149 255
-0.38190529 -0.04274042 1.8110001 182 186 160 255
-0.37655878 -0.042696781 1.8090001 181 186 164 255
-0.37122217 -0.042653117 1.807 193 199 181 255
-0.36508468 -0.042514998 1.8010001 196 202 184 255
-0.35977882 -0.042471275 1.7990001 172 180 165 255
-0.35487735 -0.042474736 1.7990001 166 172 155 255
-0.35055855 -0.042549018 1.802 156 160 142 255
-0.34583881 -0.04257606 1.8030001 144 148 130 255
-0.34130171 -0.042626694 1.8050001 154 156 136 255
-0.33693907 -0.042700935 1.8080001 143 146 122 255
-0.33311 -0.04284602 1.8140001 143 147 121 255
-0.32852358 -0.042896613 1.8160001 150 153 129 255
-0.32392529 -0.042947188 1.8180001 158 162 136 255
-0.31966594 -0.043044988 1.8220001 138 140 114 255
-0.31590196 -0.043213654 1.8290001 136 138 112 255
-0.3120988 -0.043382317 1.8360001 128 128 100 255
-0.30758736 -0.04345645 1.8390001 129 129 101 255
-0.30240047 -0.043436032 1.8380001 120 122 94 255
-0.29737985 -0.043439209 1.8380001 116 117 93 255
-0.2925173 -0.043465991 1.8390001 70 70 50 255
-0.28733569 -0.04344546 1.8380001 31 30 14 255
-0.28139061 -0.043306701 1.8320001 23 22 6 255
-0.27562821 -0.043191522 1.8270001 29 26 12 255
-0.27078101 -0.043218143 1.8280001 29 26 10 255
-0.26592743 -0.043244731 1.8290001 29 26 10 255
-0.26092479 -0.043247633 1.8290001 29 26 10 255
-0.25592121 -0.043250497 1.8290001 30 27 11 255
-0.2510539 -0.043276966 1.83 30 27 11 255
-0.24658364 -0.043374348 1.8340001 29 26 10 255
-0.2426174 -0.043566301 1.8420001 27 24 10 255
-0.2386065 -0.04375824 1.8500001 25 24 10 255
-0.23391971 -0.043831881 1.853 29 29 19 255
-0.22884515 -0.043834515 1.853 55 57 49 255
-0.22316593 -0.043718819 1.848 76 80 73 255
-0.21739528 -0.043579407 1.8420001 93 98 94 255
-0.21177194 -0.043463588 1.8370001 100 104 104 255
-0.20651278 -0.043418687 1.835 99 103 103 255
-0.20115404 -0.043350071 1.8320001 107 111 113 255
-0.19538273 -0.043186747 1.825 100 104 104 255
-0.19006629 -0.043118011 1.8220001 93 97 97 255
-0.18517187 -0.043143883 1.8230001 88 90 90 255
-0.18056777 -0.043240711 1.8270001 90 92 92 255
-0.17555663 -0.04324282 1.8270001 88 90 90 255
-0.17082481 -0.04331588 1.83 88 90 90 255
-0.16616648 -0.043412574 1.8340001 82 85 82 255
-0.16174911 -0.043580234 1.8410001 80 83 80 255
-0.15729268 -0.043747861 1.848 81 84 81 255
-0.15304427 -0.043986458 1.858 75 78 74 255
-0.14834222 -0.044106647 1.863 83 84 80 255
-0.14322773 -0.044108413 1.863 64 65 61 255
-0.13818678 -0.044133801 1.8640001 66 67 63 255
-0.13306837 -0.044135444 1.8640001 68 71 67 255
-0.12829262 -0.044255432 1.8690001 74 75 71 255
-0.12329118 -0.044304326 1.8710001 73 76 73 255
-0.11872029 -0.044518929 1.8800001 74 77 73 255
-0.11385786 -0.044638757 1.8850001 76 79 75 255
-0.10879449 -0.044687491 1.8870001 73 76 73 255
-0.10355495 -0.044665109 1.886 76 79 75 255
-0.098581277 -0.044761091 1.8900001 75 78 74 255
-0.09373343 -0.044928063 1.8970001 71 74 71 255
-0.088753395 -0.045047615 1.9020001 71 72 68 255
-0.083482005 -0.045025002 1.9010001 65 66 62 255
-0.078133412 -0.044954948 1.8980001 63 66 62 255
-0.072993062 -0.045003254 1.9000001 73 76 72 255
-0.067984082 -0.045146249 1.9060001 74 78 71 255
-0.063007653 -0.045336559 1.914 68 72 65 255
-0.057836115 -0.045408372 1.9170001 65 69 62 255
-0.052538157 -0.045385383 1.9160001 63 67 60 255
-0.04727013 -0.045386005 1.9160001 66 70 63 255
-0.042067666 -0.045457624 1.9190001 64 68 61 255
-0.03684853 -0.045529187 1.9220001 64 68 61 255
-0.03154704 -0.045505926 1.9210001 63 67 60 255
-0.026237233 -0.045458909 1.9190001 63 67 60 255
-0.020927396 -0.04538814 1.9160001 64 65 59 255
-0.015674828 -0.045435749 1.9180001 62 66 59 255
-0.010411189 -0.045483291 1.9200001 65 66 60 255
-0.0051338342 -0.045507081 1.9210001 64 65 59 255
0.00014904332 -0.0455308 1.9220001 62 66 59 255
0.0054402477 -0.045578141 1.9240001 66 70 63 255
0.010753583 -0.045672793 1.9280001 67 71 64 255
0.016080543 -0.045743693 1.9310001 65 69 62 255
0.021457167 -0.045885589 1.937 68 71 67 255
