ply
format ascii 1.0
comment PCL generated
element vertex 992
property float x
property float y
property float z
property uchar red
property uchar green
property uchar blue
property uchar alpha
element camera 0
property float view_px
property float view_py
property float view_pz
property float x_axisx
property float x_axisy
property float x_axisz
property float y_axisx
property float y_axisy
property float y_axisz
property float z_axisx
property float z_axisy
property float z_axisz
property float focal
property float scalex
property float scaley
property float centerx
property float centery
property int viewportx
property int viewporty
property float k1
property float k2
end_header
0.74536288 0.54289597 1.623 183 190 187 255
0.74342608 0.53828174 1.6090001 184 191 188 255
0.74327403 0.53500646 1.5990001 184 191 187 255
0.74353749 0.53206682 1.59 184 191 188 255
0.74422485 0.52946287 1.582 185 192 188 255
0.74439806 0.52652544 1.5730001 186 193 190 255
0.74357259 0.52291948 1.562 187 192 189 255
0.74508369 0.5209884 1.5560001 187 192 189 255
0.7446385 0.51771921 1.5460001 183 190 187 255
0.74414116 0.51445091 1.536 186 193 190 255
0.74310464 0.51084858 1.5250001 188 195 191 255
0.7434805 0.50825208 1.5170001 187 194 191 255
0.74480146 0.50632697 1.511 188 195 192 255
0.74460584 0.5033977 1.5020001 189 196 193 255
0.74438578 0.60631388 1.8310001 170 177 173 255
0.74697757 0.60436958 1.825 173 180 177 255
0.74789059 0.6011017 1.8150001 175 182 178 255
0.74487668 0.54133046 1.6320001 185 190 186 255
0.74437678 0.53774768 1.6210001 185 190 187 255
0.74428117 0.53449762 1.6110001 186 191 188 255
0.7436685 0.53091663 1.6 182 189 186 255
0.74393332 0.52800035 1.5910001 185 192 189 255
0.74321085 0.52442127 1.58 185 192 188 255
0.74479651 0.52250284 1.5740001 185 192 189 255
0.74444848 0.51925766 1.5640001 187 192 189 255
0.74548471 0.51700962 1.557 186 191 188 255
0.74407768 0.51310229 1.5450001 186 193 190 255
0.74454498 0.51052427 1.5370001 186 193 190 255
0.74350971 0.50695074 1.526 187 194 191 255
0.74388701 0.50437492 1.5180001 188 195 192 255
0.74373055 0.50146776 1.5090001 188 195 192 255
0.74501479 0.49955872 1.503 189 196 193 255
0.73838139 0.60872239 1.8540001 172 179 175 255
0.7426703 0.52583605 1.598 185 190 187 255
0.74199301 0.52228481 1.5870001 185 192 189 255
0.74219853 0.51939255 1.5780001 184 191 187 255
0.74425012 0.51781821 1.5730001 185 192 188 255
0.74437386 0.51492834 1.5640001 186 193 190 255
0.74397236 0.51171017 1.554 187 194 191 255
0.7440002 0.50882226 1.5450001 184 191 188 255
0.74446601 0.50626481 1.5370001 187 194 191 255
0.74294227 0.50239062 1.5250001 186 193 190 255
0.74331516 0.49983519 1.5170001 187 194 191 255
0.74463278 0.49793988 1.511 187 194 191 255
0.74641657 0.49637547 1.506 186 193 192 255
0.74368596 0.52527064 1.6100001 184 191 188 255
0.7421385 0.52109468 1.5970001 183 190 187 255
0.74212873 0.51502973 1.5780001 185 192 189 255
0.74417871 0.51346755 1.5730001 184 191 188 255
0.74430096 0.51060098 1.5640001 185 192 189 255
0.74437672 0.50773537 1.5550001 185 192 189 255
0.74488741 0.50519735 1.5470001 188 193 190 255
0.74487299 0.50233388 1.5380001 188 193 190 255
0.74383789 0.49881804 1.5270001 185 192 189 255
0.74421483 0.49628317 1.5190001 186 193 190 255
0.7435655 0.49309587 1.5090001 188 195 192 255
0.74435079 0.49088991 1.5020001 188 195 194 255
0.74131227 0.51920831 1.605 183 190 186 255
0.74206036 0.51066869 1.5780001 184 191 188 255
0.74221665 0.50782418 1.5690001 185 192 189 255
0.7423262 0.50498074 1.5600001 185 192 189 255
0.74334657 0.50278574 1.5530001 187 192 189 255
0.74433172 0.50059205 1.5460001 187 192 189 255
0.74431306 0.49775174 1.5370001 187 192 189 255
0.74424785 0.49491251 1.5280001 189 194 191 255
0.74413621 0.49207422 1.5190001 188 193 190 255
0.74348545 0.488913 1.5090001 189 194 191 255
0.74327826 0.48607674 1.5000001 185 192 191 255
0.74272704 0.50977331 1.5890001 183 190 187 255
0.74293399 0.50695121 1.58 185 192 189 255
0.74214834 0.50348836 1.5690001 185 192 189 255
0.74273241 0.5009892 1.5610001 183 190 187 255
0.74423271 0.49913302 1.5550001 187 192 189 255
0.74618471 0.49759924 1.5500001 188 193 190 255
0.74472314 0.49381921 1.5380001 188 193 190 255
0.74612039 0.49196666 1.5320001 187 192 189 255
0.74503893 0.48850957 1.521 189 194 191 255
0.74439245 0.48537454 1.511 186 191 188 255
0.74359787 0.50602323 1.5910001 183 190 187 255
0.74333882 0.50290644 1.5810001 186 193 190 255
0.7420817 0.49915436 1.5690001 185 192 189 255
0.74266434 0.49667576 1.5610001 186 193 190 255
0.7432059 0.49419823 1.5530001 184 191 188 255
0.74370658 0.49172178 1.5450001 185 192 189 255
0.74271393 0.48829153 1.534 183 190 187 255
0.74361145 0.48613548 1.5270001 186 193 189 255
0.74447376 0.48398066 1.5200001 185 192 189 255
0.7448082 0.48150846 1.5120001 184 191 188 255
0.74411112 0.47840044 1.5020001 186 193 190 255
0.74374348 0.50472474 1.6010001 183 190 186 255
0.74306786 0.5013178 1.59 184 191 187 255
0.74327493 0.49854255 1.5810001 182 189 185 255
0.74438113 0.49639899 1.5740001 185 192 189 255
0.74592769 0.49457198 1.5680001 183 190 187 255
0.74553049 0.49148443 1.5580001 185 192 189 255
0.74363714 0.48745129 1.5450001 185 192 189 255
0.74264318 0.48404986 1.534 184 191 188 255
0.74305224 0.48159608 1.526 185 192 189 255
0.74488962 0.48009023 1.521 187 194 191 255
0.74424034 0.47700736 1.511 185 192 189 255
0.74552047 0.47518829 1.5050001 189 196 193 255
0.74337929 0.50306422 1.6100001 185 190 186 255
0.74414819 0.50062275 1.6020001 183 190 186 255
0.74300677 0.49693224 1.59 186 191 187 255
0.7427423 0.49386773 1.58 185 190 186 255
0.74526298 0.49267983 1.5760001 183 190 186 255
0.7453866 0.48993006 1.567 184 191 187 255
0.74594218 0.48749396 1.559 185 192 189 255
0.74308789 0.48286983 1.544 184 191 188 255
0.74354208 0.48043561 1.536 185 192 189 255
0.7424947 0.47706401 1.5250001 186 193 190 255
0.74432766 0.47557044 1.5200001 185 192 189 255
0.74318171 0.47220063 1.5090001 185 192 189 255
0.74495 0.47070953 1.5040001 186 193 190 255
0.74316078 0.49558768 1.6 183 190 186 255
0.74315143 0.48981982 1.5810001 183 190 186 255
0.7456733 0.48864156 1.577 184 191 187 255
0.74484706 0.48529541 1.5660001 184 191 187 255
0.74539846 0.48287994 1.5580001 186 193 190 255
0.74446511 0.47953558 1.5470001 184 191 187 255
0.74444228 0.47681212 1.5380001 186 193 189 255
0.7433992 0.47346947 1.5270001 186 193 189 255
0.74327767 0.47074783 1.5180001 178 185 182 255
0.7421248 0.46740684 1.5070001 186 193 190 255
0.7433905 0.46561769 1.501 187 194 191 255
0.74254954 0.55624235 1.8150001 176 183 179 255
0.74054074 0.55106443 1.7980001 176 183 179 255
0.74356186 0.48576799 1.582 185 190 186 255
0.74513942 0.48398522 1.5760001 187 192 188 255
0.74240673 0.47943941 1.5610001 187 192 188 255
0.74389952 0.47765869 1.5550001 187 192 189 255
0.74343765 0.47465032 1.5450001 188 193 190 255
0.74389178 0.47225738 1.5370001 186 193 190 255
0.7428447 0.46894363 1.526 186 193 190 255
0.74271894 0.46624538 1.5170001 185 192 189 255
0.7425468 0.463548 1.508 187 194 190 255
0.74331856 0.46146652 1.501 186 193 190 255
0.73927301 0.5452261 1.7950001 175 182 178 255
0.74329931 0.48408967 1.5910001 185 192 188 255
0.74397361 0.48171225 1.5830001 184 191 187 255
0.74507976 0.47964033 1.5760001 185 190 186 255
0.74424815 0.47635198 1.5650001 186 191 187 255
0.74335885 0.47306442 1.554 186 191 188 255
0.74337417 0.47038671 1.5450001 186 191 188 255
0.74285901 0.46740544 1.5350001 184 191 188 255
0.74277836 0.46472952 1.526 187 194 191 255
0.74265134 0.46205467 1.5170001 185 192 189 255
0.74346262 0.45999005 1.5100001 186 191 187 255
0.7442385 0.45792642 1.503 186 193 190 255
0.74373108 0.48859271 1.6210001 182 189 186 255
0.74454403 0.48623303 1.613 179 186 183 255
0.74624461 0.48447734 1.6070001 181 188 184 255
0.74464512 0.48061231 1.5940001 184 191 187 255
0.74391669 0.47735107 1.5830001 184 191 187 255
0.74360323 0.47439227 1.5730001 183 190 186 255
0.74418855 0.47203761 1.5650001 184 191 187 255
0.74234146 0.46817574 1.552 184 191 187 255
0.74090648 0.46461624 1.5400001 175 182 178 255
0.74085987 0.46196264 1.531 183 190 187 255
0.74174017 0.45991358 1.524 185 192 189 255
0.74258524 0.45786569 1.5170001 183 190 187 255
0.74437964 0.45642263 1.5120001 186 191 188 255
0.74416953 0.45377323 1.503 189 194 190 255
0.74322188 0.48383501 1.6200001 183 190 187 255
0.74403065 0.48149595 1.6120001 179 186 183 255
0.74572718 0.47975549 1.6060001 172 179 175 255
0.74318945 0.47532731 1.5910001 183 190 186 255
0.74245143 0.47209492 1.58 184 191 187 255
0.74165571 0.46886346 1.5690001 183 190 186 255
0.74413043 0.4677248 1.5650001 184 191 187 255
0.74276042 0.46419626 1.5530001 182 189 185 255
0.74277014 0.46156532 1.544 184 191 187 255
0.7417658 0.45833743 1.5330001 184 191 188 255
0.74362361 0.45690435 1.5280001 185 192 189 255
0.7444784 0.45487452 1.521 184 191 188 255
0.74529797 0.45284584 1.5140001 185 190 187 255
0.74360687 0.44932246 1.5020001 187 192 189 255
0.740879 0.47790056 1.6150001 180 187 184 255
0.74121112 0.47528619 1.6060001 181 188 185 255
0.74242514 0.47326472 1.5990001 177 184 180 255
0.74126822 0.46976438 1.5870001 183 190 186 255
0.7405178 0.46656084 1.5760001 184 191 187 255
0.74065495 0.46395025 1.567 182 189 185 255
0.74217176 0.46222904 1.5610001 182 189 185 255
0.74270236 0.45991671 1.5530001 184 191 187 255
0.74415392 0.45819777 1.5470001 183 190 186 255
0.74364054 0.45529515 1.5370001 183 190 186 255
0.74550807 0.45387468 1.5320001 183 190 187 255
0.74539387 0.45127034 1.5230001 184 191 188 255
0.74523306 0.44866687 1.5140001 187 192 189 255
0.74304581 0.44487885 1.501 186 193 190 255
0.74083132 0.47346079 1.6150001 182 189 186 255
0.74116206 0.47086987 1.6060001 183 190 187 255
0.74098206 0.46798676 1.5960001 179 186 182 255
0.74028254 0.46481133 1.585 184 191 187 255
0.7404651 0.46222332 1.5760001 183 190 186 255
0.74154627 0.4602229 1.5690001 183 190 186 255
0.74401808 0.45910364 1.5650001 182 189 185 255
0.74503672 0.45710555 1.5580001 184 191 187 255
0.7469818 0.45569542 1.5530001 183 190 186 255
0.74648392 0.45281923 1.5430001 183 190 186 255
0.74690706 0.45053095 1.5350001 183 190 187 255
0.7453317 0.4470695 1.5230001 183 190 187 255
0.74418527 0.44390231 1.5120001 185 192 189 255
0.74032605 0.46873188 1.6140001 180 187 184 255
0.74157584 0.46674544 1.6070001 181 188 187 255
0.74325418 0.46505046 1.6010001 180 187 184 255
0.7430346 0.46219474 1.5910001 183 190 187 255
0.7427628 0.45933986 1.5810001 178 185 182 255
0.74291128 0.45677647 1.572 181 188 185 255
0.74443924 0.45508584 1.5660001 185 192 189 255
0.7445029 0.45252445 1.557 184 191 187 255
0.74596298 0.45083609 1.5510001 183 190 186 255
0.74497437 0.44769531 1.5400001 184 191 188 255
0.74538779 0.4454276 1.5320001 184 191 188 255
0.7442922 0.44228855 1.521 184 191 188 255
0.74363118 0.43944111 1.511 185 192 189 255
0.74291795 0.43659452 1.501 185 192 189 255
0.74165672 0.46516058 1.6170001 180 187 184 255
0.743375 0.46347991 1.6110001 181 188 187 255
0.74413484 0.46122491 1.603 180 187 184 255
0.74345249 0.45810771 1.5920001 180 187 184 255
0.74412173 0.45585471 1.5840001 182 189 186 255
0.7447499 0.45360273 1.5760001 184 191 188 255
0.7458123 0.45163965 1.5690001 183 190 187 255
0.74540496 0.448814 1.559 183 190 186 255
0.74590731 0.44656506 1.5510001 184 191 187 255
0.74443394 0.44316536 1.539 184 191 188 255
0.74435669 0.44063035 1.5300001 185 192 189 255
0.74325424 0.43752018 1.5190001 184 191 188 255
0.74307841 0.43498698 1.5100001 183 190 187 255
0.74285614 0.43245468 1.501 185 192 189 255
0.74216616 0.4666172 1.6380001 181 188 184 255
0.74168897 0.46352533 1.6270001 181 188 184 255
0.74161267 0.46071926 1.6170001 181 188 185 255
0.74240667 0.45848399 1.6090001 181 188 185 255
0.74269551 0.45596471 1.6 181 188 185 255
0.74293756 0.45344648 1.5910001 181 188 185 255
0.74266332 0.4506442 1.5810001 182 189 186 255
0.74375439 0.44869795 1.5740001 184 191 188 255
0.74385935 0.44618261 1.5650001 182 189 186 255
0.7439177 0.44366819 1.5560001 183 190 187 255
0.74392939 0.44115472 1.5470001 183 190 187 255
0.74292731 0.43807182 1.536 183 190 187 255
0.74332696 0.43584543 1.5280001 184 191 188 255
0.7436856 0.4336201 1.5200001 181 188 185 255
0.74301922 0.43082502 1.5100001 184 191 188 255
0.74329048 0.42860159 1.5020001 183 190 187 255
0.74434716 0.46631384 1.6530001 181 188 184 255
0.74393773 0.46325025 1.6420001 182 189 185 255
0.74255884 0.45962325 1.6290001 180 187 183 255
0.74294543 0.45712572 1.6200001 181 188 184 255
0.74236244 0.45406473 1.6090001 182 189 185 255
0.74264997 0.45156899 1.6 181 188 184 255
0.74195701 0.44850981 1.5890001 181 188 185 255
0.74261546 0.44629833 1.5810001 184 191 188 255
0.74512261 0.44521704 1.577 183 190 187 255
0.74571002 0.44300771 1.5690001 182 189 186 255
0.74577826 0.44051698 1.5600001 183 190 187 255
0.74531913 0.43774477 1.5500001 183 190 187 255
0.74384058 0.43440849 1.5380001 182 189 186 255
0.74424446 0.43220297 1.5300001 185 192 189 255
0.74216121 0.42858574 1.5170001 183 190 187 255
0.7414853 0.42581695 1.5070001 183 190 187 255
0.74336201 0.45295799 1.6210001 180 187 183 255
0.74416471 0.45076445 1.613 181 189 182 255
0.74353397 0.44773349 1.6020001 181 188 184 255
0.7428453 0.44470337 1.5910001 181 188 184 255
0.74256867 0.44195366 1.5810001 183 190 186 255
0.74507457 0.44088224 1.577 182 189 186 255
0.74566066 0.4386937 1.5690001 181 188 185 255
0.74524963 0.43594679 1.559 181 188 185 255
0.74574816 0.4337602 1.5510001 181 188 185 255
0.74572212 0.43129486 1.5420001 183 190 187 255
0.74564946 0.42883044 1.5330001 182 189 186 255
0.74357349 0.42524791 1.5200001 183 190 187 255
0.74192065 0.42194581 1.508 182 189 185 255
0.7450453 0.44689003 1.6150001 180 187 183 255
0.74395484 0.44361144 1.603 182 189 185 255
0.74280101 0.44033369 1.5910001 181 188 184 255
0.74252313 0.43761024 1.5810001 183 190 186 255
0.74502766 0.43654862 1.577 181 188 185 255
0.74466211 0.43382719 1.567 181 188 185 255
0.74472237 0.43138346 1.5580001 182 189 186 255
0.74521679 0.42921761 1.5500001 179 186 183 255
0.7466374 0.42760661 1.544 181 188 185 255
0.74559647 0.4246119 1.5330001 184 191 188 255
0.74400854 0.42134091 1.521 182 189 186 255
0.74235737 0.41807061 1.5090001 183 190 186 255
0.74212724 0.41563228 1.5000001 183 190 186 255
0.74243975 0.44621459 1.6290001 178 185 181 255
0.74419844 0.44460964 1.623 180 187 183 255
0.74500436 0.44245788 1.6150001 180 187 183 255
0.74252045 0.43838912 1.6 180 187 183 255
0.74182409 0.43541718 1.5890001 181 188 184 255
0.74013066 0.43189788 1.5760001 182 189 185 255
0.74120277 0.43002376 1.5690001 181 188 184 255
0.7412889 0.4276025 1.5600001 182 189 186 255
0.74228442 0.42573038 1.5530001 181 188 185 255
0.74324447 0.42385936 1.5460001 182 189 186 255
0.74513614 0.42253771 1.5410001 179 186 185 255
0.74457192 0.41984615 1.531 183 190 187 255
0.74444473 0.41742972 1.5220001 182 189 186 255
0.74328715 0.41446549 1.511 182 189 186 255
0.74207193 0.41150212 1.5000001 182 189 185 255
0.74514449 0.44604942 1.6450001 178 185 184 255
0.74376953 0.44256079 1.6320001 182 189 186 255
0.74324268 0.43961531 1.6210001 180 187 184 255
0.74219674 0.43639949 1.6090001 179 186 183 255
0.74155146 0.43345562 1.598 181 188 184 255
0.74178195 0.43105522 1.5890001 176 183 179 255
0.74149626 0.42838445 1.5790001 179 186 182 255
0.74210316 0.42625719 1.5710001 183 190 186 255
0.7412433 0.42331681 1.5600001 180 187 184 255
0.74175972 0.42119145 1.552 183 190 189 255
0.74127352 0.41852424 1.5420001 182 189 188 255
0.74363619 0.41748649 1.5380001 184 191 190 255
0.7430625 0.41482115 1.5280001 183 190 187 255
0.74390388 0.41297117 1.521 179 186 183 255
0.74225044 0.40976447 1.5090001 182 189 186 255
0.7455619 0.4418087 1.646 177 184 183 255
0.74418867 0.43835467 1.6330001 178 185 184 255
0.74228805 0.43463302 1.6190001 181 188 185 255
0.74123549 0.43144903 1.6070001 180 187 184 255
0.74151158 0.42907125 1.598 179 186 183 255
0.74267465 0.42723155 1.5910001 180 187 184 255
0.74286282 0.42485565 1.582 180 187 183 255
0.7430045 0.42248079 1.5730001 182 189 185 255
0.7411989 0.41903237 1.5600001 182 189 186 255
0.74075824 0.41639057 1.5500001 182 189 188 255
0.74122673 0.41428694 1.5420001 182 189 188 255
0.74358809 0.41325909 1.5380001 181 188 187 255
0.74447197 0.41142622 1.531 182 189 188 255
0.74483144 0.40932569 1.5230001 182 189 186 255
0.74367446 0.40641966 1.5120001 183 190 187 255
0.74196512 0.40324563 1.5000001 185 192 189 255
0.74324179 0.43334717 1.631 178 185 184 255
0.74225152 0.4301942 1.6190001 177 184 183 255
0.74165905 0.42730778 1.608 181 188 185 255
0.74286485 0.42548522 1.6010001 179 186 183 255
0.74403501 0.42366377 1.5940001 179 186 183 255
0.74470001 0.42157745 1.5860001 179 186 182 255
0.74390686 0.41869459 1.575 181 188 184 255
0.74210578 0.41528082 1.562 181 188 185 255
0.74310321 0.41346309 1.5550001 182 189 186 255
0.74358433 0.41138044 1.5470001 182 189 186 255
0.74499148 0.40983072 1.5410001 182 189 186 255
0.74491 0.40748408 1.5320001 184 191 188 255
0.74527097 0.40540436 1.524 182 189 186 255
0.74411571 0.40252751 1.5130001 183 190 187 255
0.74240798 0.39938527 1.501 183 190 187 255
0.74300611 0.42368808 1.6110001 179 186 183 255
0.74282706 0.42109472 1.6010001 178 185 182 255
0.74446273 0.41955441 1.595 179 186 183 255
0.74372083 0.41669986 1.5840001 181 188 185 255
0.74386561 0.41437224 1.575 181 188 184 255
0.74301374 0.41151938 1.5640001 180 187 184 255
0.74449325 0.40998295 1.5580001 179 186 183 255
0.74594289 0.40844762 1.552 179 186 183 255
0.74639577 0.406387 1.544 180 187 184 255
0.74534911 0.4035376 1.5330001 181 188 185 255
0.74473375 0.40095225 1.5230001 181 188 185 255
0.7440663 0.3983677 1.5130001 183 190 187 255
0.74285215 0.39552069 1.5020001 184 191 188 255
0.74343163 0.41953251 1.6120001 179 186 183 255
0.7432543 0.4169656 1.6020001 180 187 184 255
0.74349135 0.41465983 1.5930001 180 187 184 255
0.74274272 0.41183433 1.582 181 188 185 255
0.74240863 0.40926999 1.572 182 189 186 255
0.74392247 0.40774801 1.5660001 180 187 184 255
0.74588424 0.40648749 1.5610001 180 187 184 255
0.74734092 0.40496761 1.5550001 183 190 187 255
0.74731767 0.40266749 1.5460001 183 190 187 255
0.74578923 0.39958674 1.534 182 189 186 255
0.74419761 0.39650676 1.5220001 183 190 187 255
0.7445097 0.39446965 1.5140001 185 192 191 255
0.74329728 0.39165175 1.503 183 190 189 255
0.74535662 0.41868618 1.626 178 185 182 255
0.74385804 0.41537234 1.613 178 185 182 255
0.74275458 0.41231683 1.6010001 179 186 185 255
0.7434544 0.41029221 1.5930001 180 187 186 255
0.74364376 0.40801105 1.5840001 180 187 184 255
0.74473083 0.40624598 1.577 180 187 184 255
0.74530733 0.40422434 1.5690001 182 189 186 255
0.74488711 0.40168822 1.559 180 187 184 255
0.74537587 0.39966843 1.5510001 181 188 185 255
0.74485701 0.3971341 1.5410001 182 189 186 255
0.74379975 0.39434281 1.5300001 183 190 187 255
0.74317378 0.39181012 1.5200001 183 190 187 255
0.74347913 0.38979378 1.5120001 182 189 188 255
0.74423802 0.38803622 1.5050001 183 190 189 255
0.74087071 0.4167172 1.636 180 187 183 255
0.744021 0.41598359 1.6330001 180 187 184 255
0.74440718 0.41372254 1.6240001 181 188 185 255
0.74428546 0.41120768 1.6140001 181 188 185 255
0.74318367 0.40818402 1.6020001 179 186 185 255
0.74388522 0.40618047 1.5940001 178 185 184 255
0.74360675 0.40366817 1.5840001 182 189 188 255
0.74422044 0.40166646 1.5760001 179 186 183 255
0.744793 0.39966562 1.5680001 179 186 183 255
0.74389118 0.39690098 1.557 179 186 183 255
0.74341214 0.39439216 1.5470001 181 188 185 255
0.742881 0.39188412 1.5370001 179 186 183 255
0.743756 0.39014181 1.5300001 181 188 185 255
0.7431289 0.38763553 1.5200001 182 189 188 255
0.7439248 0.38589516 1.5130001 183 190 189 255
0.74270737 0.38313544 1.5020001 183 190 189 255
0.74082899 0.41472962 1.646 178 185 182 255
0.74219972 0.41299441 1.6390001 178 185 182 255
0.74353468 0.41126019 1.6320001 179 186 183 255
0.74345869 0.40877086 1.6220001 180 187 184 255
0.74379152 0.40653443 1.613 179 186 183 255
0.74268591 0.40354267 1.6010001 177 184 183 255
0.74338359 0.40156007 1.5930001 180 187 186 255
0.74357069 0.39932624 1.5840001 181 188 187 255
0.74465549 0.39759761 1.577 180 187 186 255
0.74475467 0.39536557 1.5680001 181 188 187 255
0.74432957 0.39288232 1.5580001 180 187 184 255
0.7438522 0.39039987 1.5480001 179 186 183 255
0.7442894 0.38842273 1.5400001 176 183 180 255
0.74419945 0.38619423 1.531 181 188 185 255
0.74308509 0.38346204 1.5200001 182 189 188 255
0.74240482 0.38098291 1.5100001 183 190 189 255
0.74216688 0.37875691 1.501 184 191 190 255
0.74080145 0.41022521 1.646 178 185 184 255
0.74171823 0.40825906 1.6380001 176 183 180 255
0.74304926 0.40654305 1.631 178 185 182 255
0.74296957 0.40408018 1.6210001 179 186 183 255
0.74375957 0.40211675 1.613 179 186 183 255
0.74265301 0.39915696 1.6010001 181 188 187 255
0.74288303 0.39694598 1.5920001 181 188 187 255
0.74259681 0.39448652 1.582 181 188 187 255
0.74320281 0.39252666 1.5740001 180 187 186 255
0.7437675 0.39056769 1.5660001 178 185 182 255
0.74476898 0.38885909 1.559 179 186 183 255
0.74525428 0.386902 1.5510001 180 187 184 255
0.74473214 0.38444692 1.5410001 181 188 185 255
0.74512994 0.38249162 1.5330001 182 189 186 255
0.74353123 0.3795391 1.521 182 189 188 255
0.74285269 0.3770864 1.511 184 191 190 255
0.74162751 0.37438491 1.5000001 183 190 189 255
0.74440479 0.42576975 1.728 175 182 179 255
0.74438167 0.42307928 1.7170001 176 183 180 255
0.74263883 0.41427359 1.6810001 177 184 181 255
0.74032468 0.4054752 1.6450001 175 182 181 255
0.74078488 0.40328351 1.636 178 185 182 255
0.74119818 0.40109271 1.6270001 178 185 182 255
0.74202299 0.3991493 1.6190001 179 186 183 255
0.7432676 0.39745343 1.6120001 180 187 184 255
0.74262106 0.39477217 1.6010001 179 186 185 255
0.74331653 0.3928315 1.5930001 180 187 186 255
0.74256271 0.39015189 1.582 179 186 185 255
0.74269545 0.38796636 1.5730001 181 188 187 255
0.7427814 0.38578171 1.5640001 180 187 184 255
0.74520922 0.38483134 1.5600001 179 186 183 255
0.74569631 0.38289526 1.552 180 187 184 255
0.74565905 0.38071334 1.5430001 180 187 184 255
0.74460316 0.37803873 1.5320001 181 188 185 255
0.74397838 0.37561169 1.5220001 180 187 184 255
0.74330145 0.37318543 1.5120001 184 191 190 255
0.74306685 0.37100679 1.503 185 192 191 255
0.74266261 0.42007372 1.7240001 175 182 179 255
0.7426275 0.41741246 1.7130001 174 181 178 255
0.74299902 0.40243769 1.651 176 183 182 255
0.74256921 0.39978233 1.6400001 177 184 183 255
0.74117029 0.39664018 1.6270001 176 183 180 255
0.74199402 0.39471787 1.6190001 178 185 182 255
0.74323756 0.39304024 1.6120001 178 185 182 255
0.74398148 0.39111972 1.6040001 180 187 186 255
0.74468428 0.38920015 1.5960001 178 185 184 255
0.744407 0.38679367 1.5860001 181 188 187 255
0.74360543 0.38414416 1.575 182 189 186 255
0.74322104 0.38173935 1.5650001 181 188 185 255
0.74326217 0.37957931 1.5560001 182 189 186 255
0.74421734 0.37790802 1.549 180 187 184 255
0.7432043 0.37526175 1.5380001 180 187 184 255
0.74310547 0.37310427 1.529 180 187 184 255
0.74296004 0.37094763 1.5200001 180 187 184 255
0.74325967 0.36903587 1.5120001 183 190 189 255
0.74302399 0.36688095 1.503 182 189 186 255
0.74342394 0.39816299 1.6520001 176 184 183 255
0.74209017 0.39505485 1.6390001 177 184 183 255
0.74068773 0.39194748 1.626 179 186 183 255
0.74104941 0.38980508 1.6170001 179 186 183 255
0.74274725 0.38838679 1.6110001 180 187 184 255
0.74395132 0.38672841 1.6040001 181 188 187 255
0.74558604 0.38531202 1.598 179 186 185 255
0.74437469 0.38244984 1.5860001 179 186 185 255
0.74404424 0.38007072 1.5760001 181 188 185 255
0.74223691 0.37696886 1.5630001 180 187 184 255
0.74274904 0.37507367 1.5550001 183 190 187 255
0.74321997 0.37317941 1.5470001 180 187 184 255
0.7436499 0.37128603 1.539 182 189 186 255
0.74258089 0.36866975 1.5280001 181 188 185 255
0.74243164 0.36653677 1.5190001 180 187 186 255
0.7427274 0.36464596 1.511 183 190 187 255
0.74347651 0.36299741 1.5040001 181 188 185 255
0.74387598 0.39152506 1.6430001 177 185 184 255
0.74157244 0.38797584 1.628 176 184 183 255
0.74285525 0.38633394 1.6210001 177 185 184 255
0.74271899 0.38397792 1.6110001 177 185 184 255
0.74345809 0.38209945 1.603 177 184 183 255
0.74368942 0.37998351 1.5940001 179 186 185 255
0.74340463 0.37763003 1.5840001 180 187 186 255
0.74353975 0.37551576 1.575 180 187 184 255
0.74220347 0.37268701 1.5630001 182 189 186 255
0.74175936 0.37033597 1.5530001 181 188 185 255
0.74222362 0.36846262 1.5450001 180 187 184 255
0.74168062 0.36611316 1.5350001 181 188 185 255
0.74108541 0.36376452 1.5250001 179 186 185 255
0.74092662 0.36165515 1.516 182 189 188 255
0.74219602 0.36026245 1.5100001 182 189 188 255
0.74244696 0.35839346 1.5020001 182 189 188 255
0.74294591 0.38656074 1.641 178 186 185 255
0.74245805 0.38399407 1.6300001 176 184 183 255
0.74282879 0.38189936 1.6210001 177 185 184 255
0.74269152 0.37956983 1.6110001 179 187 186 255
0.74342966 0.37771243 1.603 180 187 186 255
0.74319339 0.37538466 1.5930001 179 186 185 255
0.74196625 0.37258628 1.5810001 180 187 186 255
0.74256402 0.37073144 1.5730001 180 187 186 255
0.74217105 0.36840606 1.5630001 182 189 188 255
0.74268103 0.36655292 1.5550001 182 189 188 255
0.74266946 0.36446491 1.5460001 181 188 187 255
0.74212813 0.36214194 1.536 181 188 187 255
0.74104881 0.359584 1.5250001 181 188 187 255
0.74137777 0.35773423 1.5170001 183 190 189 255
0.74166584 0.35588533 1.5090001 182 189 188 255
0.74240708 0.35427314 1.5020001 184 191 190 255
0.74245334 0.38414633 1.6500001 178 185 184 255
0.74292225 0.38207373 1.641 177 184 183 255
0.74197787 0.37930349 1.6290001 178 186 185 255
0.74280304 0.37746543 1.6210001 179 186 185 255
0.74266493 0.37516248 1.6110001 175 183 182 255
0.74432945 0.3737919 1.605 178 185 184 255
0.7436313 0.37125781 1.5940001 180 187 186 255
0.74334449 0.36895734 1.5840001 181 188 187 255
0.74300557 0.36665773 1.5740001 182 189 188 255
0.74356389 0.3648248 1.5660001 180 187 186 255
0.74408114 0.36299273 1.5580001 183 190 189 255
0.74455726 0.36116156 1.5500001 181 188 187 255
0.74209344 0.35793307 1.536 183 190 189 255
0.7419849 0.35587046 1.5270001 180 187 186 255
0.74280709 0.35427481 1.5200001 183 190 189 255
0.74310243 0.352447 1.5120001 183 190 189 255
0.74187398 0.34992063 1.501 183 190 189 255
0.74108154 0.37894592 1.6470001 177 184 183 255
0.7419939 0.37712723 1.6390001 178 185 184 255
0.74195403 0.3748492 1.6290001 177 184 183 255
0.74094534 0.37211177 1.6170001 177 184 183 255
0.74125612 0.37006548 1.608 178 185 184 255
0.74430257 0.36940092 1.605 179 186 185 255
0.74546945 0.36781678 1.598 179 186 185 255
0.74425423 0.36508253 1.5860001 180 187 186 255
0.74250364 0.36211881 1.5730001 180 187 186 255
0.74258351 0.36007676 1.5640001 180 186 188 255
0.7445268 0.3589564 1.559 181 187 189 255
0.74404407 0.35668579 1.549 181 187 189 255
0.74254274 0.3539553 1.5370001 181 188 187 255
0.74195015 0.35168621 1.5270001 182 189 188 255
0.74325985 0.35033911 1.521 184 191 190 255
0.74306548 0.34830198 1.5120001 182 189 188 255
0.74183601 0.34580487 1.501 183 190 189 255
0.74356371 0.40517145 1.7830001 171 179 176 255
0.74189633 0.37715232 1.659 178 185 184 255
0.74151033 0.37467191 1.6480001 175 182 181 255
0.74151915 0.37241969 1.6380001 177 184 183 255
0.74010909 0.36948606 1.6250001 175 182 181 255
0.73908848 0.36678058 1.613 178 185 184 255
0.73938733 0.3647581 1.6040001 178 185 184 255
0.74334913 0.36455578 1.603 178 185 184 255
0.74544233 0.36344481 1.598 179 186 185 255
0.74563396 0.36142495 1.5890001 178 185 184 255
0.74389082 0.35849607 1.5760001 180 187 186 255
0.74302834 0.35602283 1.5650001 179 185 187 255
0.74401832 0.35446039 1.5580001 182 188 190 255
0.74449235 0.3526713 1.5500001 180 186 188 255
0.74444222 0.3506555 1.5410001 183 190 189 255
0.74434555 0.34864053 1.5320001 182 189 188 255
0.74469084 0.34685394 1.524 183 190 189 255
0.7445038 0.34484068 1.5150001 183 190 189 255
0.74328172 0.34237283 1.5040001 181 188 187 255
0.74220562 0.37507135 1.6700001 175 182 179 255
0.74098235 0.37217033 1.6570001 177 184 183 255
0.74103999 0.36994386 1.6470001 177 184 183 255
0.74104494 0.36771819 1.6370001 176 183 182 255
0.74099773 0.36549336 1.6270001 178 185 184 255
0.73998165 0.36281994 1.6150001 177 184 183 255
0.74028504 0.36082131 1.6060001 177 184 183 255
0.74286014 0.35994694 1.6020001 178 185 184 255
0.74494958 0.35884884 1.5970001 178 185 184 255
0.74513745 0.35685283 1.5880001 179 186 185 255
0.74386257 0.35418338 1.5760001 178 185 184 255
0.74252445 0.3515147 1.5640001 180 187 186 255
0.74303305 0.34974581 1.5560001 179 186 185 255
0.74254 0.34752813 1.5460001 181 188 187 255
0.7444101 0.34643534 1.5410001 181 188 187 255
0.74431241 0.34444416 1.5320001 181 188 185 255
0.74514526 0.34290347 1.5250001 183 190 187 255
0.74446857 0.34068906 1.5150001 182 189 188 255
0.74423391 0.33870029 1.506 183 190 189 255
0.73960096 0.37380421 1.6850001 175 182 181 255
0.74113458 0.37226751 1.6780001 162 169 168 255
0.74085444 0.36984423 1.6670001 173 180 177 255
0.74096358 0.36764356 1.6570001 175 182 181 255
0.74191999 0.36588749 1.649 177 184 183 255
0.74238235 0.36391038 1.6400001 176 183 182 255
0.7409761 0.36104646 1.6270001 177 184 183 255
0.74087554 0.35884899 1.6170001 179 186 185 255
0.74164438 0.35709617 1.6090001 178 185 184 255
0.74329942 0.35578814 1.603 178 185 184 255
0.7444576 0.35425904 1.5960001 179 186 185 255
0.7455802 0.35273081 1.5890001 179 186 185 255
0.74477917 0.35031542 1.5780001 179 186 185 255
0.74392033 0.34790084 1.567 181 188 187 255
0.74348128 0.345709 1.557 180 187 186 255
0.74299002 0.34351793 1.5470001 179 186 185 255
0.74486184 0.34243798 1.5420001 179 186 185 255
0.74573755 0.34091482 1.5350001 182 189 186 255
0.74657774 0.33939251 1.5280001 183 190 189 255
0.74492562 0.3367604 1.516 181 188 187 255
0.7446928 0.33479545 1.5070001 182 189 188 255
0.74005103 0.36267909 1.6550001 177 184 181 255
0.74280071 0.36182079 1.651 177 184 183 255
0.74326766 0.3598676 1.6420001 176 183 182 255
0.74277687 0.35747683 1.631 176 183 185 255
0.74131191 0.3546485 1.618 176 183 185 255
0.74300444 0.35335529 1.6120001 178 185 184 255
0.74281204 0.35118613 1.6020001 178 185 184 255
0.74443287 0.34989458 1.5960001 178 185 184 255
0.74461621 0.34794626 1.5870001 179 186 185 255
0.74475259 0.3459987 1.5780001 180 187 186 255
0.74389279 0.34361342 1.567 180 187 186 255
0.74393028 0.34166744 1.5580001 180 187 186 255
0.74344087 0.33950296 1.5480001 180 187 186 255
0.74531442 0.33843592 1.5430001 180 187 186 255
0.74570608 0.33671173 1.5350001 183 190 189 255
0.74556804 0.33476898 1.526 183 190 189 255
0.7424354 0.33151063 1.511 182 188 190 255
0.74218768 0.32956937 1.5020001 181 187 189 255
0.74003351 0.35815892 1.6550001 178 185 182 255
0.7423324 0.35709444 1.6500001 177 184 183 255
0.74324834 0.35538158 1.6420001 178 184 186 255
0.74275661 0.35302025 1.631 177 184 186 255
0.74220711 0.35065964 1.6200001 177 184 186 255
0.74206048 0.34851626 1.6100001 178 184 186 255
0.74139804 0.34615716 1.5990001 177 184 183 255
0.74207687 0.3444483 1.5910001 180 187 186 255
0.74365282 0.34317327 1.585 180 187 186 255
0.74425471 0.34146607 1.577 180 187 186 255
0.74434072 0.33954319 1.5680001 179 186 185 255
0.74390256 0.33740452 1.5580001 180 187 186 255
0.7448529 0.33591637 1.5510001 180 187 186 255
0.74576765 0.33442903 1.544 182 189 188 255
0.74567538 0.33250934 1.5350001 182 189 188 255
0.74504787 0.33037382 1.5250001 182 188 190 255
0.74240291 0.32737234 1.511 181 187 189 255
0.74166006 0.32523817 1.501 180 186 188 255
0.7418648 0.35237411 1.649 176 183 185 255
0.74187165 0.35025501 1.6390001 175 182 184 255
0.7418263 0.34813672 1.6290001 175 182 184 255
0.74264473 0.34644663 1.6210001 178 185 187 255
0.74296099 0.34454367 1.6120001 179 185 187 255
0.74183935 0.34200019 1.6 178 185 184 255
0.74205363 0.34009871 1.5910001 178 185 184 255
0.74362868 0.33883938 1.585 180 187 186 255
0.74422961 0.33715335 1.577 180 187 184 255
0.74336535 0.33482674 1.5660001 180 187 184 255
0.7429207 0.33271459 1.5560001 178 186 183 255
0.74386454 0.33124477 1.549 181 189 188 255
0.7457388 0.3302035 1.544 183 189 191 255
0.74515969 0.32809377 1.534 182 188 190 255
0.74355149 0.32555699 1.5220001 179 185 187 255
0.74138868 0.32280689 1.5090001 182 188 190 255
0.741678 0.35205781 1.669 174 181 183 255
0.74268335 0.35038581 1.6610001 176 183 185 255
0.74184769 0.34787071 1.649 176 183 185 255
0.74185365 0.34577829 1.6390001 176 183 186 255
0.74180746 0.34368667 1.6290001 177 184 186 255
0.74399942 0.34265077 1.6240001 176 183 185 255
0.7443229 0.3407717 1.6150001 178 184 186 255
0.74320877 0.33826038 1.603 176 183 182 255
0.74249756 0.33596081 1.5920001 179 186 185 255
0.74407446 0.33471721 1.5860001 181 188 187 255
0.74467719 0.33305231 1.5780001 181 188 185 255
0.74381471 0.33075503 1.567 179 186 183 255
0.74241716 0.32824737 1.5550001 179 187 184 255
0.74335718 0.32679591 1.5480001 180 188 187 255
0.74474466 0.32555643 1.5420001 181 187 189 255
0.744645 0.32368439 1.5330001 183 189 191 255
0.74401003 0.32160193 1.5230001 180 186 188 255
0.74332303 0.31952024 1.5130001 183 189 191 255
0.74208987 0.31722802 1.5020001 182 189 188 255
0.74166328 0.34750152 1.669 175 182 184 255
0.74222052 0.34564248 1.6600001 175 182 184 255
0.74093145 0.34295136 1.6470001 175 182 185 255
0.74138373 0.34109384 1.6380001 176 183 186 255
0.74178922 0.33923712 1.6290001 177 184 186 255
0.74306405 0.3377977 1.6220001 177 184 186 255
0.74430287 0.33635911 1.6150001 177 184 186 255
0.74457872 0.33450478 1.6060001 179 185 187 255
0.74480772 0.33265123 1.5970001 178 184 186 255
0.74545908 0.33100674 1.5890001 179 186 185 255
0.74606919 0.32936308 1.5810001 179 186 185 255
0.74426484 0.32667848 1.5680001 181 188 187 255
0.74334651 0.32441127 1.557 179 187 184 255
0.7428506 0.32235315 1.5470001 179 187 186 255
0.74375147 0.32092094 1.5400001 182 189 191 255
0.74267381 0.31865588 1.529 182 189 191 255
0.7430039 0.31701681 1.521 181 188 190 255
0.7423104 0.31496164 1.511 183 189 191 255
0.74255288 0.31332409 1.503 182 189 188 255
0.73895293 0.35029361 1.705 173 180 182 255
0.73969764 0.34845549 1.6960001 175 182 184 255
0.74192899 0.34519246 1.6800001 174 182 181 255
0.74253786 0.34335664 1.6710001 174 181 183 255
0.74265271 0.34131613 1.6610001 174 181 183 255
0.74181527 0.33886534 1.649 175 182 185 255
0.7422722 0.33703187 1.6400001 175 182 185 255
0.74268228 0.33519909 1.631 176 183 186 255
0.74350357 0.33357266 1.623 176 183 186 255
0.7442835 0.33194706 1.6150001 177 184 186 255
0.74502206 0.33032218 1.6070001 178 185 187 255
0.74571931 0.32869816 1.5990001 179 185 187 255
0.74543709 0.32666373 1.5890001 178 185 184 255
0.74463063 0.32442445 1.5780001 180 187 186 255
0.74376631 0.32218587 1.567 179 186 185 255
0.74379927 0.32035929 1.5580001 179 186 185 255
0.74330527 0.31832775 1.5480001 180 188 187 255
0.74372494 0.31670833 1.5400001 181 188 190 255
0.74313211 0.31467831 1.5300001 183 189 191 255
0.74297553 0.31285468 1.521 180 186 188 255
0.74326372 0.31123754 1.5130001 182 188 190 255
0.74351078 0.30962113 1.5050001 181 188 187 255
0.73764253 0.34503397 1.702 174 181 183 255
0.73925042 0.34362528 1.6950001 176 183 185 255
0.74235779 0.3408103 1.6810001 176 184 183 255
0.7416355 0.33839026 1.669 176 184 183 255
0.74219108 0.33657917 1.6600001 175 182 184 255
0.74224985 0.33456615 1.6500001 177 184 186 255
0.74316126 0.33295938 1.6420001 175 182 184 255
0.74357605 0.33115065 1.6330001 176 183 186 255
0.74440199 0.32954547 1.6250001 177 184 187 255
0.74472558 0.32773829 1.6160001 177 184 186 255
0.74407518 0.32552615 1.605 178 185 187 255
0.74476606 0.32392332 1.5970001 177 184 186 255
0.7440083 0.3217127 1.5860001 178 185 184 255
0.74555206 0.32051706 1.58 179 186 185 255
0.74516714 0.31851074 1.5700001 180 187 186 255
0.7456848 0.31691098 1.562 180 187 186 255
0.74376053 0.3142975 1.549 182 189 188 255
0.74418199 0.3126992 1.5410001 180 187 189 255
0.74310541 0.31049287 1.5300001 180 186 188 255
0.7434364 0.30889609 1.5220001 182 188 190 255
0.74225265 0.30669117 1.511 180 186 188 255
0.74298733 0.30529889 1.5040001 182 188 190 255
0.74278718 0.33642313 1.682 173 181 180 255
0.74162245 0.33383524 1.669 175 182 184 255
0.74217719 0.33204821 1.6600001 176 183 185 255
0.74223512 0.33006188 1.6500001 177 184 186 255
0.74224061 0.32807633 1.6400001 176 183 185 255
0.74264896 0.32629153 1.631 176 183 185 255
0.74392653 0.32490763 1.6240001 177 184 187 255
0.74516821 0.32352453 1.6170001 178 185 187 255
0.74498343 0.32154199 1.6070001 176 183 185 255
0.7442798 0.31936005 1.5960001 178 185 187 255
0.74351847 0.31717882 1.585 179 186 185 255
0.74458683 0.31579882 1.5780001 182 189 188 255
0.74514467 0.31421942 1.5700001 182 188 190 255
0.74613887 0.312841 1.5630001 180 186 188 255
0.7442165 0.31026235 1.5500001 181 187 189 255
0.74560559 0.30908561 1.544 181 187 189 255
0.74550784 0.30730912 1.5350001 182 188 190 255
0.74585181 0.30573356 1.5270001 181 187 190 255
0.7436986 0.3031576 1.5140001 181 187 190 255
0.74394661 0.3015835 1.506 184 190 192 255
0.74012583 0.33064988 1.6760001 174 181 183 255
0.73938823 0.32829419 1.664 174 181 183 255
0.73992848 0.32653114 1.6550001 174 181 183 255
0.74042165 0.32476884 1.646 176 183 185 255
0.74086785 0.32300726 1.6370001 175 182 184 255
0.74263304 0.32183841 1.631 176 183 185 255
0.74299377 0.3200784 1.6220001 176 185 187 255
0.74468982 0.31891114 1.6160001 177 184 186 255
0.74357432 0.31656057 1.6040001 177 184 186 255
0.74379432 0.31480277 1.595 178 185 187 255
0.74443662 0.31324309 1.5870001 176 184 183 255
0.74692506 0.31247374 1.5830001 180 187 189 255
0.74749589 0.31091565 1.575 178 185 187 255
0.74659348 0.30876604 1.5640001 179 186 188 255
0.7441929 0.30602485 1.5500001 178 185 187 255
0.74509835 0.3046664 1.5430001 179 186 188 255
0.74402547 0.30251881 1.5320001 183 189 192 255
0.74533707 0.30135936 1.526 180 186 189 255
0.7441628 0.29921323 1.5150001 183 189 192 255
0.74540061 0.29805532 1.5090001 182 188 190 255
0.74108189 0.33266255 1.71 174 181 183 255
0.74140084 0.33072606 1.7 175 182 185 255
0.7412284 0.32859579 1.6890001 172 181 184 255
0.7405563 0.32627165 1.677 175 182 185 255
0.74026501 0.32414281 1.6660001 175 182 185 255
0.73991567 0.3220146 1.6550001 174 181 184 255
0.74040806 0.32027635 1.646 174 183 185 255
0.73994833 0.31814963 1.6350001 174 183 185 255
0.74079669 0.31660742 1.6270001 178 185 187 255
0.74160349 0.31506592 1.6190001 177 184 186 255
0.74282974 0.31371984 1.6120001 177 184 186 255
0.7440201 0.3123745 1.605 177 184 186 255
0.74470836 0.3108353 1.5970001 177 184 186 255
0.74582434 0.30949154 1.59 179 186 188 255
0.74643284 0.30795389 1.582 180 187 189 255
0.74652553 0.30622235 1.5730001 179 186 189 255
0.74561673 0.30410215 1.562 178 185 188 255
0.74368995 0.30159318 1.549 180 187 190 255
0.7441088 0.30005845 1.5410001 182 188 191 255
0.74302965 0.29794025 1.5300001 182 188 191 255
0.74433476 0.29679647 1.524 181 187 190 255
0.74413645 0.29506922 1.5150001 182 189 192 255
0.74586731 0.2941218 1.5100001 182 189 192 255
0.74064022 0.32780698 1.7090001 172 181 183 255
0.74095571 0.32589728 1.6990001 173 182 185 255
0.74165738 0.32418016 1.6900001 172 181 184 255
0.74098724 0.3218883 1.6780001 176 183 186 255
0.74158657 0.32017261 1.669 176 183 186 255
0.74035054 0.31769028 1.6560001 175 182 185 255
0.74174452 0.31635976 1.649 176 183 185 255
0.74083966 0.3140707 1.6370001 177 184 186 255
0.74214786 0.31274164 1.6300001 176 183 185 255
0.74112993 0.31045395 1.618 176 183 185 255
0.74281341 0.30931833 1.6120001 177 184 186 255
0.74353939 0.30779964 1.6040001 177 184 186 255
0.74375772 0.30608979 1.595 179 186 188 255
0.74486738 0.30476451 1.5880001 178 185 187 255
0.7459414 0.30344003 1.5810001 176 185 188 255
0.74650496 0.30192435 1.5730001 180 187 190 255
0.74559534 0.29983354 1.562 178 185 188 255
0.74366784 0.2973595 1.549 180 187 190 255
0.74408585 0.29584596 1.5410001 182 188 191 255
0.74252021 0.29356515 1.529 179 185 188 255
0.74284482 0.29205304 1.521 183 189 192 255
0.74361968 0.2907337 1.5140001 180 187 190 255
0.74485284 0.28960717 1.508 183 190 193 255
0.7418192 0.32164153 1.7010001 174 181 184 255
0.74428105 0.32070494 1.6960001 175 182 185 255
0.74318498 0.31825626 1.6830001 175 182 185 255
0.74246424 0.31599736 1.6710001 175 182 185 255
0.74167997 0.31373909 1.659 174 181 184 255
0.74308145 0.31242719 1.6520001 175 182 184 255
0.74399418 0.31092691 1.6440001 176 183 185 255
0.74349964 0.30885994 1.6330001 177 184 186 255
0.74386334 0.30717197 1.6240001 177 184 186 255
0.74371922 0.30529556 1.6140001 177 184 186 255
0.74491346 0.30398732 1.6070001 178 185 187 255
0.74467295 0.30211234 1.5970001 177 184 186 255
0.74484915 0.30042723 1.5880001 174 183 186 255
0.74545044 0.29893205 1.58 174 183 186 255
0.74648499 0.29762685 1.5730001 178 185 188 255
0.74557465 0.29556549 1.562 180 187 190 255
0.74508649 0.29369399 1.552 179 185 188 255
0.74551195 0.29220173 1.544 181 187 190 255
0.74443948 0.29014242 1.5330001 181 187 190 255
0.74428588 0.28846225 1.524 182 188 190 255
0.74457705 0.28697214 1.516 183 189 191 255
0.7438392 0.2851041 1.506 184 190 192 255
0.74021739 0.32443085 1.7410001 175 182 184 255
0.74050277 0.31644344 1.6980001 175 182 185 255
0.74295557 0.31551999 1.6930001 174 181 184 255
0.74273366 0.31347901 1.682 173 182 185 255
0.74245375 0.31143874 1.6710001 176 183 186 255
0.74077469 0.30884001 1.6570001 174 181 184 255
0.7421698 0.30754668 1.6500001 176 183 185 255
0.74262369 0.30588129 1.641 177 184 186 255
0.74439663 0.30477583 1.6350001 176 183 185 255
0.74384892 0.30273908 1.6240001 175 182 184 255
0.74462563 0.30126229 1.6160001 175 182 184 255
0.74489743 0.29959977 1.6070001 175 184 187 255
0.74465615 0.29775155 1.5970001 173 182 185 255
0.74436253 0.29590398 1.5870001 175 184 187 255
0.74496025 0.29443005 1.5790001 178 187 190 255
0.7455166 0.29295686 1.5710001 179 186 189 255
0.74603182 0.29148439 1.5630001 180 187 190 255
0.74602568 0.2898261 1.554 180 186 189 255
0.74693865 0.28854162 1.5470001 181 187 190 255
0.74538809 0.28632522 1.5350001 181 187 189 255
0.7452392 0.28466904 1.526 182 188 190 255
0.74553508 0.28320014 1.5180001 183 189 191 255
0.74628371 0.28191853 1.511 181 187 189 255
0.74501014 0.27989131 1.5000001 184 190 192 255
0.73787898 0.33142149 1.8050001 166 175 178 255
0.73621434 0.32848433 1.789 168 177 179 255
0.74449068 0.30962574 1.6860001 174 181 184 255
0.74422097 0.30761507 1.6750001 175 182 185 255
0.7429992 0.30523774 1.6620001 173 180 183 255
0.7417084 0.30286106 1.649 174 181 184 255
0.74261135 0.3014034 1.641 174 181 183 255
0.74256235 0.29957911 1.631 176 183 186 255
0.74246091 0.29775554 1.6210001 176 183 186 255
0.74276787 0.29611632 1.6120001 174 183 186 255
0.74395484 0.29484519 1.605 173 182 185 255
0.74417359 0.29320741 1.5960001 175 184 187 255
0.74434549 0.29157034 1.5870001 178 187 190 255
0.74399877 0.28975019 1.577 179 188 191 255
0.74407429 0.28811452 1.5680001 181 188 191 255
0.74553496 0.28703073 1.562 180 187 190 255
0.74696553 0.2859478 1.5560001 180 187 190 255
0.7474004 0.28449807 1.5480001 183 189 192 255
0.7453661 0.28213 1.5350001 183 189 191 255
0.74521649 0.28049779 1.526 183 189 191 255
0.74551141 0.27905011 1.5180001 184 190 192 255
0.74724698 0.27815464 1.5130001 182 189 191 255
0.74597812 0.27615687 1.5020001 183 189 192 255
0.73747009 0.32632232 1.8040001 166 175 178 255
0.73539048 0.32324749 1.7870001 171 178 180 255
0.73611963 0.32143965 1.7770001 169 176 178 255
0.73981553 0.31078792 1.7180001 173 181 180 255
0.7397446 0.30880401 1.7070001 174 181 183 255
0.74179596 0.30772528 1.7010001 175 182 184 255
0.7433778 0.30646643 1.6940001 174 181 184 255
0.74492341 0.30520824 1.687 175 182 185 255
0.74509996 0.30340803 1.677 175 182 185 255
0.74298888 0.30070388 1.6620001 175 182 185 255
0.74214715 0.29854316 1.6500001 174 181 184 255
0.74169457 0.29656401 1.6390001 174 181 184 255
0.74163926 0.29476652 1.6290001 175 182 185 255
0.74107355 0.29278871 1.618 176 183 186 255
0.74275374 0.29171646 1.6120001 176 183 186 255
0.74394 0.29046389 1.605 176 183 186 255
0.74415785 0.28885013 1.5960001 174 183 186 255
0.74432898 0.28723708 1.5870001 180 187 190 255
0.74539673 0.28598669 1.58 178 187 190 255
0.74453074 0.28401303 1.5690001 180 187 190 255
0.74599344 0.28294513 1.5630001 181 188 191 255
0.74598569 0.28133482 1.554 182 189 192 255
0.74737978 0.2802684 1.5480001 182 188 191 255
0.74485922 0.27775419 1.534 183 189 192 255
0.74568272 0.27650812 1.5270001 182 189 192 255
0.74548852 0.27490059 1.5180001 182 189 191 255
0.7472232 0.27401814 1.5130001 182 189 192 255
0.74545681 0.27186862 1.501 183 190 193 255
0.74239385 0.30717313 1.7240001 175 182 184 255
0.74103844 0.30468428 1.71 174 181 183 255
0.74309736 0.30362156 1.7040001 176 182 185 255
0.74380887 0.30202499 1.6950001 176 182 185 255
0.74535656 0.30078554 1.6880001 175 181 184 255
0.74553514 0.29901215 1.6780001 175 182 185 255
0.74476713 0.29688308 1.6660001 175 182 185 255
0.74348593 0.29457647 1.6530001 176 183 186 255
0.74304074 0.29262689 1.6420001 174 181 184 255
0.74162716 0.29032156 1.6290001 177 183 189 255
0.74197674 0.28872976 1.6200001 177 183 189 255
0.74320084 0.28749511 1.613 176 182 188 255
0.74438912 0.2862612 1.6060001 177 183 189 255
0.74507517 0.28484973 1.598 178 185 188 255
0.745251 0.28326073 1.5890001 177 184 187 255
0.74632353 0.28202894 1.582 179 186 189 255
0.74498773 0.27990648 1.5700001 180 187 190 255
0.74597508 0.27867609 1.5630001 180 186 189 255
0.74596655 0.2770898 1.554 180 186 188 255
0.74687701 0.27586088 1.5470001 181 187 189 255
0.74483848 0.27356261 1.534 182 188 190 255
0.74517286 0.27215672 1.526 184 191 193 255
0.74546623 0.27075151 1.5180001 183 190 192 255
0.74719995 0.26988208 1.5130001 184 191 194 255
0.74543285 0.26776469 1.501 185 192 195 255
0.7415275 0.30212229 1.7220001 173 180 183 255
0.74103272 0.30002216 1.71 175 182 185 255
0.74265474 0.29879996 1.7030001 176 182 185 255
0.74292409 0.29705209 1.6930001 176 181 187 255
0.74446541 0.29583126 1.6860001 176 182 185 255
0.7437492 0.29373381 1.674 175 182 185 255
0.74341661 0.29181248 1.6630001 172 179 182 255
0.74392557 0.29024279 1.654 175 182 185 255
0.74302983 0.2881473 1.6420001 175 182 185 255
0.74343657 0.28657892 1.6330001 176 182 188 255
0.74379635 0.28501123 1.6240001 177 183 189 255
0.7450307 0.28379524 1.6170001 177 184 187 255
0.74483877 0.28205344 1.6070001 177 183 189 255
0.74459428 0.28031227 1.5970001 179 186 189 255
0.74523562 0.27892283 1.5890001 179 186 189 255
0.74677902 0.27788517 1.5830001 179 186 189 255
0.74639428 0.27614605 1.5730001 179 186 188 255
0.74643457 0.2745831 1.5640001 181 188 191 255
0.74594802 0.27284527 1.554 180 187 189 255
0.7473405 0.27181047 1.5480001 181 188 190 255
0.74530399 0.26954716 1.5350001 182 188 190 255
0.74612862 0.26833814 1.5280001 181 188 190 255
0.74544454 0.26660293 1.5180001 183 190 192 255
0.74668354 0.26557088 1.5120001 183 190 193 255
0.737248 0.29759657 1.723 173 182 185 255
0.73893905 0.2963917 1.7160001 174 181 184 255
0.73929387 0.29466936 1.7060001 173 180 183 255
0.74134034 0.29363859 1.7 174 181 184 255
