ply
format ascii 1.0
comment PCL generated
element vertex 1002
property float x
property float y
property float z
property uchar red
property uchar green
property uchar blue
property uchar alpha
element camera 0
property float view_px
property float view_py
property float view_pz
property float x_axisx
property float x_axisy
property float x_axisz
property float y_axisx
property float y_axisy
property float y_axisz
property float z_axisx
property float z_axisy
property float z_axisz
property float focal
property float scalex
property float scaley
property float centerx
property float centery
property int viewportx
property int viewporty
property float k1
property float k2
end_header
0.11770421 -0.12487638 1.646 63 69 62 255
0.12207346 -0.12472013 1.6440001 64 70 63 255
0.12650825 -0.12463959 1.6430001 65 71 64 255
0.13101676 -0.12463476 1.6430001 64 70 63 255
0.13535979 -0.12447806 1.641 65 71 64 255
0.13977656 -0.12439708 1.6400001 65 71 64 255
0.14401133 -0.12416425 1.6370001 73 79 72 255
0.14831981 -0.12400714 1.6350001 84 91 87 255
0.15280363 -0.12400156 1.6350001 77 82 78 255
0.15747929 -0.12414752 1.6370001 65 70 66 255
0.16196741 -0.12414166 1.6370001 51 56 52 255
0.1660482 -0.12383232 1.6330001 61 68 64 255
0.17021085 -0.1235987 1.6300001 64 71 68 255
0.17467791 -0.12359244 1.6300001 82 89 86 255
0.17903438 -0.1235102 1.6290001 83 90 87 255
0.18349738 -0.12350366 1.6290001 73 80 77 255
0.18795969 -0.12349699 1.6290001 68 75 71 255
0.19253944 -0.12356599 1.6300001 69 77 70 255
0.19700311 -0.12355905 1.6300001 57 65 58 255
0.20121886 -0.12340039 1.628 53 61 54 255
0.20542294 -0.12324161 1.626 74 81 77 255
0.20987347 -0.12323431 1.626 94 101 98 255
0.21419148 -0.12315111 1.6250001 83 90 86 255
0.21863782 -0.12314357 1.6250001 66 73 69 255
0.22294609 -0.12306014 1.6240001 55 62 58 255
0.2272481 -0.12297659 1.623 63 70 66 255
0.23154391 -0.12289296 1.6220001 75 81 74 255
0.23597898 -0.12288499 1.6220001 92 99 95 255
0.23996855 -0.12264963 1.6190001 52 59 55 255
0.24394093 -0.12241419 1.6160001 57 64 60 255
0.24835716 -0.12240592 1.6160001 93 100 96 255
0.2526162 -0.12232182 1.6150001 64 71 67 255
0.25686896 -0.12223764 1.6140001 60 67 63 255
0.26062977 -0.12192616 1.6100001 70 77 73 255
0.26502636 -0.12191753 1.6100001 66 74 67 255
0.26942214 -0.12190882 1.6100001 96 104 97 255
0.27381712 -0.12190003 1.6100001 65 73 66 255
0.27803844 -0.12181544 1.6090001 68 76 69 255
0.28172684 -0.12150367 1.605 59 67 60 255
0.28592741 -0.12141896 1.6040001 75 82 78 255
0.2901217 -0.12133418 1.603 93 100 96 255
0.29430968 -0.12124934 1.6020001 62 69 65 255
0.29849136 -0.12116444 1.6010001 68 75 71 255
0.30247757 -0.12100381 1.5990001 76 83 79 255
0.30702767 -0.12107012 1.6 88 93 89 255
0.31158248 -0.1211364 1.6010001 71 76 72 255
0.31554988 -0.12097561 1.5990001 70 75 71 255
0.31950551 -0.12081481 1.5970001 80 85 81 255
0.32365218 -0.1207296 1.5960001 84 89 85 255
0.32861468 -0.12094693 1.5990001 83 88 84 255
0.33338442 -0.12108853 1.6010001 70 75 71 255
0.3375313 -0.12100317 1.6 69 77 70 255
0.34145832 -0.12084217 1.598 75 83 76 255
0.34537366 -0.12068117 1.5960001 78 86 79 255
0.3497155 -0.12067137 1.5960001 73 81 74 255
0.35383469 -0.12058592 1.595 73 81 74 255
0.35839677 -0.12065167 1.5960001 74 82 75 255
0.36250892 -0.12056618 1.595 77 85 78 255
0.36661491 -0.12048069 1.5940001 73 81 74 255
0.37071463 -0.12039518 1.5930001 73 81 74 255
0.3750436 -0.12038526 1.5930001 77 85 78 255
0.37984809 -0.12052646 1.595 74 82 75 255
0.38442189 -0.12059205 1.5960001 73 81 73 255
0.3890003 -0.12065763 1.5970001 71 79 71 255
0.39284453 -0.12049654 1.595 72 80 72 255
0.39742425 -0.12056211 1.5960001 74 82 74 255
0.40251213 -0.12077873 1.5990001 71 79 71 255
0.40812454 -0.12114639 1.6040001 73 79 72 255
0.41299185 -0.12128743 1.6060001 70 76 68 255
0.41657004 -0.12105087 1.603 66 74 66 255
0.41986871 -0.12073888 1.5990001 66 74 66 255
0.42341033 -0.12050243 1.5960001 67 75 67 255
0.42747101 -0.12041707 1.595 68 74 66 255
0.43179643 -0.12040722 1.595 69 75 68 255
0.43612123 -0.12039741 1.595 71 77 70 255
0.44044539 -0.12038764 1.595 70 78 71 255
0.44421136 -0.12022696 1.5930001 69 77 70 255
0.44824749 -0.12014181 1.5920001 72 80 72 255
0.45284623 -0.12020764 1.5930001 72 80 72 255
0.45744991 -0.12027352 1.5940001 73 81 74 255
0.4623481 -0.12041487 1.5960001 69 77 70 255
0.46784154 -0.12070715 1.6 71 79 72 255
0.47306114 -0.120924 1.603 69 77 70 255
0.47829646 -0.12114088 1.6060001 70 78 71 255
0.48264611 -0.12113154 1.6060001 70 78 71 255
0.48669207 -0.12104682 1.605 71 79 72 255
0.49073234 -0.12096221 1.6040001 74 82 75 255
0.49569282 -0.12110392 1.6060001 75 83 76 255
0.50097507 -0.12132108 1.6090001 79 85 78 255
0.50595927 -0.1214629 1.6110001 72 78 71 255
0.51000381 -0.12137862 1.6100001 70 76 69 255
0.51276457 -0.12099291 1.605 73 79 72 255
0.51614255 -0.12075811 1.6020001 79 87 80 255
0.51982903 -0.12059883 1.6 82 90 83 255
0.5248149 -0.12074114 1.6020001 75 83 76 255
0.52948117 -0.12080818 1.603 71 79 72 255
0.53415275 -0.12087533 1.6040001 69 77 70 255
0.53849399 -0.12086724 1.6040001 67 75 67 255
0.54215837 -0.12070858 1.6020001 70 76 68 255
0.54581183 -0.12055005 1.6 68 74 66 255
0.54911077 -0.12031634 1.5970001 63 72 61 255
0.55239344 -0.12008279 1.5940001 68 77 66 255
0.55600929 -0.11992476 1.5920001 74 82 75 255
0.55961448 -0.11976687 1.59 83 91 84 255
0.56285429 -0.11953383 1.5870001 86 94 87 255
0.56679273 -0.11945159 1.5860001 83 90 86 255
0.57216644 -0.11967077 1.5890001 81 88 84 255
0.57864499 -0.120116 1.595 78 86 79 255
0.58552188 -0.12063667 1.6020001 74 82 75 255
0.59059596 -0.12078093 1.6040001 77 85 77 255
0.59456861 -0.12069948 1.603 22 30 22 255
0.59666806 -0.12024175 1.5970001 73 82 71 255
0.5998646 -0.12001011 1.5940001 54 63 52 255
0.60494059 -0.12015511 1.5960001 68 76 68 255
0.61308175 -0.12090252 1.6060001 77 85 77 255
0.62435353 -0.1222523 1.6240001 71 79 71 255
0.63301337 -0.12307524 1.6350001 62 70 62 255
0.63861448 -0.12329615 1.6380001 68 76 68 255
0.64462513 -0.1235925 1.6420001 69 77 70 255
0.64947242 -0.12366325 1.6430001 71 79 72 255
0.65671408 -0.12418583 1.6500001 72 80 73 255
0.70585406 -0.1290593 1.715 146 152 145 255
0.70263982 -0.12762655 1.6960001 75 81 73 255
0.70391065 -0.12702186 1.6880001 7 13 5 255
0.69926327 -0.12536402 1.6660001 10 17 6 255
0.69914442 -0.1245342 1.6550001 12 19 7 255
0.69939232 -0.12377992 1.6450001 12 19 7 255
0.70044315 -0.12317644 1.6370001 10 18 3 255
0.70618856 -0.12340096 1.6400001 13 21 6 255
0.71108508 -0.12347522 1.641 11 19 4 255
0.71773297 -0.12385079 1.646 13 20 8 255
0.72484845 -0.12430188 1.6520001 9 16 4 255
0.73155701 -0.12467805 1.6570001 50 57 46 255
0.73251963 -0.12407633 1.649 19 26 15 255
0.73254669 -0.12332445 1.6390001 17 24 13 255
0.73117203 -0.12234712 1.626 12 19 8 255
0.73153806 -0.12167111 1.6170001 37 44 33 255
0.73367757 -0.12129638 1.6120001 141 150 139 255
0.73624963 -0.1209972 1.608 137 145 137 255
0.73603845 -0.12024685 1.598 128 136 128 255
0.73531145 -0.11942157 1.5870001 134 143 136 255
0.73545861 -0.11874708 1.5780001 144 153 146 255
0.73555893 -0.1180729 1.5690001 163 171 168 255
0.73561227 -0.11739902 1.5600001 169 177 176 255
0.73609304 -0.11680071 1.552 172 180 179 255
0.73700953 -0.11627798 1.5450001 174 181 183 255
0.73789006 -0.11575556 1.5380001 173 180 182 255
0.7411474 -0.11560977 1.536 176 183 185 255
0.74245542 -0.11516327 1.5300001 177 184 186 255
0.74324512 -0.11464181 1.5230001 178 185 188 255
0.74252695 -0.11389484 1.5130001 176 183 186 255
0.74323702 -0.11337401 1.506 179 186 188 255
-0.76491129 -0.13348223 1.7120001 234 240 232 255
-0.75624609 -0.13277987 1.7030001 185 192 181 255
-0.74983883 -0.13246772 1.6990001 216 225 213 255
-0.74345505 -0.13215588 1.6950001 210 219 207 255
-0.7362231 -0.13168842 1.6890001 206 215 203 255
-0.7285924 -0.1311433 1.682 204 213 201 255
-0.72229284 -0.1308324 1.6780001 186 195 183 255
-0.7172997 -0.13075569 1.677 195 204 192 255
-0.71188861 -0.13060132 1.6750001 196 205 193 255
-0.70691222 -0.1305252 1.674 210 219 207 255
-0.70026439 -0.13013747 1.669 210 219 207 255
-0.69447869 -0.12990598 1.6660001 206 215 203 255
-0.6882965 -0.12959675 1.6620001 202 212 197 255
-0.68337154 -0.12952171 1.6610001 170 181 162 255
-0.67804444 -0.12936896 1.659 131 142 121 255
-0.6731354 -0.12929447 1.6580001 137 147 124 255
-0.66863602 -0.12929817 1.6580001 139 149 126 255
-0.66373706 -0.12922414 1.6570001 144 154 131 255
-0.65884459 -0.12915035 1.6560001 158 167 148 255
-0.65356326 -0.1289988 1.654 171 180 161 255
-0.64868611 -0.12892547 1.6530001 151 160 139 255
-0.64381522 -0.12885237 1.6520001 149 158 137 255
-0.63933748 -0.12885748 1.6520001 171 183 158 255
-0.63562906 -0.12901881 1.654 185 195 169 255
-0.63114727 -0.12902437 1.654 116 127 98 255
-0.62704492 -0.12910813 1.6550001 127 136 105 255
-0.62256169 -0.12911409 1.6550001 131 138 106 255
-0.61845249 -0.12919828 1.6560001 122 127 95 255
-0.61433828 -0.12928267 1.6570001 127 132 100 255
-0.60985106 -0.12928922 1.6570001 124 129 97 255
-0.60572958 -0.129374 1.6580001 125 130 99 255
-0.60160315 -0.12945896 1.659 125 132 101 255
-0.59783149 -0.12962215 1.6610001 126 133 102 255
-0.59369206 -0.12970749 1.6620001 129 136 105 255
-0.58954757 -0.129793 1.6630001 131 138 107 255
-0.58539772 -0.12987867 1.664 130 137 106 255
-0.5812428 -0.12996453 1.6650001 128 135 104 255
-0.57708251 -0.13005057 1.6660001 122 129 98 255
-0.57291692 -0.13013671 1.6670001 127 134 103 255
-0.56806409 -0.13006693 1.6660001 130 137 106 255
-0.56423151 -0.1302315 1.6680001 132 139 108 255
-0.56005251 -0.13031812 1.669 131 138 107 255
-0.55620092 -0.13048299 1.6710001 134 141 110 255
-0.55200827 -0.13056989 1.6720001 127 134 103 255
-0.54748279 -0.13057885 1.6720001 127 134 103 255
-0.54328185 -0.13066603 1.6730001 127 135 100 255
-0.53907531 -0.13075334 1.674 126 134 99 255
-0.53518254 -0.13091889 1.6760001 130 136 100 255
-0.53159535 -0.1311627 1.6790001 125 131 95 255
-0.52767771 -0.13132849 1.6810001 126 132 96 255
-0.5234378 -0.13141631 1.682 124 130 95 255
-0.51950067 -0.13158236 1.6840001 132 138 103 255
-0.51524663 -0.13167037 1.6850001 125 132 100 255
-0.51159298 -0.13191478 1.6880001 125 135 102 255
-0.50702155 -0.13192485 1.6880001 118 128 95 255
-0.50304502 -0.13209131 1.6900001 118 128 93 255
-0.49876231 -0.13217974 1.6910001 111 121 86 255
-0.49505827 -0.13242458 1.6940001 103 111 76 255
-0.49017927 -0.13235679 1.6930001 98 104 68 255
-0.4844448 -0.13205451 1.6890001 140 146 110 255
-0.47873145 -0.13175224 1.6850001 138 146 111 255
-0.4730393 -0.13144995 1.6810001 133 140 108 255
-0.46820429 -0.1313823 1.6800001 129 139 106 255
-0.46337417 -0.13131468 1.6790001 133 143 110 255
-0.45882213 -0.1313253 1.6790001 131 143 110 255
-0.45426953 -0.13133596 1.6790001 134 145 114 255
-0.44971624 -0.13134667 1.6790001 125 137 104 255
-0.44595778 -0.13159209 1.682 123 135 102 255
-0.44244477 -0.13191585 1.6860001 116 126 93 255
-0.43838993 -0.13208316 1.6880001 115 125 90 255
-0.43380964 -0.13209403 1.6880001 120 128 93 255
-0.42897424 -0.13202663 1.687 118 126 91 255
-0.42414361 -0.13195924 1.6860001 120 127 95 255
-0.42006427 -0.13212667 1.6880001 121 129 94 255
-0.41572714 -0.13221586 1.6890001 126 133 101 255
-0.41114038 -0.13222677 1.6890001 124 131 99 255
-0.40655291 -0.13223766 1.6890001 119 126 94 255
-0.40220264 -0.13232686 1.6900001 119 128 97 255
-0.39761084 -0.13233775 1.6900001 122 131 100 255
-0.39278567 -0.13227032 1.6890001 128 139 108 255
-0.38727567 -0.13196789 1.6850001 161 172 141 255
-0.38178656 -0.13166541 1.6810001 136 147 116 255
-0.37676716 -0.13151948 1.6790001 131 142 111 255
-0.37197948 -0.13145186 1.6780001 155 166 135 255
-0.36719647 -0.13138421 1.677 155 167 134 255
-0.36285046 -0.1314732 1.6780001 127 137 102 255
-0.35871175 -0.13164052 1.6800001 95 103 67 255
-0.35477203 -0.13188618 1.6830001 85 94 55 255
-0.34998283 -0.13181837 1.682 98 105 65 255
-0.34519827 -0.13175048 1.6810001 110 117 78 255
-0.34021562 -0.13160416 1.6790001 126 134 99 255
-0.33544293 -0.13153614 1.6780001 125 133 98 255
-0.33087194 -0.13154645 1.6780001 124 133 102 255
-0.3264946 -0.13163511 1.6790001 122 131 100 255
-0.32191917 -0.13164529 1.6790001 123 132 101 255
-0.31772089 -0.13181224 1.6810001 116 124 98 255
-0.31351081 -0.13197915 1.6830001 58 64 39 255
-0.30892187 -0.13198915 1.6830001 25 27 9 255
-0.30433205 -0.13199908 1.6830001 29 29 11 255
-0.2995632 -0.13193047 1.682 29 26 10 255
-0.29497433 -0.13194023 1.682 29 26 10 255
-0.29072991 -0.1321068 1.6840001 31 29 18 255
-0.28647369 -0.13227329 1.6860001 23 23 13 255
-0.28153694 -0.1321259 1.6840001 98 100 92 255
-0.27595246 -0.1316645 1.6780001 90 96 89 255
-0.27056158 -0.13128144 1.6730001 89 95 88 255
-0.26535615 -0.13097666 1.669 81 89 82 255
-0.26032805 -0.13075027 1.6660001 86 92 85 255
-0.25531548 -0.13052371 1.6630001 76 84 77 255
-0.25062004 -0.13045399 1.6620001 67 75 68 255
-0.24592926 -0.13038416 1.6610001 73 81 74 255
-0.24153379 -0.13047121 1.6620001 75 83 76 255
-0.23670429 -0.13032265 1.6600001 94 102 95 255
-0.23160516 -0.13001691 1.6560001 87 95 88 255
-0.22666429 -0.12978953 1.6530001 81 87 80 255
-0.22200783 -0.12971905 1.6520001 76 82 75 255
-0.21735603 -0.12964842 1.651 74 80 72 255
-0.21283792 -0.12965621 1.651 76 85 74 255
-0.20844518 -0.1297424 1.6520001 54 63 52 255
-0.20392281 -0.12974991 1.6520001 63 72 61 255
-0.19927901 -0.12967876 1.651 66 75 64 255
-0.19440407 -0.1294504 1.6480001 66 74 66 255
-0.18977527 -0.12937893 1.6470001 80 88 81 255
-0.18526374 -0.12938589 1.6470001 81 89 82 255
-0.18053204 -0.12923558 1.6450001 82 90 83 255
-0.17602465 -0.12924227 1.6450001 78 86 78 255
-0.1714123 -0.12917021 1.6440001 73 81 73 255
-0.1675155 -0.12964804 1.6500001 69 78 67 255
-0.16378276 -0.13028294 1.6580001 63 72 61 255
-0.15962131 -0.13060339 1.6620001 61 68 56 255
-0.15478425 -0.13037363 1.659 54 61 49 255
-0.15005361 -0.13022228 1.6570001 55 62 51 255
-0.14550896 -0.13022795 1.6570001 57 64 53 255
-0.14087869 -0.13015486 1.6560001 62 69 58 255
-0.13617101 -0.13000301 1.654 67 75 67 255
-0.13131464 -0.12969379 1.6500001 67 75 67 255
-0.12671016 -0.12962018 1.649 69 75 67 255
-0.12218481 -0.12962502 1.649 70 76 69 255
-0.11773033 -0.12970832 1.6500001 63 69 62 255
-0.11326986 -0.12979144 1.651 65 71 64 255
-0.10880344 -0.12987441 1.6520001 61 67 59 255
-0.10426801 -0.12987858 1.6520001 59 65 58 255
-0.099732123 -0.1298826 1.6520001 59 65 58 255
-0.095195852 -0.12988645 1.6520001 69 75 67 255
-0.090768933 -0.13004737 1.654 65 71 63 255
-0.086278528 -0.1301295 1.6550001 58 64 56 255
-0.081584744 -0.12989694 1.6520001 59 65 57 255
-0.07700038 -0.12982146 1.651 70 76 68 255
-0.072421186 -0.1297458 1.6500001 71 79 72 255
-0.067929484 -0.12982722 1.651 70 78 71 255
-0.0633936 -0.12982985 1.651 62 70 63 255
-0.058821809 -0.12975366 1.6500001 62 70 62 255
-0.054288164 -0.12975591 1.6500001 67 73 65 255
-0.049724139 -0.12967937 1.649 59 65 57 255
-0.045192804 -0.12968127 1.649 54 60 52 255
-0.04066129 -0.129683 1.649 50 56 48 255
-0.036129594 -0.12968452 1.649 54 60 52 255
-0.031559434 -0.12952861 1.6470001 71 79 71 255
-0.027016539 -0.12945114 1.646 72 80 72 255
-0.022479031 -0.12937349 1.6450001 67 73 65 255
-0.017979668 -0.12953159 1.6470001 63 69 61 255
-0.013444737 -0.12945357 1.646 63 69 61 255
-0.0089152465 -0.1293754 1.6450001 67 73 66 255
-0.0043965555 -0.1294543 1.646 64 70 63 255
0.00012757255 -0.12945439 1.646 64 70 62 255
0.004648874 -0.12937564 1.6450001 64 70 62 255
0.0091646584 -0.12929672 1.6440001 64 70 62 255
0.013683232 -0.12929626 1.6440001 66 72 64 255
0.018190676 -0.12921697 1.6430001 68 74 66 255
0.022692544 -0.12913749 1.6420001 67 73 65 255
0.027188819 -0.12905785 1.641 66 72 64 255
0.03171812 -0.12913531 1.6420001 66 72 65 255
0.036252782 -0.12921259 1.6430001 65 71 64 255
0.040767979 -0.12921105 1.6430001 66 72 65 255
0.045255434 -0.12913066 1.6420001 60 66 59 255
0.049737211 -0.12905012 1.641 65 71 64 255
0.054246336 -0.12904803 1.641 70 76 69 255
0.058755238 -0.12904578 1.641 70 76 69 255
0.063263893 -0.12904336 1.641 68 74 67 255
0.067689687 -0.12888345 1.6390001 70 76 69 255
0.072104216 -0.1287234 1.6370001 75 81 74 255
0.076554246 -0.12864181 1.636 81 87 80 255
0.081048012 -0.12863868 1.636 76 84 77 255
0.085646011 -0.12879264 1.6380001 72 78 71 255
0.090089545 -0.12871052 1.6370001 70 76 69 255
0.09470056 -0.12886412 1.6390001 68 74 67 255
0.099261649 -0.12893893 1.6400001 66 72 65 255
0.1040809 -0.12932804 1.6450001 66 72 65 255
0.10872915 -0.12948109 1.6470001 68 74 67 255
0.11338792 -0.12963396 1.649 63 69 62 255
0.11769971 -0.12939361 1.646 65 71 64 255
0.12214303 -0.12931032 1.6450001 65 71 64 255
0.12650342 -0.12914827 1.6430001 68 74 67 255
0.13101177 -0.12914328 1.6430001 65 71 64 255
0.13527216 -0.12890233 1.6400001 66 72 65 255
0.13968603 -0.12881841 1.6390001 65 71 64 255
0.14400588 -0.12865578 1.6370001 73 79 72 255
0.14831421 -0.128493 1.6350001 81 88 84 255
0.152611 -0.12833008 1.6330001 83 90 86 255
0.15718481 -0.12840275 1.6340001 65 70 66 255
0.16176352 -0.12847529 1.6350001 53 58 54 255
0.1661437 -0.12839049 1.6340001 66 71 67 255
0.17020455 -0.12806988 1.6300001 66 71 67 255
0.1745643 -0.12798484 1.6290001 75 82 81 255
0.17880802 -0.12782109 1.6270001 85 92 91 255
0.18337803 -0.1278929 1.628 75 82 81 255
0.18772209 -0.12780745 1.6270001 71 78 75 255
0.19241433 -0.12795752 1.6290001 65 72 68 255
0.19675428 -0.12787181 1.628 58 66 59 255
0.20084083 -0.12762889 1.6250001 51 59 52 255
0.20503657 -0.12746441 1.623 74 81 77 255
0.20934974 -0.12737836 1.6220001 95 102 99 255
0.21392027 -0.12744923 1.623 93 100 97 255
0.21836102 -0.12744145 1.623 67 74 70 255
0.22252642 -0.12727651 1.6210001 56 61 57 255
0.22696015 -0.12726851 1.6210001 68 74 67 255
0.23110762 -0.12710337 1.6190001 85 93 86 255
0.23553436 -0.12709515 1.6190001 81 88 84 255
0.23936743 -0.12677281 1.6150001 56 63 59 255
0.24363069 -0.12668589 1.6140001 77 84 80 255
0.24788767 -0.12659888 1.613 95 102 98 255
0.25245124 -0.12666874 1.6140001 72 77 73 255
0.25638288 -0.12642457 1.6110001 66 71 67 255
0.2602973 -0.12618034 1.608 72 77 73 255
0.26435915 -0.12601452 1.6060001 86 92 85 255
0.26907855 -0.12616245 1.608 87 95 88 255
0.27329794 -0.12607494 1.6070001 69 77 70 255
0.27768379 -0.12606578 1.6070001 66 74 67 255
0.28136671 -0.12574276 1.603 64 72 65 255
0.28556171 -0.12565503 1.6020001 70 78 71 255
0.28956947 -0.12548877 1.6 90 98 91 255
0.29393291 -0.12547934 1.6 67 74 70 255
0.29792264 -0.125313 1.598 68 75 71 255
0.30208978 -0.12522501 1.5970001 96 101 97 255
0.30644253 -0.12521538 1.5970001 84 89 85 255
0.31098908 -0.12528408 1.598 71 76 72 255
0.3149482 -0.12511754 1.5960001 71 76 72 255
0.31889564 -0.12495095 1.5940001 78 83 79 255
0.32303411 -0.12486271 1.5930001 79 86 82 255
0.32798836 -0.12508795 1.5960001 82 89 85 255
0.33274984 -0.12523471 1.598 71 76 72 255
0.33709952 -0.12522469 1.598 71 77 70 255
0.34102106 -0.12505792 1.5960001 76 84 77 255
0.34493092 -0.12489112 1.5940001 75 83 76 255
0.34970549 -0.1250377 1.5960001 73 81 74 255
0.35360283 -0.12487087 1.5940001 73 81 74 255
0.35793763 -0.1248607 1.5940001 76 84 77 255
0.3620443 -0.12477216 1.5930001 74 82 75 255
0.36614487 -0.12468364 1.5920001 73 81 74 255
0.37023911 -0.12459509 1.5910001 75 83 76 255
0.37432718 -0.12450654 1.59 76 84 77 255
0.37912357 -0.12465288 1.5920001 75 83 76 255
0.38393 -0.1247992 1.5940001 72 80 72 255
0.38850299 -0.12486719 1.595 67 75 67 255
0.39283442 -0.1248569 1.595 70 78 70 255
0.39766315 -0.12500316 1.5970001 71 79 71 255
0.40225032 -0.12507111 1.598 69 77 69 255
0.40785989 -0.12545212 1.603 69 77 70 255
0.4122102 -0.12544177 1.603 66 74 66 255
0.41707963 -0.12558797 1.605 67 75 67 255
0.42064634 -0.12534295 1.6020001 63 71 63 255
0.42446142 -0.12517621 1.6 65 73 65 255
0.42772898 -0.12485307 1.5960001 66 74 66 255
0.43205717 -0.12484291 1.5960001 69 75 67 255
0.4361113 -0.12475456 1.595 69 75 68 255
0.44043547 -0.12474447 1.595 71 77 70 255
0.44420153 -0.12457801 1.5930001 70 78 71 255
0.44851932 -0.12456802 1.5930001 71 79 72 255
0.45226794 -0.1244017 1.5910001 75 83 76 255
0.45686623 -0.12447 1.5920001 74 82 75 255
0.46089002 -0.12438198 1.5910001 73 81 74 255
0.46578515 -0.12452856 1.5930001 73 81 74 255
0.4706907 -0.12467519 1.595 71 79 72 255
0.47590438 -0.1249 1.598 72 80 72 255
0.480533 -0.12496856 1.5990001 69 77 69 255
0.48486331 -0.12495901 1.5990001 72 80 72 255
0.48888743 -0.12487143 1.598 73 81 73 255
0.49352303 -0.12494019 1.5990001 74 82 74 255
0.49785239 -0.12493091 1.5990001 77 83 76 255
0.5034377 -0.12523422 1.603 74 80 73 255
0.50777739 -0.12522508 1.603 74 80 73 255
0.51147783 -0.12505984 1.6010001 73 79 72 255
0.51484513 -0.12481661 1.598 79 85 78 255
0.51949555 -0.12488594 1.5990001 78 86 79 255
0.52513397 -0.12518963 1.603 72 80 73 255
0.53013337 -0.12533724 1.605 70 78 71 255
0.53447747 -0.12532876 1.605 70 78 71 255
0.53815013 -0.12516426 1.603 67 75 68 255
0.54147351 -0.12492182 1.6 69 77 69 255
0.54512173 -0.12475763 1.598 64 72 64 255
0.5484153 -0.1245155 1.595 67 75 67 255
0.55203927 -0.12435161 1.5930001 66 74 66 255
0.5560019 -0.12426597 1.5920001 71 79 72 255
0.55960715 -0.12410241 1.59 79 87 80 255
0.5628472 -0.12386098 1.5870001 88 96 89 255
0.56642848 -0.12369777 1.585 87 95 88 255
0.57071936 -0.12369082 1.585 79 87 80 255
0.57718724 -0.12415225 1.5910001 78 86 79 255
0.5840534 -0.12469181 1.598 77 85 78 255
0.58948505 -0.1249194 1.6010001 78 86 79 255
0.59270787 -0.124679 1.598 21 27 19 255
0.59516764 -0.12428278 1.5930001 67 75 67 255
0.59835356 -0.12404282 1.59 40 48 40 255
0.6030398 -0.12411512 1.5910001 59 67 59 255
0.60925895 -0.12449963 1.5960001 79 87 79 255
0.61627483 -0.12504031 1.603 65 73 65 255
0.62178063 -0.12526916 1.6060001 62 70 62 255
0.62613368 -0.1252642 1.6060001 68 76 68 255
0.63088012 -0.12533747 1.6070001 73 81 74 255
0.6352374 -0.12533292 1.6070001 79 87 80 255
0.64078963 -0.12556261 1.6100001 83 89 82 255
0.64836258 -0.12618242 1.618 80 86 79 255
0.65840048 -0.12727037 1.6320001 39 43 36 255
0.66729695 -0.12812451 1.6430001 7 11 3 255
0.67053008 -0.12788716 1.6400001 11 15 7 255
0.67169023 -0.12726019 1.6320001 13 18 7 255
0.67115092 -0.1263216 1.6200001 17 22 11 255
0.67513466 -0.12624101 1.6190001 20 25 13 255
0.67827469 -0.12600476 1.6160001 21 26 14 255
0.68055505 -0.12561287 1.6110001 24 29 15 255
0.67983323 -0.12467544 1.5990001 23 28 14 255
0.68161505 -0.12420614 1.5930001 24 29 15 255
0.68637973 -0.12428293 1.5940001 21 27 10 255
0.69115144 -0.12435997 1.595 22 30 15 255
0.69898248 -0.1249831 1.603 21 28 16 255
0.70598119 -0.12545061 1.6090001 22 29 17 255
0.71831226 -0.12685402 1.6270001 19 26 14 255
0.71786076 -0.12599666 1.6160001 16 23 11 255
0.71779817 -0.1252176 1.6060001 22 29 17 255
0.72128028 -0.1250626 1.6040001 21 28 16 255
0.72475338 -0.12490793 1.6020001 18 25 14 255
0.7282176 -0.12475356 1.6 17 24 13 255
0.72984153 -0.12428765 1.5940001 15 24 13 255
0.73281658 -0.12405597 1.5910001 120 129 118 255
0.73346078 -0.12343477 1.5830001 127 135 127 255
0.7345295 -0.12289186 1.5760001 133 142 135 255
0.73368704 -0.12203734 1.5650001 159 168 163 255
0.7351445 -0.12157307 1.559 165 173 172 255
0.73562282 -0.12095314 1.5510001 169 176 178 255
0.73701382 -0.12048949 1.5450001 172 179 181 255
0.73741502 -0.11987022 1.5370001 172 179 181 255
0.74066991 -0.11971921 1.5350001 174 181 183 255
0.74197555 -0.11925659 1.529 175 182 184 255
0.74325097 -0.11879429 1.5230001 176 183 186 255
0.74253303 -0.11802033 1.5130001 177 184 187 255
0.74274999 -0.11740267 1.5050001 177 184 186 255
-0.76982683 -0.1390349 1.723 226 232 224 255
-0.75757885 -0.1376624 1.7060001 228 235 224 255
-0.74983889 -0.13709718 1.6990001 174 183 172 255
-0.7430163 -0.1366937 1.6940001 214 223 211 255
-0.73578668 -0.13620983 1.6880001 194 203 191 255
-0.72902483 -0.13580701 1.6830001 198 207 196 255
-0.72272217 -0.13548517 1.6790001 200 209 197 255
-0.71772599 -0.13540572 1.6780001 196 205 193 255
-0.71231198 -0.13524589 1.6760001 199 208 196 255
-0.70691025 -0.13508637 1.674 204 213 201 255
-0.70068163 -0.13476574 1.6700001 197 206 194 255
-0.694893 -0.13452609 1.6670001 207 216 204 255
-0.68953604 -0.13436741 1.6650001 214 223 211 255
-0.68377984 -0.13412829 1.6620001 183 194 175 255
-0.67804104 -0.13388944 1.659 152 163 144 255
-0.67272574 -0.13373156 1.6570001 128 138 115 255
-0.66782558 -0.13365464 1.6560001 130 140 117 255
-0.66293186 -0.13357797 1.6550001 127 137 114 255
-0.65804452 -0.13350153 1.654 154 163 142 255
-0.65276843 -0.13334464 1.6520001 150 159 138 255
-0.64828885 -0.1333494 1.6520001 158 168 145 255
-0.64381015 -0.13335441 1.6520001 156 166 143 255
-0.64010614 -0.13352108 1.654 132 144 119 255
-0.63639212 -0.13368802 1.6560001 192 202 176 255
-0.63152313 -0.13361298 1.6550001 114 123 94 255
-0.62741792 -0.13369963 1.6560001 122 131 100 255
-0.62293184 -0.13370575 1.6560001 135 142 110 255
-0.61881953 -0.13379282 1.6570001 128 133 101 255
-0.61433178 -0.13379936 1.6570001 123 128 96 255
-0.61021245 -0.13388684 1.6580001 125 130 99 255
-0.60645342 -0.1340553 1.6600001 125 130 99 255
-0.60195863 -0.13406241 1.6600001 127 134 103 255
-0.59818411 -0.13423127 1.6620001 128 135 104 255
-0.59368455 -0.13423875 1.6620001 127 136 107 255
-0.58989435 -0.13440798 1.664 126 135 106 255
-0.58538991 -0.13441582 1.664 130 137 108 255
-0.58158398 -0.13458544 1.6660001 127 134 103 255
-0.57742071 -0.1346744 1.6670001 121 128 97 255
-0.573596 -0.13484435 1.669 131 138 107 255
-0.56873763 -0.13477206 1.6680001 127 134 103 255
-0.56456119 -0.13486151 1.669 124 131 100 255
-0.56037939 -0.13495113 1.6700001 127 132 101 255
-0.55652487 -0.1351217 1.6720001 129 134 103 255
-0.55232942 -0.13521162 1.6730001 131 136 105 255
-0.54845595 -0.13538249 1.6750001 127 134 103 255
-0.54392207 -0.13539186 1.6750001 121 128 96 255
-0.54003197 -0.13556302 1.677 123 131 96 255
-0.53581166 -0.13565348 1.6780001 128 136 100 255
-0.53190225 -0.1358249 1.6800001 123 129 93 255
-0.527668 -0.13591561 1.6810001 124 132 96 255
-0.52405035 -0.13616814 1.6840001 121 127 91 255
-0.52010769 -0.13633996 1.6860001 130 136 101 255
-0.5158481 -0.13643101 1.687 124 131 99 255
-0.51188576 -0.13660304 1.6890001 123 133 100 255
-0.50731164 -0.13661343 1.6890001 125 135 102 255
-0.50333232 -0.13678567 1.6910001 120 130 95 255
-0.4990468 -0.13687713 1.692 115 125 90 255
-0.49563217 -0.13721138 1.6960001 106 114 78 255
-0.49161631 -0.13738392 1.6980001 101 107 71 255
-0.48644188 -0.13723291 1.6960001 103 110 71 255
-0.48099369 -0.13700101 1.6930001 137 143 107 255
-0.47527975 -0.13668817 1.6890001 140 148 113 255
-0.46986571 -0.13645631 1.6860001 132 140 105 255
-0.46446729 -0.13622442 1.6830001 132 142 109 255
-0.45990437 -0.1362354 1.6830001 136 147 116 255
-0.45507035 -0.13616547 1.682 131 145 113 255
-0.45050889 -0.13617653 1.682 126 137 106 255
-0.44621199 -0.13626856 1.6830001 124 135 104 255
-0.44269621 -0.13660359 1.687 118 128 95 255
-0.4383789 -0.13669573 1.6880001 115 125 90 255
-0.43405557 -0.13678791 1.6890001 116 124 89 255
-0.42947182 -0.13679913 1.6890001 116 124 89 255
-0.42488724 -0.13681036 1.6890001 116 126 93 255
-0.42030206 -0.1368216 1.6890001 117 127 94 255
-0.41571605 -0.13683285 1.6890001 121 131 98 255
-0.41088593 -0.13676305 1.6880001 121 130 99 255
-0.40654185 -0.13685533 1.6890001 119 128 97 255
-0.40219155 -0.1369476 1.6900001 121 130 99 255
-0.39783508 -0.13703988 1.6910001 121 130 101 255
-0.39323974 -0.13705111 1.6910001 129 140 111 255
-0.38818395 -0.1369002 1.6890001 159 170 141 255
-0.38313824 -0.13674924 1.687 125 136 105 255
-0.37787825 -0.1365172 1.6840001 115 129 97 255
-0.37352034 -0.13660935 1.6850001 118 132 100 255
-0.36828035 -0.13637716 1.682 163 174 143 255
-0.36370459 -0.13638817 1.682 136 146 113 255
-0.359128 -0.13639913 1.682 103 113 78 255
-0.35497209 -0.13657226 1.6840001 92 100 64 255
-0.35059637 -0.13666426 1.6850001 99 106 66 255
-0.34559834 -0.13651289 1.6830001 105 112 73 255
-0.34081295 -0.13644254 1.682 123 129 93 255
-0.33563235 -0.13620989 1.6790001 122 130 94 255
-0.33105868 -0.13622053 1.6790001 126 134 99 255
-0.3264842 -0.13623111 1.6790001 130 137 105 255
-0.3222923 -0.1364039 1.6810001 123 133 100 255
-0.31789961 -0.13649552 1.682 119 127 101 255
-0.31387314 -0.13674937 1.6850001 96 102 77 255
-0.30964592 -0.13692203 1.687 18 20 2 255
-0.30504528 -0.1369323 1.687 26 26 8 255
-0.30026564 -0.13686131 1.6860001 26 23 7 255
-0.29584128 -0.13695256 1.687 30 27 11 255
-0.29123801 -0.13696258 1.687 28 27 13 255
-0.28697371 -0.13713488 1.6890001 24 25 13 255
-0.28219604 -0.13706352 1.6880001 88 88 80 255
-0.27692968 -0.13674843 1.6840001 88 92 85 255
-0.27152255 -0.13635199 1.6790001 90 96 89 255
-0.26614186 -0.13595538 1.674 88 94 87 255
-0.26094395 -0.13563983 1.6700001 82 88 81 255
-0.25592056 -0.13540536 1.6670001 80 88 81 255
-0.2512143 -0.13533321 1.6660001 64 72 64 255
-0.24651271 -0.13526092 1.6650001 74 82 75 255
-0.24225175 -0.13543226 1.6670001 73 81 74 255
-0.23726612 -0.13519725 1.664 91 99 92 255
-0.23201635 -0.1347996 1.659 88 96 89 255
-0.22693029 -0.13448302 1.6550001 78 86 79 255
-0.2221341 -0.1343288 1.6530001 79 85 78 255
-0.21774302 -0.13441822 1.654 74 80 72 255
-0.21321678 -0.13442625 1.654 73 82 71 255
-0.20881599 -0.13451546 1.6550001 68 76 68 255
-0.20416211 -0.13444196 1.654 57 66 55 255
-0.19951299 -0.13436832 1.6530001 71 79 71 255
-0.19463266 -0.13413192 1.6500001 70 78 71 255
-0.18999855 -0.13405797 1.649 80 88 81 255
-0.18536921 -0.13398385 1.6480001 83 91 84 255
-0.18074466 -0.1339096 1.6470001 84 92 85 255
-0.17612493 -0.1338352 1.646 82 90 83 255
-0.17161429 -0.13384192 1.646 73 81 73 255
-0.1676106 -0.13425511 1.651 65 74 63 255
-0.16377643 -0.13483082 1.6580001 61 70 59 255
-0.15951912 -0.13508113 1.6610001 57 66 55 255
-0.15468495 -0.13484332 1.6580001 55 62 50 255
-0.14995719 -0.13468666 1.6560001 55 64 53 255
-0.14541547 -0.13469251 1.6560001 58 67 56 255
-0.14095823 -0.13477953 1.6570001 64 73 62 255
-0.13616566 -0.13454102 1.654 67 75 67 255
-0.13130945 -0.13422099 1.6500001 66 74 66 255
-0.12670515 -0.1341448 1.649 69 75 67 255
-0.12217997 -0.1341498 1.649 68 74 67 255
-0.11772564 -0.13423598 1.6500001 66 72 65 255
-0.11312815 -0.13415928 1.649 66 72 65 255
-0.10873324 -0.13432647 1.651 63 69 61 255
-0.10413761 -0.13424943 1.6500001 56 62 54 255
-0.09972813 -0.13441631 1.6520001 54 60 52 255
-0.095134407 -0.13433892 1.651 68 74 66 255
-0.090710416 -0.13450545 1.6530001 65 71 63 255
-0.0861708 -0.13450906 1.6530001 55 61 53 255
-0.081532069 -0.13434973 1.651 63 69 61 255
-0.076950632 -0.13427162 1.6500001 71 77 69 255
-0.072418272 -0.13427469 1.6500001 71 79 71 255
-0.067967877 -0.13444032 1.6520001 69 77 69 255
-0.06342943 -0.13444303 1.6520001 65 73 65 255
-0.058855068 -0.13436417 1.651 62 70 62 255
-0.054285958 -0.13428514 1.6500001 62 70 62 255
-0.049752265 -0.13428728 1.6500001 59 65 57 255
-0.045190964 -0.13420784 1.649 54 60 52 255
-0.040634971 -0.13412826 1.6480001 58 64 56 255
-0.036106214 -0.13412985 1.6480001 48 54 47 255
-0.031538982 -0.13396846 1.646 92 98 91 255
-0.026999021 -0.13388829 1.6450001 68 74 66 255
-0.022491772 -0.13397069 1.646 65 71 63 255
-0.017978935 -0.13405293 1.6470001 62 68 60 255
-0.01343602 -0.13389081 1.6450001 64 70 62 255
-0.008909462 -0.13380986 1.6440001 65 71 63 255
-0.0043937047 -0.13389155 1.6450001 64 70 62 255
0.00012741232 -0.13381024 1.6440001 63 69 62 255
0.004645858 -0.13381015 1.6440001 66 72 64 255
0.0091531351 -0.13364707 1.6420001 63 71 63 255
0.01367435 -0.133728 1.6430001 61 69 61 255
0.01817886 -0.13364592 1.6420001 66 74 66 255
0.022663979 -0.13348231 1.6400001 65 73 65 255
0.027171142 -0.13348128 1.6400001 65 71 63 255
0.031678192 -0.13348006 1.6400001 69 75 68 255
0.036207173 -0.13356002 1.641 64 70 63 255
0.040667061 -0.13339566 1.6390001 69 75 68 255
0.045170911 -0.13339387 1.6390001 70 76 69 255
0.049644265 -0.13331054 1.6380001 70 78 71 255
0.054144967 -0.13330838 1.6380001 73 79 72 255
0.058645442 -0.13330606 1.6380001 74 80 73 255
0.063145682 -0.13330354 1.6380001 74 80 73 255
0.067563049 -0.13313808 1.636 73 79 72 255
0.072013207 -0.13305384 1.6350001 71 77 70 255
0.076504365 -0.1330508 1.6350001 72 78 71 255
0.08109428 -0.13321032 1.6370001 69 75 68 255
0.085694842 -0.13336964 1.6390001 66 72 65 255
0.090195991 -0.13336605 1.6390001 69 75 68 255
0.094754532 -0.13344364 1.6400001 68 74 67 255
0.09937872 -0.13360243 1.6420001 69 75 68 255
0.10414 -0.13392374 1.646 67 73 66 255
0.10879083 -0.13408217 1.6480001 67 73 66 255
0.11345217 -0.13424039 1.6500001 63 69 62 255
0.11783805 -0.134073 1.6480001 64 70 63 255
0.1222867 -0.13398682 1.6470001 64 70 63 255
0.1265754 -0.13373776 1.6440001 66 72 65 255
0.13100663 -0.13365127 1.6430001 66 72 65 255
0.13543181 -0.13356461 1.6420001 66 72 65 255
0.1397658 -0.13339646 1.6400001 68 74 67 255
0.1441762 -0.13330947 1.6390001 69 74 70 255
0.14839916 -0.1330597 1.636 83 90 86 255
0.15269852 -0.13289107 1.6340001 82 89 85 255
0.15717873 -0.13288498 1.6340001 69 77 70 255
0.16175726 -0.13296007 1.6350001 61 67 60 255
0.16603567 -0.13279104 1.6330001 57 63 56 255
0.17009363 -0.13245924 1.6290001 70 76 69 255
0.17434335 -0.13228995 1.6270001 79 84 81 255
0.17869133 -0.13220181 1.626 89 96 93 255
0.1830332 -0.13211355 1.6250001 80 87 84 255
0.18736891 -0.13202515 1.6240001 74 81 78 255
0.19181654 -0.13201791 1.6240001 67 74 70 255
0.19626352 -0.13201055 1.6240001 62 70 63 255
0.20058618 -0.13192175 1.623 55 62 58 255
0.20490268 -0.13183284 1.6220001 75 82 78 255
0.2090839 -0.13166253 1.6200001 87 94 90 255
0.21364881 -0.13173591 1.6210001 92 99 95 255
0.21808398 -0.13172789 1.6210001 66 73 69 255
0.22238107 -0.1316385 1.6200001 60 66 59 255
0.22667195 -0.13154899 1.6190001 61 67 60 255
0.23067109 -0.13129686 1.6160001 95 103 96 255
0.23508948 -0.13128838 1.6160001 63 71 64 255
0.23891428 -0.13095485 1.6120001 57 64 60 255
0.24316925 -0.13086495 1.6110001 77 84 80 255
0.24741793 -0.13077493 1.6100001 95 102 98 255
0.25197318 -0.13084726 1.6110001 69 76 72 255
0.25605568 -0.13067584 1.6090001 62 69 65 255
0.25996456 -0.13042311 1.6060001 66 71 67 255
0.26435006 -0.13041395 1.6060001 100 106 99 255
0.26890206 -0.13048591 1.6070001 75 83 76 255
0.27311862 -0.13039534 1.6060001 67 75 68 255
0.27715605 -0.13022351 1.6040001 80 88 81 255
0.28100625 -0.12997045 1.6010001 71 79 72 255
0.28483921 -0.12971734 1.598 63 70 66 255
0.28919798 -0.12970769 1.598 91 98 94 255
0.29337218 -0.1296168 1.5970001 65 72 68 255
0.29772654 -0.12960701 1.5970001 68 73 70 255
0.30151257 -0.12935369 1.5940001 95 100 96 255
0.30585706 -0.12934376 1.5940001 79 84 80 255
0.31039536 -0.12941493 1.595 70 75 71 255
0.31474093 -0.12940487 1.595 66 71 67 255
0.31868556 -0.12923251 1.5930001 84 89 85 255
0.32261851 -0.1290601 1.5910001 79 84 80 255
0.32715625 -0.12913105 1.5920001 87 92 88 255
0.33190683 -0.129283 1.5940001 81 86 82 255
0.33645648 -0.12935378 1.595 70 76 69 255
0.3405835 -0.12926233 1.5940001 76 82 75 255
0.34448791 -0.12908977 1.5920001 77 83 76 255
0.34903789 -0.12916043 1.5930001 78 84 77 255
0.35314885 -0.1290689 1.5920001 73 81 74 255
0.35747817 -0.12905842 1.5920001 72 80 73 255
0.36157945 -0.12896684 1.5910001 75 83 76 255
0.36590448 -0.12895632 1.5910001 71 79 72 255
0.36999601 -0.12886472 1.59 71 79 72 255
0.37384599 -0.12869209 1.5880001 76 84 77 255
0.37839872 -0.12876256 1.5890001 79 85 78 255
0.38295615 -0.12883301 1.59 76 82 75 255
0.38751829 -0.12890345 1.5910001 71 77 70 255
0.39208513 -0.12897389 1.5920001 73 79 72 255
0.39690566 -0.1291253 1.5940001 74 82 75 255
0.40198812 -0.1293577 1.5970001 72 80 73 255
0.4070861 -0.12959005 1.6 71 79 72 255
0.41168547 -0.12966041 1.6010001 71 77 70 255
0.41680932 -0.12989274 1.6040001 68 76 68 255
0.42089847 -0.12980114 1.603 69 77 69 255
0.42498156 -0.12970959 1.6020001 69 75 67 255
0.42879063 -0.12953711 1.6 69 75 67 255
0.43231753 -0.12928374 1.5970001 69 75 68 255
0.43637446 -0.12919234 1.5960001 69 75 68 255
0.44014913 -0.12902005 1.5940001 69 75 68 255
0.44391257 -0.12884784 1.5920001 71 77 70 255
0.44822761 -0.12883754 1.5920001 69 77 70 255
0.45225787 -0.12874638 1.5910001 74 82 75 255
0.45628226 -0.12865527 1.59 72 80 73 255
0.46030071 -0.12856425 1.5890001 71 79 72 255
0.46460575 -0.1285542 1.5890001 72 80 73 255
0.46920538 -0.12862511 1.59 72 80 73 255
0.47381002 -0.12869608 1.5910001 74 82 74 255
0.47841966 -0.12876712 1.5920001 73 82 71 255
0.48303431 -0.1288382 1.5930001 72 81 70 255
0.48765415 -0.12890938 1.5940001 71 79 71 255
0.49197039 -0.12889975 1.5940001 70 78 70 255
0.4959749 -0.12880935 1.5930001 73 79 72 255
0.50028789 -0.12879992 1.5930001 73 79 72 255
0.50491738 -0.12887144 1.5940001 73 79 72 255
0.50955194 -0.12894303 1.595 74 80 73 255
0.51419187 -0.12901473 1.5960001 76 82 75 255
0.51981151 -0.12932901 1.6 74 80 73 255
0.52578038 -0.1297242 1.605 72 78 71 255
0.53012478 -0.12971537 1.605 71 79 72 255
0.53380293 -0.12954502 1.603 69 77 70 255
0.53679889 -0.1292132 1.5990001 69 77 69 255
0.54044998 -0.12904318 1.5970001 68 76 68 255
0.54409021 -0.12887329 1.595 69 75 67 255
0.54806364 -0.12878437 1.5940001 64 72 65 255
0.55168504 -0.12861481 1.5920001 68 76 68 255
0.55564499 -0.12852621 1.5910001 72 80 73 255
0.55889583 -0.12827621 1.5880001 76 84 77 255
0.56213051 -0.12802641 1.585 90 98 91 255
0.56534922 -0.12777679 1.582 90 98 91 255
0.56927204 -0.1276889 1.5810001 81 89 82 255
0.57572931 -0.12816653 1.5870001 74 82 75 255
0.5822193 -0.12864424 1.5930001 74 82 75 255
0.58726931 -0.12879908 1.595 67 75 68 255
0.59047616 -0.12855038 1.5920001 35 41 33 255
0.59366709 -0.12830187 1.5890001 57 64 53 255
0.59721875 -0.12813435 1.5870001 37 45 37 255
0.60151803 -0.12812848 1.5870001 58 66 58 255
0.60658133 -0.12828429 1.5890001 79 87 79 255
0.61165613 -0.12844031 1.5910001 58 66 58 255
0.61635524 -0.12851578 1.5920001 64 72 64 255
0.62028068 -0.12843002 1.5910001 71 79 72 255
0.62459415 -0.12842523 1.5910001 74 82 75 255
0.62851298 -0.12833992 1.59 76 84 77 255
0.63401932 -0.12857772 1.5930001 81 87 80 255
0.63954288 -0.12881576 1.5960001 87 93 86 255
0.64589036 -0.12921542 1.6010001 22 26 18 255
0.6506415 -0.12929247 1.6020001 24 28 20 255
0.6533547 -0.12896626 1.598 22 27 16 255
0.65481269 -0.12839821 1.5910001 22 27 15 255
0.65747666 -0.12807257 1.5870001 21 26 14 255
0.66137093 -0.12798928 1.5860001 22 27 13 255
0.66735971 -0.12830977 1.59 21 26 12 255
0.67041457 -0.12806565 1.5870001 22 28 11 255
0.67090327 -0.12733763 1.5780001 22 27 13 255
0.67262816 -0.12685201 1.572 21 27 10 255
0.67776668 -0.12701224 1.5740001 19 25 8 255
0.68291754 -0.12717277 1.5760001 21 26 12 255
0.68938905 -0.12757565 1.5810001 24 29 15 255
0.69413418 -0.12765607 1.582 27 32 18 255
0.70021111 -0.12797889 1.5860001 26 31 17 255
0.69875973 -0.12693025 1.5730001 23 28 16 255
0.70036793 -0.12644675 1.567 23 28 16 255
0.70644206 -0.12677054 1.5710001 22 29 17 255
0.71208745 -0.12701395 1.5740001 28 35 23 255
0.71684098 -0.12709633 1.575 25 32 21 255
0.72160208 -0.12717904 1.5760001 25 32 21 255
0.72637063 -0.1272621 1.577 11 20 9 255
0.72929364 -0.12702271 1.5740001 53 61 53 255
0.73033804 -0.12646087 1.567 135 144 137 255
0.73134643 -0.12589934 1.5600001 134 143 138 255
0.73373371 -0.1255803 1.5560001 162 170 169 255
0.73704982 -0.125423 1.554 165 172 174 255
0.73749548 -0.12478181 1.5460001 170 177 179 255
0.73694003 -0.1239795 1.536 170 179 181 255
0.73729759 -0.12333898 1.5280001 174 181 184 255
0.73955482 -0.12302165 1.524 174 181 184 255
0.7417928 -0.12270468 1.5200001 172 181 184 255
0.74155784 -0.12198444 1.511 178 185 188 255
0.74127614 -0.12126451 1.5020001 176 183 186 255
-0.77652973 -0.14498124 1.738 142 148 140 255
-0.75891167 -0.1425613 1.7090001 238 244 236 255
-0.74983919 -0.14172667 1.6990001 174 183 172 255
-0.74213886 -0.14114264 1.692 196 205 193 255
-0.73535031 -0.14072581 1.687 210 219 207 255
-0.7294572 -0.14047615 1.6840001 196 205 193 255
-0.72401237 -0.14031021 1.682 199 208 196 255
-0.7181524 -0.14006121 1.6790001 194 204 189 255
-0.7127353 -0.13989592 1.677 193 203 188 255
-0.70690823 -0.13964751 1.674 200 210 195 255
-0.70067936 -0.13931599 1.6700001 194 204 189 255
-0.69447356 -0.13898477 1.6660001 198 207 195 255
-0.68911904 -0.13882066 1.664 206 215 203 255
-0.68336529 -0.13857342 1.6610001 197 207 190 255
-0.67762893 -0.13832644 1.6580001 170 181 162 255
-0.67231607 -0.13816318 1.6560001 128 138 115 255
-0.66741836 -0.13808359 1.6550001 129 139 116 255
-0.66292769 -0.1380877 1.6550001 127 134 112 255
-0.65764225 -0.13792519 1.6530001 142 151 130 255
-0.65315884 -0.13792983 1.6530001 142 151 130 255
-0.6482839 -0.13785125 1.6520001 152 162 139 255
-0.64419472 -0.13793981 1.6530001 160 167 145 255
-0.63971376 -0.13794516 1.6530001 133 143 118 255
-0.63600218 -0.13811766 1.6550001 173 183 157 255
-0.63151723 -0.13812348 1.6550001 141 150 119 255
-0.62703294 -0.13812955 1.6550001 122 131 100 255
-0.6225493 -0.13813581 1.6550001 147 154 123 255
-0.61843961 -0.13822576 1.6560001 134 139 107 255
-0.61432499 -0.13831593 1.6570001 126 131 99 255
-0.61057353 -0.1384898 1.659 122 127 96 255
-0.60681158 -0.13866389 1.6610001 125 130 99 255
-0.60267657 -0.13875468 1.6620001 120 127 96 255
-0.59853655 -0.13884568 1.6630001 122 129 100 255
-0.59439129 -0.13893688 1.664 124 133 104 255
-0.59059548 -0.13911177 1.6660001 126 134 108 255
-0.58643723 -0.13920334 1.6670001 127 136 107 255
-0.58227384 -0.1392951 1.6680001 128 135 104 255
-0.57810515 -0.13938706 1.669 121 128 97 255
-0.57393116 -0.13947916 1.6700001 131 138 107 255
-0.5694108 -0.13948791 1.6700001 126 131 99 255
-0.56489056 -0.13949682 1.6700001 127 132 101 255
-0.56070596 -0.13958941 1.6710001 128 133 102 255
-0.55651569 -0.13968214 1.6720001 131 136 104 255
-0.55265027 -0.13985859 1.674 127 132 100 255
-0.548774 -0.1400352 1.6760001 131 136 104 255
-0.54456192 -0.14012839 1.677 129 136 104 255
-0.54034436 -0.14022171 1.6780001 128 135 103 255
-0.53612113 -0.14031518 1.6790001 127 135 99 255
-0.53220892 -0.14049235 1.6810001 124 132 96 255
-0.5279718 -0.14058605 1.682 127 135 99 255
-0.52372897 -0.1406799 1.6830001 127 133 97 255
-0.52009743 -0.14094107 1.6860001 125 133 98 255
-0.51644933 -0.14120235 1.6890001 122 129 97 255
-0.51248145 -0.14138013 1.6910001 121 131 98 255
-0.50790179 -0.14139083 1.6910001 127 137 104 255
-0.50361931 -0.14148523 1.692 125 135 102 255
-0.49962595 -0.14166336 1.6940001 121 131 96 255
-0.49620578 -0.14200884 1.6980001 108 116 80 255
-0.49247399 -0.14227083 1.7010001 103 109 73 255
-0.48843855 -0.14244926 1.7030001 104 111 72 255
-0.48382363 -0.14246048 1.7030001 100 106 70 255
-0.47864538 -0.14230445 1.7010001 97 104 72 255
-0.4731988 -0.14206478 1.6980001 136 143 111 255
-0.4672159 -0.14165775 1.6930001 133 142 111 255
-0.46180603 -0.14141808 1.6900001 133 142 111 255
-0.45614132 -0.14109473 1.6860001 136 147 116 255
-0.45156896 -0.14110614 1.6860001 131 142 111 255
-0.44673094 -0.14103387 1.6850001 135 146 115 255
-0.44294727 -0.14129646 1.6880001 125 135 102 255
-0.43836758 -0.14130796 1.6880001 118 128 95 255
-0.4337872 -0.14131948 1.6880001 117 125 90 255
-0.4292061 -0.14133103 1.6880001 119 127 92 255
-0.42512742 -0.14151005 1.6900001 119 127 92 255
-0.42053947 -0.14152163 1.6900001 119 129 96 255
-0.41595078 -0.14153323 1.6900001 120 127 95 255
-0.41111791 -0.14146106 1.6890001 123 130 98 255
-0.40701181 -0.14164016 1.6910001 121 128 96 255
-0.40265608 -0.14173551 1.692 124 133 102 255
-0.39852944 -0.14191465 1.6940001 118 127 96 255
-0.39415851 -0.14201002 1.6950001 131 142 113 255
-0.38886207 -0.14177021 1.692 157 168 137 255
-0.38380826 -0.14161415 1.6900001 133 144 113 255
-0.3785401 -0.14137425 1.687 117 128 97 255
-0.3746174 -0.1416371 1.6900001 113 124 93 255
-0.36914498 -0.14131328 1.6860001 150 161 130 255
-0.36499083 -0.14149229 1.6880001 156 165 134 255
-0.3599709 -0.14133596 1.6860001 112 122 89 255
-0.35580412 -0.14151491 1.6880001 92 100 65 255
-0.35079342 -0.14135849 1.6860001 98 104 68 255
-0.34620339 -0.14136967 1.6860001 100 106 70 255
-0.34140986 -0.14129692 1.6850001 122 130 95 255
-0.33622116 -0.14105642 1.682 121 128 96 255
-0.33144224 -0.14098352 1.6810001 122 131 100 255
-0.32686239 -0.14099444 1.6810001 121 130 99 255
-0.32247338 -0.14108917 1.682 122 131 100 255
-0.31826705 -0.14126773 1.6840001 120 129 100 255
-0.31442145 -0.14161402 1.6880001 125 131 106 255
-0.31036961 -0.14187638 1.6910001 17 19 1 255
-0.30575812 -0.14188698 1.6910001 27 27 9 255
-0.30096769 -0.14181359 1.6900001 26 23 7 255
-0.29635718 -0.14182402 1.6900001 27 24 8 255
-0.29174581 -0.14183433 1.6900001 28 25 11 255
-0.28730348 -0.14192851 1.6910001 29 27 16 255
-0.28302199 -0.14210653 1.6930001 54 54 44 255
-0.27790651 -0.14186476 1.6900001 92 96 89 255
-0.27248314 -0.14145494 1.6850001 92 98 91 255
-0.26692727 -0.14096102 1.6790001 88 96 89 255
-0.2617158 -0.14063482 1.6750001 82 88 81 255
-0.25652537 -0.14030847 1.6710001 81 89 82 255
-0.25180829 -0.14023389 1.6700001 64 72 64 255
-0.24694785 -0.14007518 1.6680001 73 81 74 255
-0.24282411 -0.14033628 1.6710001 73 81 74 255
-0.23768507 -0.14000933 1.6670001 93 101 94 255
-0.2325671 -0.13968223 1.6630001 87 95 88 255
-0.22733313 -0.13927098 1.6580001 82 90 83 255
-0.22279763 -0.13927956 1.6580001 75 83 76 255
-0.21826136 -0.13928799 1.6580001 73 81 73 255
-0.21359542 -0.13921228 1.6570001 67 76 65 255
-0.20906036 -0.13922046 1.6570001 64 72 64 255
-0.20427772 -0.13906044 1.6550001 48 56 48 255
-0.19974668 -0.13906832 1.6550001 71 79 71 255
-0.19497901 -0.13890798 1.6530001 70 78 71 255
-0.19022161 -0.13874748 1.651 80 88 81 255
-0.18547447 -0.13858683 1.649 84 92 85 255
-0.18084733 -0.13851003 1.6480001 83 91 84 255
-0.17633203 -0.13851716 1.6480001 80 88 81 255
-0.17181605 -0.13852412 1.6480001 77 85 77 255
-0.16770548 -0.13886715 1.6520001 63 72 61 255
-0.16367114 -0.13929413 1.6570001 62 71 59 255
-0.15951276 -0.13963692 1.6610001 54 63 52 255
-0.15477206 -0.13947515 1.659 58 65 54 255
-0.15013228 -0.13939728 1.6580001 59 68 57 255
-0.14532182 -0.13915108 1.6550001 62 68 60 255
-0.14078242 -0.13915692 1.6550001 63 71 63 255
-0.13599551 -0.13891035 1.6520001 69 77 69 255
-0.13138369 -0.13883176 1.651 69 77 70 255
-0.12685369 -0.1388371 1.651 69 75 68 255
-0.12239726 -0.13892634 1.6520001 68 74 67 255
-0.11793488 -0.13901544 1.6530001 67 73 66 255
-0.11332931 -0.13893613 1.6520001 69 75 68 255
-0.10879464 -0.13894077 1.6520001 65 71 63 255
-0.10425954 -0.13894522 1.6520001 63 69 61 255
-0.099663645 -0.13886538 1.651 56 62 54 255
-0.095130473 -0.13886948 1.651 72 78 70 255
-0.090706661 -0.13904162 1.6530001 68 74 66 255
-0.086167231 -0.13904534 1.6530001 56 62 55 255
-0.081528679 -0.13888063 1.651 68 74 66 255
-0.076994054 -0.13888399 1.651 70 78 70 255
-0.072459124 -0.13888714 1.651 70 78 70 255
-0.068006173 -0.13905837 1.6530001 66 74 66 255
-0.063465171 -0.13906118 1.6530001 64 72 64 255
-0.058888245 -0.13897964 1.6520001 60 68 60 255
-0.054316577 -0.13889791 1.651 59 68 57 255
-0.049780324 -0.13890013 1.651 61 68 57 255
-0.04524387 -0.13890217 1.651 54 60 52 255
-0.040682573 -0.13881987 1.6500001 55 61 54 255
-0.036126599 -0.13873737 1.649 44 50 43 255
-0.031537652 -0.13848642 1.646 94 100 93 255
