ply
format ascii 1.0
comment PCL generated
element vertex 1001
property float x
property float y
property float z
property uchar red
property uchar green
property uchar blue
property uchar alpha
element camera 0
property float view_px
property float view_py
property float view_pz
property float x_axisx
property float x_axisy
property float x_axisz
property float y_axisx
property float y_axisy
property float y_axisz
property float z_axisx
property float z_axisy
property float z_axisz
property float focal
property float scalex
property float scaley
property float centerx
property float centery
property int viewportx
property int viewporty
property float k1
property float k2
end_header
0.74092597 0.24440883 1.5090001 191 196 202 255
0.73666352 0.26221523 1.6480001 185 190 196 255
0.73712713 0.26079035 1.6390001 184 189 195 255
0.73618627 0.25888872 1.6270001 185 190 196 255
0.73654765 0.25746506 1.618 185 190 196 255
0.73869389 0.25667855 1.613 187 192 198 255
0.73943299 0.25541532 1.605 187 192 198 255
0.73920381 0.25383443 1.595 187 192 198 255
0.73892212 0.2522541 1.585 188 193 199 255
0.73999506 0.25115189 1.5780001 188 193 199 255
0.74197549 0.25036862 1.5730001 189 194 200 255
0.74013543 0.24831265 1.5600001 191 194 200 255
0.74061269 0.24705315 1.552 188 193 199 255
0.74056876 0.24563511 1.5430001 191 196 202 255
0.74144346 0.24453603 1.536 190 195 201 255
0.74034071 0.24280079 1.5250001 192 197 203 255
0.74015659 0.24138454 1.516 192 197 203 255
0.73992586 0.2399689 1.5070001 192 197 204 255
0.73710388 0.25787818 1.649 185 190 196 255
0.73756957 0.2564775 1.6400001 184 189 195 255
0.73663086 0.25460824 1.628 186 191 197 255
0.73653913 0.25305241 1.618 185 190 196 255
0.73914266 0.25243554 1.6140001 186 191 197 255
0.73896235 0.2508809 1.6040001 188 193 199 255
0.73872972 0.24932685 1.5940001 190 193 199 255
0.73797846 0.24761699 1.5830001 189 192 198 255
0.7390452 0.24653342 1.5760001 187 192 198 255
0.74101937 0.24576335 1.5710001 191 194 200 255
0.74059659 0.24421173 1.5610001 190 193 199 255
0.74107587 0.24297361 1.5530001 192 195 201 255
0.74151385 0.24173608 1.5450001 192 195 201 255
0.74191076 0.24049921 1.5370001 189 194 200 255
0.74178094 0.23910646 1.5280001 191 196 202 255
0.74160439 0.23771429 1.5190001 191 196 202 255
0.7403993 0.23600973 1.508 192 197 204 255
0.73756272 0.25200582 1.6400001 184 189 195 255
0.73571831 0.24986158 1.626 184 189 195 255
0.73562038 0.2483326 1.6160001 187 192 198 255
0.73821783 0.24772629 1.6120001 187 192 198 255
0.73895276 0.24650589 1.6040001 185 190 196 255
0.73871952 0.24497873 1.5940001 189 192 198 255
0.73750138 0.24314474 1.582 190 193 199 255
0.73809576 0.24192615 1.5740001 189 192 198 255
0.73959208 0.24101557 1.5680001 190 193 199 255
0.73963469 0.23964447 1.559 191 194 200 255
0.74010795 0.23842774 1.5510001 192 195 201 255
0.73957992 0.23690413 1.5410001 191 194 200 255
0.73996496 0.23568857 1.5330001 193 196 202 255
0.74030894 0.23447359 1.5250001 194 197 204 255
0.74061167 0.23325925 1.5170001 191 196 203 255
0.73890948 0.23143044 1.5050001 192 197 204 255
0.73501456 0.27316555 1.8100001 181 186 192 255
0.73620689 0.24708146 1.6370001 185 190 196 255
0.7352587 0.24527696 1.6250001 185 190 196 255
0.73561257 0.24392584 1.6160001 186 191 197 255
0.73866719 0.24348101 1.613 189 192 198 255
0.74032569 0.24258398 1.6070001 188 191 197 255
0.74149019 0.24153657 1.6 190 193 199 255
0.73935562 0.23943308 1.5860001 190 193 199 255
0.73902249 0.23793399 1.5760001 188 193 199 255
0.73863697 0.23643546 1.5660001 190 193 199 255
0.73867345 0.23508848 1.557 190 193 199 255
0.73866332 0.2337421 1.5480001 191 194 200 255
0.73860621 0.23239629 1.539 187 190 196 255
0.73898512 0.23120207 1.531 190 193 199 255
0.7402938 0.2303105 1.5250001 193 196 203 255
0.7401076 0.22896649 1.516 192 197 204 255
0.73938388 0.22747198 1.506 193 198 205 255
0.73575085 0.24247009 1.636 184 189 195 255
0.73525172 0.24084617 1.6250001 184 189 195 255
0.73697066 0.23996392 1.6190001 185 190 196 255
0.73820108 0.23893404 1.6120001 184 189 195 255
0.74031687 0.23820125 1.6070001 186 191 197 255
0.74101734 0.23702437 1.5990001 188 193 199 255
0.73981178 0.23525512 1.5870001 187 192 198 255
0.73994958 0.23393115 1.5780001 188 193 199 255
0.73956895 0.23245952 1.5680001 187 192 198 255
0.73961025 0.23113666 1.559 188 193 199 255
0.73960495 0.22981447 1.5500001 187 192 198 255
0.73955286 0.22849281 1.5410001 191 194 200 255
0.74041921 0.22746824 1.534 194 197 203 255
0.74027914 0.22614776 1.5250001 193 196 202 255
0.7405805 0.22497612 1.5170001 193 196 203 255
0.73936796 0.22336012 1.506 193 198 205 255
0.73529518 0.23786436 1.6350001 184 189 195 255
0.73660254 0.23685205 1.628 185 190 196 255
0.73741871 0.23569489 1.6200001 187 192 198 255
0.73819333 0.23453829 1.6120001 187 192 198 255
0.73938709 0.23352775 1.605 188 193 199 255
0.739618 0.23222677 1.5960001 185 190 196 255
0.73980206 0.23092642 1.5870001 187 192 198 255
0.73993927 0.22962663 1.5780001 189 194 200 255
0.74002969 0.22832739 1.5690001 187 192 198 255
0.74007314 0.22702874 1.5600001 188 193 199 255
0.74006993 0.22573064 1.5510001 187 192 198 255
0.74049968 0.22457865 1.5430001 193 196 202 255
0.74137092 0.22357279 1.536 192 195 201 255
0.74075037 0.22213085 1.526 193 196 202 255
0.74105394 0.22098061 1.5180001 193 196 202 255
0.73984349 0.21939418 1.5070001 195 198 204 255
0.7356773 0.23639497 1.6560001 185 191 194 255
0.73528761 0.23482932 1.6450001 182 188 191 255
0.73573923 0.23354973 1.636 184 189 195 255
0.73659629 0.23241344 1.628 183 189 192 255
0.73695666 0.231135 1.6190001 187 192 198 255
0.73772782 0.22999987 1.6110001 186 191 197 255
0.73707557 0.22843699 1.6 187 192 198 255
0.73590201 0.2267319 1.5880001 187 192 198 255
0.73746192 0.22588401 1.582 187 192 198 255
0.7389915 0.22503673 1.5760001 188 193 199 255
0.74096239 0.22433285 1.5710001 188 193 199 255
0.74006194 0.22277273 1.5600001 189 194 200 255
0.74101233 0.22178438 1.5530001 188 193 199 255
0.74048728 0.22036822 1.5430001 190 195 201 255
0.74087524 0.21923821 1.5350001 192 195 201 255
0.74025124 0.2178231 1.5250001 192 195 201 255
0.74055123 0.21669421 1.5170001 193 196 202 255
0.73982847 0.21528019 1.5070001 195 198 204 255
0.73745012 0.23244117 1.6600001 184 190 192 255
0.73751771 0.23104528 1.6500001 185 191 194 255
0.73618364 0.22922985 1.6370001 184 190 193 255
0.73704284 0.22811508 1.6290001 186 192 195 255
0.7355845 0.22630072 1.6160001 184 189 195 255
0.7368049 0.22532712 1.6090001 185 190 196 255
0.73614651 0.22379389 1.598 185 191 194 255
0.73682046 0.22268137 1.59 186 191 197 255
0.73838526 0.2218495 1.5840001 188 193 199 255
0.73991978 0.22101825 1.5780001 189 194 200 255
0.74048048 0.21990742 1.5700001 188 193 199 255
0.7395767 0.21837692 1.559 189 194 200 255
0.74004668 0.21726723 1.5510001 188 193 199 255
0.73951542 0.21587789 1.5410001 190 195 201 255
0.73941463 0.21462917 1.5320001 193 196 202 255
0.73926717 0.21338101 1.5230001 191 194 200 255
0.74004912 0.21241359 1.516 193 196 202 255
0.73932302 0.2110264 1.506 196 199 205 255
0.73611343 0.22750463 1.6570001 184 190 192 255
0.73706615 0.22641028 1.649 183 189 191 255
0.73617852 0.22476733 1.6370001 185 191 194 255
0.73658466 0.2235368 1.628 185 191 194 255
0.7351231 0.22175759 1.6150001 185 190 196 255
0.73588228 0.22066544 1.6070001 184 190 193 255
0.73567849 0.21929921 1.5970001 186 192 195 255
0.73634911 0.21820816 1.5890001 187 192 198 255
0.73791057 0.21739233 1.5830001 187 192 198 255
0.73944157 0.21657704 1.577 188 193 199 255
0.7395274 0.21535036 1.5680001 189 194 200 255
0.73956633 0.21412416 1.559 190 195 201 255
0.74098986 0.21331061 1.5530001 189 194 200 255
0.73998362 0.2118108 1.5420001 192 195 201 255
0.73940241 0.21044888 1.5320001 192 195 201 255
0.73876894 0.20908748 1.5220001 193 196 200 255
0.74003571 0.20827609 1.516 193 196 200 255
0.73881805 0.20677838 1.5050001 194 197 201 255
0.73795587 0.22218463 1.651 185 189 191 255
0.73662347 0.22043954 1.6380001 186 189 193 255
0.73703176 0.21923329 1.6290001 185 188 192 255
0.73511726 0.21735466 1.6150001 182 188 191 255
0.73541778 0.21614942 1.6060001 185 191 194 255
0.73521066 0.21481015 1.5960001 185 191 194 255
0.73773164 0.214279 1.5920001 184 189 195 255
0.73836845 0.21321 1.5840001 186 191 197 255
0.7389639 0.21214154 1.5760001 187 192 198 255
0.73810309 0.21066979 1.5650001 188 193 199 255
0.73860747 0.20960239 1.557 191 194 198 255
0.74002492 0.2088048 1.5510001 189 192 196 255
0.7394926 0.20746925 1.5410001 192 195 199 255
0.73890793 0.2061342 1.531 192 195 199 255
0.73778576 0.20466501 1.5200001 192 195 199 255
0.73904639 0.20386957 1.5140001 193 196 200 255
0.7388044 0.20267075 1.5050001 195 198 202 255
0.73420113 0.2126881 1.613 185 191 194 255
0.73403776 0.21137527 1.603 185 191 194 255
0.73382205 0.21006297 1.5930001 183 189 192 255
0.73726094 0.20980613 1.5910001 184 189 195 255
0.7378943 0.20875862 1.5830001 185 190 196 255
0.73895532 0.20784353 1.5760001 186 191 197 255
0.73762238 0.20626956 1.5640001 188 193 199 255
0.73859781 0.2053555 1.557 190 193 197 255
0.74001473 0.20457393 1.5510001 189 192 196 255
0.73900187 0.20313334 1.5400001 191 194 198 255
0.73841393 0.20182517 1.5300001 192 195 199 255
0.73777372 0.20051752 1.5200001 194 197 201 255
0.73952198 0.19986998 1.5150001 194 197 201 255
0.73830026 0.19843142 1.5040001 194 197 203 255
0.73571515 0.21125148 1.636 182 185 189 255
0.73430717 0.20957728 1.623 185 188 192 255
0.73283035 0.20790352 1.6100001 186 189 193 255
0.73403192 0.20700508 1.603 184 190 193 255
0.73427618 0.2058489 1.5940001 185 191 194 255
0.73818064 0.20572636 1.5930001 186 189 193 255
0.73788679 0.20444205 1.5830001 187 190 194 255
0.7384783 0.20341659 1.575 188 191 195 255
0.73667037 0.20174584 1.562 189 192 196 255
0.73811424 0.20097969 1.5560001 189 192 196 255
0.73809636 0.1998266 1.5470001 189 193 195 255
0.73755181 0.19854482 1.5370001 191 195 197 255
0.73695511 0.19726354 1.5270001 192 195 199 255
0.73776221 0.19637033 1.5200001 194 197 201 255
0.73804545 0.19534843 1.5120001 193 196 200 255
0.73828757 0.19432704 1.5040001 195 198 204 255
0.73481584 0.20779978 1.6440001 184 187 191 255
0.73481178 0.20653945 1.6340001 181 184 188 255
0.73339772 0.20490038 1.6210001 181 184 188 255
0.73191482 0.20326184 1.608 184 187 191 255
0.73356837 0.20250861 1.6020001 185 188 192 255
0.7347306 0.2016295 1.595 185 188 192 255
0.73724705 0.20113014 1.5910001 185 188 192 255
0.73648101 0.1997464 1.58 185 188 192 255
0.73659503 0.198616 1.5710001 188 191 195 255
0.73571879 0.19723321 1.5600001 188 191 195 255
0.73810524 0.19673595 1.5560001 187 190 194 255
0.73808682 0.19560705 1.5470001 190 194 196 255
0.73754179 0.19435222 1.5370001 191 195 197 255
0.73597926 0.19284493 1.5250001 191 194 198 255
0.7358095 0.19171746 1.516 192 195 199 255
0.73559308 0.19059053 1.5070001 194 197 201 255
0.73680258 0.18984346 1.501 193 196 200 255
0.73481256 0.20331904 1.6440001 182 186 188 255
0.73435825 0.20196208 1.6330001 182 186 188 255
0.73339343 0.20048189 1.6210001 181 185 187 255
0.73282039 0.1991259 1.6100001 184 188 190 255
0.73447877 0.19838877 1.6040001 182 186 188 255
0.73564607 0.1975285 1.5970001 185 189 191 255
0.73585045 0.19642131 1.5880001 183 186 190 255
0.7346096 0.19494356 1.5760001 184 187 191 255
0.73471195 0.19383736 1.567 188 192 194 255
0.73523915 0.19285536 1.559 189 193 195 255
0.73714781 0.19224498 1.554 189 192 196 255
0.73616934 0.19089286 1.5430001 190 194 196 255
0.73705214 0.19003604 1.536 191 194 198 255
0.73403853 0.18818995 1.521 193 196 200 255
0.73531342 0.18745787 1.5150001 192 196 198 255
0.73509365 0.18635508 1.506 193 197 199 255
0.73777241 0.18599527 1.503 195 198 202 255
0.73391551 0.19859652 1.6420001 180 184 186 255
0.73300558 0.19714837 1.6300001 180 184 186 255
0.73293692 0.19594258 1.6200001 180 184 186 255
0.73327088 0.19485822 1.6110001 181 185 187 255
0.73355788 0.19377434 1.6020001 179 183 185 255
0.7347191 0.19293287 1.595 182 186 188 255
0.73352736 0.19148707 1.5830001 183 187 189 255
0.73320454 0.19028369 1.5730001 184 187 191 255
0.734236 0.18944368 1.5660001 185 189 191 255
0.73570305 0.18872513 1.5600001 186 190 192 255
0.73713958 0.18800709 1.554 188 191 195 255
0.73711473 0.18692662 1.5450001 189 192 196 255
0.73704284 0.18584658 1.536 191 194 198 255
0.73354614 0.18392006 1.5200001 194 197 201 255
0.73433238 0.18308297 1.5130001 192 195 199 255
0.73557085 0.18236738 1.5070001 193 196 200 255
0.7377609 0.18189435 1.503 195 198 202 255
0.73167783 0.19353032 1.6370001 178 182 182 255
0.73120338 0.19223286 1.626 179 183 183 255
0.73248059 0.19140881 1.6190001 178 182 182 255
0.73235625 0.19023053 1.6090001 175 182 181 255
0.73263723 0.18917094 1.6 178 184 186 255
0.73333186 0.18823007 1.5920001 178 184 186 255
0.73352158 0.18717144 1.5830001 181 185 187 255
0.7341305 0.18623151 1.575 183 187 189 255
0.73469788 0.18529205 1.567 184 188 190 255
0.73616719 0.18458958 1.5610001 187 191 193 255
0.73808038 0.18400587 1.5560001 187 191 193 255
0.73758328 0.18283135 1.5460001 189 193 195 255
0.73703384 0.18165728 1.536 190 193 197 255
0.73401928 0.17989233 1.521 190 193 197 255
0.73626363 0.1794288 1.5170001 193 196 200 255
0.73653638 0.17849268 1.5090001 194 197 201 255
0.7387315 0.17803021 1.5050001 194 197 201 255
0.73380035 0.1980709 1.715 180 184 184 255
0.73158211 0.19622254 1.6990001 183 188 185 255
0.73101169 0.19483662 1.687 191 198 195 255
0.73168588 0.19379768 1.6780001 191 198 195 255
0.73231268 0.19275916 1.669 193 198 195 255
0.73245078 0.19160563 1.659 193 198 195 255
0.7312035 0.19010605 1.646 190 195 192 255
0.73212212 0.18918446 1.6380001 182 187 184 255
0.73164994 0.1879168 1.6270001 167 174 171 255
0.73157209 0.18676509 1.6170001 162 169 166 255
0.73053145 0.18538284 1.605 168 175 174 255
0.73171681 0.18457857 1.598 173 179 181 255
0.73332673 0.18389028 1.5920001 176 182 184 255
0.73397934 0.18297145 1.5840001 179 185 187 255
0.73365819 0.18182203 1.5740001 181 185 187 255
0.73375362 0.18078859 1.5650001 181 185 187 255
0.73521686 0.18010217 1.559 182 186 188 255
0.73664969 0.17941625 1.5530001 183 187 189 255
0.73709804 0.17849977 1.5450001 187 190 194 255
0.73702514 0.17746818 1.536 190 193 197 255
0.73545784 0.17609043 1.524 192 195 199 255
0.73625398 0.17529085 1.5170001 192 195 199 255
0.73652625 0.17437619 1.5090001 194 197 201 255
0.73675734 0.173462 1.501 193 196 200 255
0.73423368 0.19475231 1.7270001 180 185 182 255
0.73337317 0.19328527 1.7140001 189 194 191 255
0.72942936 0.19102934 1.6940001 201 206 202 255
0.72884494 0.189676 1.682 127 133 126 255
0.72994107 0.18877421 1.674 60 68 61 255
0.73011768 0.18764731 1.664 48 54 47 255
0.72935873 0.18629535 1.6520001 95 101 94 255
0.72853613 0.18494381 1.6400001 183 188 184 255
0.73211962 0.18472043 1.6380001 141 146 142 255
0.73074764 0.18325704 1.6250001 178 185 181 255
0.73066384 0.18213238 1.6150001 161 168 164 255
0.72779661 0.18033153 1.5990001 151 158 155 255
0.72988087 0.17977165 1.5940001 162 169 168 255
0.7324006 0.17932503 1.59 167 174 173 255
0.73397398 0.17865333 1.5840001 175 181 183 255
0.73365247 0.17753094 1.5740001 173 179 181 255
0.73421615 0.17663456 1.5660001 177 183 185 255
0.73521006 0.17585143 1.559 177 181 183 255
0.73664236 0.1751816 1.5530001 179 185 187 255
0.735659 0.17394818 1.5420001 184 187 191 255
0.7370168 0.17327924 1.536 187 190 194 255
0.73641425 0.17215955 1.526 190 193 197 255
0.7377007 0.17149156 1.5200001 190 193 197 255
0.73749256 0.17048556 1.511 191 194 198 255
0.73674703 0.16936716 1.501 194 197 201 255
-0.039258473 0.17671868 1.5930001 66 56 47 255
-0.034883108 0.17672069 1.5930001 55 45 36 255
0.72784531 0.1896082 1.723 190 193 190 255
0.72615701 0.18795598 1.7080001 201 204 200 255
0.72695595 0.18696451 1.6990001 58 62 55 255
0.7229709 0.18476298 1.6790001 14 18 10 255
0.7227785 0.18355228 1.6680001 22 29 18 255
0.72252774 0.18234202 1.6570001 26 33 22 255
0.72221881 0.18113217 1.646 32 37 26 255
0.72317636 0.18025294 1.6380001 34 39 28 255
0.72320354 0.17915401 1.628 21 28 17 255
0.72854161 0.1793761 1.6300001 16 23 12 255
0.72894597 0.17838812 1.6210001 6 13 2 255
0.72749364 0.17696039 1.608 171 179 171 255
0.72688264 0.17575319 1.5970001 159 167 160 255
0.72941887 0.1753168 1.5930001 149 156 152 255
0.73193532 0.17488085 1.5890001 162 169 165 255
0.73257875 0.17400514 1.5810001 163 170 169 255
0.73271453 0.1730198 1.572 169 175 177 255
0.73374122 0.17225507 1.5650001 173 179 181 255
0.73426026 0.17138068 1.557 174 180 182 255
0.73473799 0.17050675 1.549 179 183 185 255
0.73374313 0.16930303 1.5380001 182 186 188 255
0.73556936 0.16876023 1.5330001 185 189 191 255
0.73544055 0.16777755 1.524 187 191 193 255
0.73623562 0.16701548 1.5170001 188 192 194 255
0.73601878 0.16603369 1.508 192 196 198 255
-0.061174229 0.17244706 1.5940001 61 56 49 255
-0.056262374 0.17082737 1.5790001 69 61 54 255
-0.051860191 0.17061387 1.577 73 63 54 255
-0.04749893 0.17050833 1.5760001 78 66 56 255
-0.043088183 0.17018618 1.5730001 84 70 60 255
-0.038767677 0.17018835 1.5730001 79 64 51 255
-0.034468915 0.1702985 1.5740001 75 60 47 255
-0.030183673 0.17051664 1.5760001 74 59 46 255
-0.025936529 0.1710591 1.5810001 71 58 45 255
-0.021675475 0.17170957 1.5870001 66 55 42 255
-0.017392274 0.17246799 1.5940001 61 49 39 255
-0.013046052 0.17290162 1.598 60 51 40 255
-0.0086832196 0.17344318 1.603 59 49 40 255
0.71728641 0.18223071 1.6980001 8 11 7 255
0.71425414 0.18029736 1.6800001 14 18 11 255
0.70556319 0.17696932 1.649 27 31 23 255
0.71263707 0.17761251 1.6550001 27 32 21 255
0.7063123 0.17492922 1.6300001 23 28 16 255
0.71075416 0.17492931 1.6300001 24 29 17 255
0.71168756 0.1740713 1.6220001 29 32 20 255
0.71169615 0.17299905 1.6120001 31 34 22 255
0.70898664 0.17128332 1.5960001 34 39 27 255
0.71557772 0.1718217 1.6010001 26 33 21 255
0.71950001 0.17171662 1.6 20 27 15 255
0.72432363 0.17182665 1.6010001 15 24 13 255
0.7255137 0.17107853 1.5940001 14 22 14 255
0.72849911 0.17076015 1.5910001 90 98 91 255
0.73008835 0.17012024 1.585 116 124 117 255
0.73118383 0.16937345 1.5780001 151 158 155 255
0.73224312 0.16862707 1.5710001 160 167 164 255
0.73467308 0.16820318 1.567 170 176 178 255
0.73519719 0.16735035 1.559 170 176 178 255
0.73520553 0.16639064 1.5500001 174 180 182 255
0.73373598 0.16510928 1.5380001 181 185 187 255
0.73412216 0.16425774 1.5300001 182 186 188 255
0.73350215 0.16319191 1.5200001 183 189 191 255
0.73428565 0.1624486 1.5130001 186 192 194 255
0.73405731 0.16149098 1.5040001 187 193 195 255
-0.073842503 0.16701256 1.5840001 72 67 57 255
-0.069054447 0.16596188 1.5740001 65 56 45 255
-0.064650014 0.16575444 1.572 75 64 51 255
-0.060179565 0.16533592 1.5680001 81 66 53 255
-0.055766467 0.1650226 1.5650001 84 69 56 255
-0.051402505 0.1648145 1.5630001 91 75 60 255
-0.047109611 0.16481707 1.5630001 95 79 64 255
-0.042843912 0.16492486 1.5640001 89 73 57 255
-0.038621847 0.16524334 1.567 77 59 43 255
-0.034361236 0.16545616 1.5690001 75 57 41 255
-0.030051198 0.16545784 1.5690001 77 57 39 255
-0.025757438 0.16556475 1.5700001 76 56 38 255
-0.02145808 0.16567145 1.5710001 71 51 33 255
-0.017174963 0.16598883 1.5740001 76 59 40 255
-0.012875292 0.16630599 1.577 78 60 44 255
-0.0085590845 0.16662291 1.58 80 62 46 255
-0.0042183502 0.16662325 1.58 74 58 42 255
0.00012240165 0.16662335 1.58 74 60 43 255
0.0044857515 0.16746689 1.5880001 70 55 40 255
0.0089487601 0.16936478 1.6060001 67 54 41 255
0.69755989 0.17384087 1.6620001 12 13 9 255
0.69447684 0.17195614 1.6440001 32 33 27 255
0.68917155 0.16954887 1.6210001 31 33 23 255
0.67732441 0.16557308 1.5830001 25 28 14 255
0.68421817 0.16619986 1.5890001 24 27 13 255
0.686813 0.1657811 1.585 22 25 11 255
0.6837191 0.164003 1.5680001 23 26 12 255
0.70378906 0.16776879 1.6040001 24 27 13 255
0.70992899 0.16818798 1.608 26 30 13 255
0.70098901 0.16505136 1.5780001 33 37 20 255
0.7012732 0.16411163 1.5690001 27 32 18 255
0.70645672 0.16432288 1.5710001 26 31 17 255
0.71617728 0.16558056 1.5830001 25 30 16 255
0.72141403 0.1657927 1.585 27 34 22 255
0.725748 0.16579609 1.585 44 53 42 255
0.72824168 0.16538154 1.5810001 48 57 46 255
0.72978908 0.16475819 1.575 118 126 119 255
0.73223799 0.1643445 1.5710001 148 156 149 255
0.73279214 0.16351281 1.5630001 167 174 171 255
0.7333048 0.16268153 1.5550001 171 178 175 255
0.73330176 0.16174607 1.5460001 173 180 179 255
0.73277479 0.16070639 1.536 179 185 187 255
0.73315513 0.15987638 1.5280001 181 187 189 255
0.73252916 0.15883751 1.5180001 182 188 190 255
0.73330671 0.15811296 1.511 184 190 192 255
0.73404855 0.15738887 1.5040001 187 194 193 255
-0.14320707 0.16237849 1.582 164 169 157 255
-0.13895741 0.16248803 1.5830001 158 165 153 255
-0.13453166 0.16239205 1.582 152 159 147 255
-0.13011089 0.16229589 1.5810001 160 167 155 255
-0.12561557 0.16209687 1.5790001 161 168 156 255
-0.12151473 0.16241093 1.582 159 166 155 255
-0.08645428 0.16183633 1.5760001 64 59 52 255
-0.081710726 0.16101903 1.5680001 74 67 56 255
-0.077257603 0.16071498 1.5650001 80 71 58 255
-0.072774023 0.16030799 1.5610001 91 78 65 255
-0.068355992 0.16000347 1.5580001 78 63 48 255
-0.06395416 0.15969871 1.5550001 83 69 52 255
-0.059760451 0.15990725 1.557 86 70 55 255
-0.05548425 0.15991019 1.557 87 69 54 255
-0.051240705 0.1600156 1.5580001 88 70 55 255
-0.046901044 0.1598127 1.5560001 89 73 57 255
-0.042654358 0.15991768 1.557 87 71 55 255
-0.038475949 0.16033059 1.5610001 85 67 51 255
-0.034253504 0.16064058 1.5640001 80 60 42 255
-0.02995698 0.16064222 1.5640001 81 62 42 255
-0.025643924 0.16054094 1.5630001 80 59 39 255
-0.021349913 0.16054212 1.5630001 80 59 39 255
-0.017088555 0.16085127 1.5660001 84 63 43 255
-0.012802475 0.16105746 1.5680001 76 54 36 255
-0.0085216062 0.16157158 1.5730001 73 51 35 255
-0.0041972091 0.16146918 1.572 74 52 36 255
0.00012186568 0.16157201 1.5730001 75 55 39 255
0.0044520847 0.16188003 1.5760001 76 58 42 255
0.0088322042 0.16280414 1.585 75 59 44 255
0.013270061 0.16383073 1.595 75 60 45 255
0.017784948 0.16506252 1.6070001 66 52 42 255
0.68637121 0.16768503 1.646 13 14 10 255
0.68497074 0.16625644 1.6320001 36 35 29 255
0.68222815 0.16452263 1.6150001 28 30 22 255
0.67896932 0.16268736 1.5970001 26 29 17 255
0.67090738 0.15973189 1.5680001 30 33 19 255
0.67732924 0.1602404 1.5730001 23 26 12 255
0.67944682 0.15973057 1.5680001 24 27 13 255
0.67281789 0.15718378 1.5430001 22 25 11 255
0.69325787 0.16095321 1.58 24 27 13 255
0.69359273 0.16003709 1.5710001 25 29 12 255
0.68899357 0.15800077 1.5510001 28 31 17 255
0.69233233 0.15779848 1.549 31 36 22 255
0.69836026 0.15820786 1.5530001 23 28 14 255
0.70757878 0.15933077 1.5640001 26 31 17 255
0.71458369 0.15994477 1.5700001 29 34 20 255
0.72162354 0.16055921 1.5760001 28 35 23 255
0.725474 0.16046096 1.575 21 30 18 255
0.72839451 0.16015941 1.572 52 60 52 255
0.72990268 0.15955263 1.5660001 146 154 146 255
0.72997379 0.15864061 1.557 157 164 160 255
0.73094124 0.15793279 1.5500001 168 175 171 255
0.73234689 0.15732725 1.544 174 181 180 255
0.73276818 0.15651836 1.536 175 181 183 255
0.73266822 0.15560798 1.5270001 179 185 187 255
0.73252165 0.154698 1.5180001 180 187 186 255
0.73426932 0.15419608 1.5130001 182 188 190 255
0.73501617 0.15349074 1.506 184 191 190 255
0.73621821 0.15288778 1.5000001 188 192 192 255
-0.27279931 0.15516247 1.5560001 176 181 167 255
-0.26803634 0.15487435 1.5530001 178 184 166 255
-0.24019736 0.15614602 1.5650001 183 189 181 255
-0.23546918 0.15585691 1.562 170 178 163 255
-0.23120068 0.155867 1.562 159 168 149 255
-0.22664091 0.15567738 1.5600001 148 157 138 255
-0.22194876 0.15538779 1.557 166 175 156 255
-0.21727227 0.15509804 1.554 165 174 153 255
-0.21302274 0.15510756 1.554 134 142 117 255
-0.20850381 0.15491728 1.552 142 150 124 255
-0.20425832 0.15492649 1.552 157 163 137 255
-0.20026991 0.15513521 1.554 149 155 130 255
-0.19626984 0.15534383 1.5560001 149 154 132 255
-0.19213472 0.15545245 1.557 148 154 136 255
-0.18811417 0.15566078 1.559 147 153 135 255
-0.1841999 0.15596882 1.562 141 147 130 255
-0.17980783 0.15587732 1.5610001 144 152 135 255
-0.17519569 0.15558593 1.5580001 167 175 158 255
-0.17059934 0.15529431 1.5550001 165 171 154 255
-0.16623273 0.15520225 1.554 159 165 147 255
-0.16197528 0.15520991 1.554 160 166 148 255
-0.1577172 0.15521739 1.554 157 163 145 255
-0.15335979 0.15512481 1.5530001 158 164 146 255
-0.14900729 0.15503204 1.552 154 163 144 255
-0.14456645 0.15483919 1.5500001 154 160 142 255
-0.14040762 0.15494587 1.5510001 156 162 144 255
-0.1360672 0.15485254 1.5500001 163 170 149 255
-0.1318168 0.15485892 1.5500001 158 165 144 255
-0.12756589 0.15486513 1.5500001 156 163 141 255
-0.12323493 0.15477124 1.549 154 161 140 255
-0.1190626 0.15487699 1.5500001 154 160 142 255
-0.11532877 0.1555821 1.557 104 110 93 255
-0.11169872 0.15648694 1.5660001 2 5 0 255
-0.10815603 0.15759149 1.577 24 22 11 255
-0.10363077 0.15729685 1.5740001 48 44 34 255
-0.098995402 0.15680212 1.5690001 72 63 50 255
-0.094507776 0.15650702 1.5660001 78 67 54 255
-0.090036251 0.15621172 1.5630001 82 67 54 255
-0.085525967 0.15581624 1.559 91 76 63 255
-0.081089437 0.15552051 1.5560001 92 76 61 255
-0.076718405 0.15532447 1.554 93 77 61 255
-0.072451301 0.15532815 1.554 91 73 57 255
-0.0680084 0.1549318 1.5500001 90 72 56 255
-0.063710578 0.1548351 1.549 92 72 56 255
-0.059533153 0.1550381 1.5510001 90 70 54 255
-0.055415761 0.15544078 1.5550001 90 70 54 255
-0.051144619 0.15544343 1.5550001 94 73 59 255
-0.046812978 0.15524594 1.5530001 100 80 64 255
-0.04254692 0.15524817 1.5530001 84 64 48 255
-0.038354643 0.15555008 1.5560001 77 57 41 255
-0.034167625 0.15595175 1.5600001 76 54 36 255
-0.029881876 0.15595336 1.5600001 83 61 43 255
-0.02556318 0.1557548 1.5580001 93 71 53 255
-0.021255372 0.15555602 1.5560001 91 69 51 255
-0.016980292 0.15555699 1.5560001 88 66 48 255
-0.012737801 0.15595762 1.5600001 89 67 49 255
-0.0084678615 0.15625806 1.5630001 87 63 45 255
-0.0041814009 0.15655831 1.5660001 83 59 41 255
0.00012140699 0.15665838 1.567 80 56 38 255
0.0044381851 0.15705816 1.5710001 75 53 37 255
0.0087992158 0.15785761 1.5790001 76 54 38 255
0.013204172 0.15865685 1.5870001 76 53 39 255
0.017641967 0.15935588 1.5940001 74 56 41 255
0.022187229 0.16055456 1.6060001 74 57 45 255
0.68728566 0.16449212 1.659 8 7 1 255
0.6813699 0.1620106 1.6340001 39 38 32 255
0.68035603 0.16071929 1.6210001 33 35 27 255
0.68096268 0.15982495 1.6120001 31 34 22 255
0.67769527 0.15803866 1.5940001 25 28 16 255
0.67475927 0.15635189 1.577 23 26 12 255
0.67991358 0.15654929 1.5790001 28 31 17 255
0.68638027 0.15704446 1.5840001 23 26 12 255
0.67325377 0.15307851 1.544 24 27 13 255
0.67526793 0.15258299 1.539 25 28 14 255
0.68652785 0.15416987 1.5550001 25 28 14 255
0.68410587 0.15268366 1.5400001 25 28 14 255
0.68741429 0.15248671 1.5380001 32 35 21 255
0.69341165 0.152885 1.5420001 29 32 18 255
0.69807565 0.15298632 1.5430001 28 31 17 255
0.70456755 0.1534846 1.5480001 29 32 18 255
0.71566778 0.15497485 1.5630001 28 33 19 255
0.72316718 0.15567236 1.5700001 28 33 19 255
0.72607362 0.15537876 1.567 17 26 14 255
0.72756761 0.15478811 1.5610001 77 86 75 255
0.72809345 0.15399954 1.5530001 151 160 153 255
0.72904944 0.15331055 1.5460001 167 174 170 255
0.73044372 0.15272114 1.5400001 173 180 177 255
0.73133063 0.15203294 1.5330001 176 183 182 255
0.73314124 0.15154351 1.5280001 177 184 183 255
0.73347944 0.150757 1.5200001 180 187 186 255
0.73523223 0.15026841 1.5150001 179 186 185 255
0.73647219 0.14968106 1.5090001 185 192 191 255
0.73670042 0.14889577 1.501 186 193 192 255
-0.33066741 0.15201584 1.5690001 166 173 162 255
-0.32577285 0.151737 1.5660001 137 144 132 255
-0.32007259 0.15107048 1.559 164 171 159 255
-0.31522006 0.15079145 1.5560001 161 169 154 255
-0.31038305 0.15051229 1.5530001 156 164 149 255
-0.30575868 0.15032996 1.5510001 161 170 159 255
-0.30133894 0.15024446 1.5500001 154 163 152 255
-0.29673213 0.15006195 1.5480001 157 164 153 255
-0.29194647 0.14978236 1.5450001 152 159 148 255
-0.28699014 0.14940573 1.5410001 154 161 150 255
-0.28205481 0.14902894 1.5370001 155 162 150 255
-0.2776829 0.14894292 1.536 155 161 144 255
-0.27384982 0.14914772 1.5380001 129 135 117 255
-0.26965439 0.14915851 1.5380001 133 138 117 255
-0.26528558 0.14907219 1.5370001 131 134 110 255
-0.26109138 0.14908278 1.5370001 140 146 111 255
-0.25723064 0.14928725 1.539 128 135 103 255
-0.25319383 0.14939466 1.5400001 134 140 115 255
-0.24915078 0.14950198 1.5410001 134 140 122 255
-0.24478361 0.14941514 1.5400001 148 154 136 255
-0.24073358 0.14952224 1.5410001 164 170 152 255
-0.23637038 0.14943516 1.5400001 159 166 145 255
-0.2324641 0.14963907 1.5420001 167 174 153 255
-0.22839819 0.14974585 1.5430001 163 170 148 255
-0.22389019 0.14956135 1.5410001 158 166 141 255
-0.21953496 0.14947376 1.5400001 156 164 138 255
-0.2154641 0.14958017 1.5410001 148 157 128 255
-0.21152413 0.14978351 1.5430001 144 151 120 255
-0.20730384 0.14979258 1.5430001 145 152 121 255
-0.2030828 0.14980151 1.5430001 148 155 124 255
-0.19886111 0.14981031 1.5430001 159 166 135 255
-0.19463871 0.14981897 1.5430001 158 164 138 255
-0.19053905 0.14992456 1.544 154 160 135 255
-0.18643329 0.15003003 1.5450001 146 152 127 255
-0.18243927 0.15023248 1.5470001 153 158 137 255
-0.17820328 0.15024054 1.5470001 126 132 114 255
-0.17385422 0.15015134 1.5460001 169 175 157 255
-0.16950999 0.15006198 1.5450001 157 163 145 255
-0.16506366 0.1498753 1.5430001 160 166 148 255
-0.16083615 0.14988269 1.5430001 161 168 147 255
-0.15660805 0.14988996 1.5430001 157 164 142 255
-0.15237936 0.14989704 1.5430001 159 166 144 255
-0.14815012 0.14990394 1.5430001 152 159 137 255
-0.14382704 0.14981353 1.5420001 153 160 138 255
-0.13950892 0.14972293 1.5410001 156 163 141 255
-0.13528351 0.14972933 1.5410001 158 166 141 255
-0.13088751 0.14954117 1.539 157 165 140 255
-0.12666658 0.14954719 1.539 153 159 133 255
-0.12252473 0.14965022 1.5400001 152 160 135 255
-0.11853054 0.14994739 1.5430001 152 158 140 255
-0.11451947 0.15024444 1.5460001 176 180 162 255
-0.11070543 0.15083285 1.552 20 17 1 255
-0.10678948 0.15132396 1.557 48 45 31 255
-0.10258228 0.15142612 1.5580001 65 52 39 255
-0.098116815 0.1511393 1.5550001 86 71 56 255
-0.09372776 0.15094948 1.5530001 94 78 63 255
-0.089349322 0.15075946 1.5510001 87 69 54 255
-0.085146084 0.15086083 1.552 92 74 59 255
-0.080728553 0.15057319 1.549 96 76 60 255
-0.07652466 0.15067418 1.5500001 96 76 60 255
-0.072175086 0.15048334 1.5480001 94 74 58 255
-0.06783621 0.15029231 1.5460001 96 76 60 255
-0.063508041 0.15010102 1.544 102 80 64 255
-0.059344143 0.15029845 1.5460001 89 67 51 255
-0.055169012 0.15049565 1.5480001 92 70 54 255
-0.050982665 0.15069266 1.5500001 93 71 55 255
-0.046694692 0.1505978 1.549 93 69 53 255
-0.042466819 0.15069719 1.5500001 86 62 46 255
-0.038233284 0.1507964 1.5510001 83 59 43 255
-0.034081694 0.15128428 1.5560001 81 57 39 255
-0.029825881 0.15138306 1.557 71 47 29 255
-0.025531627 0.1512872 1.5560001 68 44 28 255
-0.021229099 0.15109386 1.554 74 50 34 255
-0.016970217 0.15119204 1.5550001 83 61 43 255
-0.012705768 0.15128998 1.5560001 90 66 48 255
-0.0084357727 0.15138774 1.557 88 64 46 255
-0.004162916 0.15158249 1.559 88 64 46 255
0.00012094811 0.15177706 1.5610001 90 66 48 255
0.0044186283 0.15206864 1.5640001 82 58 42 255
0.0087606395 0.15284616 1.572 80 56 40 255
0.013163221 0.15381792 1.582 80 56 40 255
0.017609634 0.15469225 1.5910001 71 49 33 255
0.022050167 0.15517743 1.5960001 79 58 44 255
0.026634026 0.15634298 1.608 79 62 50 255
0.031360961 0.1578972 1.6240001 80 64 54 255
0.68107444 0.15852563 1.6440001 21 20 14 255
0.67595148 0.15630509 1.6210001 38 37 31 255
0.67784005 0.15572418 1.6150001 32 34 24 255
0.68096459 0.15543287 1.6120001 32 35 23 255
0.67897224 0.15398484 1.5970001 27 30 16 255
0.67775553 0.15273005 1.5840001 23 26 12 255
0.68335909 0.15301834 1.5870001 26 29 15 255
0.68724734 0.1529213 1.5860001 22 27 13 255
0.68502706 0.15147476 1.5710001 25 28 14 255
0.67790025 0.14896797 1.5450001 22 25 11 255
0.68476123 0.14954698 1.5510001 22 25 11 255
0.69032395 0.14983708 1.554 23 26 12 255
0.70260912 0.15157387 1.572 26 29 15 255
0.69745702 0.14955066 1.5510001 27 31 14 255
0.69943058 0.14907055 1.5460001 27 30 16 255
0.70502001 0.14936221 1.549 27 31 14 255
0.71200162 0.14994358 1.5550001 26 30 13 255
0.7190181 0.15052538 1.5610001 27 31 14 255
0.72328955 0.15052904 1.5610001 24 32 17 255
0.72523272 0.15005097 1.5560001 10 19 7 255
0.72808862 0.14976615 1.5530001 115 123 115 255
0.72904414 0.14909601 1.5460001 166 174 167 255
0.73043805 0.14852269 1.5400001 169 176 172 255
0.73037034 0.14766045 1.531 173 180 177 255
0.73169529 0.14708795 1.5250001 178 185 184 255
0.73298985 0.14651585 1.5190001 180 187 186 255
0.73522484 0.14613707 1.5150001 182 189 188 255
0.73597628 0.14546934 1.508 184 191 190 255
-0.35940221 0.14717242 1.5640001 166 173 162 255
-0.3535611 0.14652546 1.557 183 191 176 255
-0.34820601 0.14606661 1.552 130 138 123 255
-0.34332067 0.1457959 1.549 152 160 145 255
-0.33823195 0.14543098 1.5450001 159 167 152 255
-0.33359665 0.14525424 1.5430001 177 186 174 255
-0.32918495 0.14517157 1.5420001 160 169 157 255
-0.32498866 0.145183 1.5420001 143 151 136 255
-0.32079163 0.14519437 1.5420001 133 141 126 255
-0.3159779 0.1449232 1.539 164 172 155 255
-0.31097713 0.14455776 1.5350001 164 173 154 255
-0.30639708 0.14438055 1.5330001 158 167 148 255
-0.30241856 0.14448583 1.534 163 172 153 255
-0.29804507 0.14440268 1.5330001 160 169 150 255
-0.2936762 0.14431944 1.5320001 148 154 136 255
-0.28931195 0.14423609 1.531 164 170 152 255
-0.28476617 0.14405847 1.529 144 151 130 255
-0.28023049 0.14388071 1.5270001 148 155 133 255
-0.27606657 0.14389132 1.5270001 145 151 126 255
-0.27261406 0.14427879 1.531 139 145 119 255
-0.26878834 0.14447775 1.5330001 130 135 104 255
-0.2646057 0.14448816 1.5330001 133 138 107 255
-0.26025239 0.14440417 1.5320001 136 139 108 255
-0.2562381 0.14450864 1.5330001 140 143 111 255
-0.25205314 0.14451873 1.5330001 132 135 103 255
-0.24819078 0.14471729 1.5350001 131 138 107 255
-0.24399883 0.14472719 1.5350001 124 131 100 255
-0.23996235 0.14483126 1.536 121 128 99 255
-0.23561266 0.14474663 1.5350001 110 119 90 255
-0.23171997 0.14494482 1.5370001 110 117 88 255
-0.22751956 0.14495426 1.5370001 111 118 89 255
-0.22317311 0.14486927 1.536 125 132 103 255
-0.21897395 0.14487848 1.536 119 126 95 255
-0.21477409 0.14488755 1.536 104 111 80 255
-0.21084769 0.14508517 1.5380001 106 111 79 255
-0.20677529 0.14518835 1.539 106 112 77 255
-0.20256507 0.14519702 1.539 105 111 76 255
-0.19848309 0.14529994 1.5400001 108 113 81 255
-0.19426876 0.14530836 1.5400001 108 113 82 255
-0.19017717 0.145411 1.5410001 108 112 84 255
-0.18595876 0.14541914 1.5410001 111 115 87 255
-0.18185763 0.14552149 1.5420001 125 131 106 255
-0.17763521 0.14552936 1.5420001 141 147 122 255
-0.17329966 0.14544266 1.5410001 161 166 144 255
-0.16907868 0.14545019 1.5410001 160 165 143 255
-0.16453616 0.1451744 1.5380001 160 167 145 255
-0.16042642 0.145276 1.539 156 164 139 255
-0.15620911 0.14528303 1.539 155 163 138 255
-0.15209 0.14538434 1.5400001 153 161 136 255
-0.14777277 0.14529665 1.539 147 155 130 255
-0.14336722 0.14511438 1.5370001 156 164 138 255
-0.13906261 0.14502633 1.536 154 162 136 255
-0.13485076 0.14503254 1.536 153 162 133 255
-0.13046828 0.14484972 1.534 153 160 131 255
-0.12634321 0.14494999 1.5350001 153 160 129 255
-0.12221214 0.14505009 1.536 151 158 129 255
-0.11822877 0.14533892 1.539 155 161 136 255
-0.11422848 0.14562756 1.5420001 176 177 155 255
-0.11035394 0.14610495 1.5470001 10 8 0 255
-0.10631435 0.14639328 1.5500001 53 43 26 255
-0.10206034 0.14639811 1.5500001 75 61 44 255
-0.09761662 0.1461194 1.5470001 93 69 53 255
-0.093249328 0.14593492 1.5450001 98 74 58 255
-0.089007869 0.14593916 1.5450001 101 77 61 255
-0.084875792 0.14613214 1.5470001 98 74 58 255
-0.080628142 0.14613602 1.5470001 97 73 57 255
-0.076429546 0.14623415 1.5480001 101 77 61 255
-0.072038636 0.14595425 1.5450001 103 77 59 255
-0.067707807 0.1457686 1.5430001 103 77 59 255
-0.06338767 0.14558274 1.5410001 102 76 57 255
-0.059193425 0.14568008 1.5420001 100 74 55 255
-0.054957807 0.14568278 1.5420001 100 72 54 255
-0.050721966 0.1456853 1.5420001 107 78 63 255
-0.046516057 0.14578207 1.5430001 105 76 61 255
-0.042304464 0.14587864 1.544 104 74 59 255
-0.038136508 0.146164 1.5470001 88 58 43 255
-0.033930004 0.14635468 1.549 88 59 44 255
-0.029712377 0.14654516 1.5510001 85 58 43 255
-0.025467217 0.14664094 1.552 87 60 45 255
-0.02121646 0.14673655 1.5530001 79 52 37 255
-0.016949207 0.14673744 1.5530001 70 46 30 255
-0.012698215 0.14692713 1.5550001 65 41 25 255
-0.0084307604 0.14702211 1.5560001 64 40 22 255
-0.0041657872 0.14740038 1.5600001 75 49 31 255
0.00012079896 0.14730597 1.559 81 57 39 255
0.0044103651 0.14749485 1.5610001 87 63 47 255
0.0087331962 0.14806145 1.567 87 60 45 255
0.013122251 0.1490058 1.577 84 57 42 255
0.017588345 0.15013893 1.5890001 82 55 40 255
0.022023594 0.1506104 1.5940001 69 42 27 255
0.02651936 0.15127064 1.6010001 82 55 40 255
0.031053482 0.15193067 1.608 88 66 50 255
0.035780359 0.15325186 1.6220001 84 66 51 255
0.67610598 0.15292193 1.6320001 32 29 23 255
0.67553705 0.15179479 1.6200001 39 36 30 255
0.67490417 0.150668 1.608 32 35 23 255
0.67927665 0.15066595 1.608 29 32 18 255
0.67599761 0.1489777 1.59 30 33 19 255
0.67690098 0.14822677 1.582 24 29 15 255
0.67560923 0.14700772 1.5690001 24 29 17 255
0.68031466 0.14710073 1.5700001 26 31 17 255
0.67892259 0.14588238 1.557 24 27 13 255
0.68053257 0.14532025 1.5510001 25 28 14 255
0.68167007 0.14466478 1.544 23 26 12 255
0.68987876 0.14550878 1.5530001 23 26 12 255
0.71109992 0.14907035 1.5910001 23 26 12 255
0.69790494 0.14541769 1.552 26 29 15 255
0.70078564 0.14513846 1.549 24 28 11 255
0.70547265 0.14523442 1.5500001 27 31 14 255
0.70970929 0.14523706 1.5500001 31 33 16 255
0.71625108 0.14570864 1.5550001 28 32 15 255
0.72004229 0.14561838 1.554 28 34 17 255
0.72336417 0.14543484 1.552 13 23 8 255
0.72714639 0.14534543 1.5510001 92 101 89 255
0.7285676 0.14478785 1.5450001 162 171 164 255
0.73043257 0.14432439 1.5400001 165 174 167 255
0.73084164 0.14358015 1.5320001 173 180 177 255
0.73216879 0.14302374 1.526 176 183 180 255
0.73346573 0.14246775 1.5200001 180 187 184 255
0.73473233 0.14191212 1.5140001 179 186 183 255
0.73548067 0.14126319 1.5070001 183 190 189 255
-0.48922113 0.14457627 1.5860001 175 180 168 255
-0.48278594 0.1439487 1.5790001 169 177 162 255
-0.4782066 0.14386819 1.5780001 170 178 163 255
-0.47333205 0.14369656 1.5760001 170 178 161 255
-0.46817034 0.14343382 1.5730001 174 182 165 255
-0.46302447 0.14317112 1.5700001 187 195 178 255
-0.45789441 0.14290844 1.567 184 192 175 255
-0.45278028 0.14264581 1.5640001 171 179 162 255
-0.44796866 0.14247441 1.562 148 157 138 255
-0.44401982 0.14257671 1.5630001 153 162 143 255
-0.44034633 0.14277031 1.5650001 179 188 169 255
-0.43582562 0.14269032 1.5640001 184 193 174 255
-0.43075782 0.14242785 1.5610001 181 190 171 255
-0.42488605 0.14189164 1.5550001 176 185 166 255
-0.42039898 0.14181167 1.554 165 174 155 255
-0.41564894 0.14164047 1.552 173 182 163 255
-0.41117424 0.14156057 1.5510001 165 173 156 255
-0.40617958 0.14129809 1.5480001 162 168 151 255
-0.40120059 0.14103559 1.5450001 164 171 160 255
-0.39700824 0.14104697 1.5450001 155 162 151 255
-0.39332369 0.14124095 1.5470001 153 161 144 255
-0.38962764 0.141435 1.549 163 172 153 255
-0.38492483 0.14126383 1.5470001 154 163 142 255
-0.38023219 0.14109261 1.5450001 152 161 142 255
-0.37530634 0.14083005 1.5420001 154 163 144 255
-0.37063676 0.14065878 1.5400001 175 182 170 255
-0.36621535 0.14057882 1.539 151 158 146 255
-0.36203384 0.14059018 1.539 144 151 140 255
-0.35831672 0.14078426 1.5410001 150 159 147 255
-0.35389858 0.14070424 1.5400001 145 153 138 255
-0.34971222 0.14071555 1.5400001 179 187 170 255
-0.34507641 0.1405441 1.5380001 130 139 120 255
-0.34067237 0.14046398 1.5370001 140 149 130 255
-0.33627298 0.14038378 1.536 167 176 157 255
-0.33166215 0.14021216 1.534 183 191 174 255
-0.32748836 0.14022328 1.534 136 144 127 255
-0.3233138 0.14023435 1.534 142 150 133 255
-0.31955457 0.14042825 1.536 152 161 142 255
-0.31496242 0.14025638 1.534 162 171 152 255
-0.30997518 0.13990155 1.5300001 150 159 140 255
-0.30540869 0.13972951 1.5280001 158 165 144 255
-0.30144376 0.13983175 1.529 163 170 149 255
-0.29708377 0.139751 1.5280001 146 153 132 255
-0.29253674 0.13957871 1.526 153 160 138 255
-0.28818882 0.1394978 1.5250001 145 152 130 255
-0.28421801 0.13959974 1.526 143 149 124 255
-0.27987397 0.13951868 1.5250001 146 152 127 255
-0.27571538 0.139529 1.5250001 144 150 124 255
-0.27209026 0.13981375 1.5280001 142 148 122 255
-0.26827261 0.14000696 1.5300001 138 142 114 255
-0.26427066 0.14010856 1.531 137 142 111 255
-0.26009262 0.14011857 1.531 138 143 112 255
-0.25608096 0.14022003 1.5320001 139 144 113 255
-0.25206307 0.1403214 1.5330001 133 138 107 255
-0.24787723 0.14033113 1.5330001 133 140 109 255
-0.24369061 0.14034078 1.5330001 136 145 116 255
-0.2396595 0.14044183 1.534 138 146 120 255
-0.23546866 0.14045125 1.534 133 141 115 255
-0.23127706 0.14046058 1.534 147 154 125 255
-0.22723275 0.14056134 1.5350001 146 153 122 255
-0.22303697 0.14057043 1.5350001 143 148 117 255
-0.21884044 0.14057939 1.5350001 132 137 106 255
-0.21478297 0.14067979 1.536 131 136 105 255
-0.21071936 0.14078011 1.5370001 139 144 113 255
-0.20664957 0.1408803 1.5380001 140 145 114 255
-0.20244196 0.14088877 1.5380001 134 141 109 255
-0.1981048 0.1408055 1.5370001 138 145 114 255
-0.19377238 0.14072205 1.536 143 150 119 255
-0.18956818 0.1407301 1.536 143 150 121 255
-0.18548401 0.14082964 1.5370001 136 142 116 255
-0.18127576 0.1408374 1.5370001 142 148 122 255
-0.17718208 0.14093666 1.5380001 123 129 104 255
-0.1728573 0.14085248 1.5370001 157 163 138 255
-0.16864714 0.14085981 1.5370001 162 168 143 255
-0.1641154 0.14059204 1.534 160 166 140 255
-0.15991223 0.14059903 1.534 150 156 130 255
-0.15570846 0.14060587 1.534 153 159 133 255
-0.15170166 0.14079589 1.536 154 161 132 255
-0.14739525 0.14071076 1.5350001 150 157 128 255
-0.14318703 0.14071712 1.5350001 154 161 132 255
-0.13888773 0.14063163 1.534 150 157 126 255
-0.13476899 0.14072937 1.5350001 151 158 129 255
-0.13047414 0.14064354 1.534 153 160 129 255
-0.12626657 0.14064923 1.534 150 157 126 255
-0.12205853 0.14065476 1.534 148 155 124 255
-0.11800365 0.14084351 1.536 149 155 130 255
-0.11393733 0.1410321 1.5380001 170 171 149 255
-0.11000228 0.14140391 1.5420001 8 5 0 255
-0.10611341 0.14186728 1.5470001 83 71 54 255
-0.10193331 0.14196369 1.5480001 91 67 51 255
-0.097621091 0.14187649 1.5470001 101 74 59 255
-0.093193255 0.14160568 1.544 105 78 63 255
-0.088839136 0.14142637 1.5420001 107 80 65 255
-0.084550507 0.1413386 1.5410001 103 76 61 255
-0.080423385 0.14152579 1.5430001 106 79 64 255
-0.07618621 0.14152937 1.5430001 104 77 62 255
-0.071855463 0.14134932 1.5410001 106 80 61 255
-0.067535415 0.14116904 1.539 105 79 60 255
-0.063267209 0.1410803 1.5380001 105 78 56 255
-0.059042625 0.14108312 1.5380001 110 83 61 255
-0.054853439 0.14117748 1.539 112 83 64 255
-0.050592754 0.14108817 1.5380001 110 78 61 255
-0.046457939 0.14136562 1.5410001 115 81 64 255
-0.042251639 0.14145939 1.5420001 112 78 61 255
-0.038015027 0.14146124 1.5420001 106 72 57 255
-0.033800162 0.14155465 1.5430001 101 69 54 255
-0.02957966 0.14164783 1.544 103 73 58 255
-0.025386363 0.14192435 1.5470001 97 68 53 255
-0.021149147 0.14201719 1.5480001 94 67 52 255
-0.016928175 0.14229329 1.5510001 87 60 45 255
-0.012690645 0.14256918 1.554 87 60 45 255
-0.0084311571 0.14275317 1.5560001 83 56 41 255
-0.0041659828 0.14312044 1.5600001 78 51 36 255
0.00012088214 0.14312054 1.5600001 78 51 36 255
0.0044133975 0.1433039 1.562 69 42 27 255
0.0087280348 0.1436706 1.5660001 78 51 36 255
0.013089581 0.14431228 1.5730001 91 64 49 255
0.017544894 0.14541249 1.585 87 60 45 255
0.022010811 0.14614551 1.5930001 88 61 46 255
0.026487473 0.14669485 1.5990001 71 44 29 255
0.030919747 0.14687701 1.6010001 82 58 42 255
0.035429068 0.14733417 1.6060001 83 61 45 255
0.040188987 0.14861676 1.6200001 80 63 51 255
0.6836108 0.15111679 1.6610001 155 153 151 255
0.67528039 0.14829339 1.6300001 32 29 23 255
0.67345464 0.14692602 1.6150001 38 35 28 255
0.67364722 0.14601387 1.605 35 36 24 255
0.67463183 0.14528404 1.5970001 30 33 19 255
0.67429858 0.14428163 1.5860001 32 35 21 255
0.67433488 0.14337051 1.5760001 28 31 17 255
0.67517942 0.14264168 1.5680001 30 33 19 255
0.67641532 0.14200418 1.5610001 26 29 15 255
0.67587042 0.14100313 1.5500001 26 29 15 255
0.68009359 0.14100307 1.5500001 23 26 12 255
0.69094104 0.14236794 1.5650001 24 27 13 255
0.68765676 0.1408221 1.5480001 23 26 12 255
0.68875104 0.14018631 1.5410001 24 27 13 255
0.69835299 0.14127934 1.5530001 25 29 12 255
0.69897401 0.14055328 1.5450001 24 28 11 255
0.70683569 0.1412832 1.5530001 25 29 12 255
0.70924866 0.14092179 1.549 28 30 13 255
0.7111811 0.14046977 1.544 28 32 15 255
0.71540529 0.14047305 1.544 27 33 16 255
0.72009772 0.14056771 1.5450001 17 27 12 255
0.72479784 0.14066274 1.5460001 32 41 29 255
0.72714806 0.14030327 1.5420001 155 163 156 255
0.72947884 0.1399442 1.5380001 162 171 164 255
0.73179013 0.13958551 1.534 172 179 176 255
0.73168302 0.13877223 1.5250001 175 182 179 255
0.73345935 0.13832332 1.5200001 177 184 183 255
0.73326957 0.13751078 1.511 182 189 188 255
0.73400927 0.13688061 1.5040001 185 192 191 255
-0.54450518 0.14110571 1.5970001 174 179 165 255
-0.53747618 0.14040771 1.5890001 176 181 167 255
-0.5314973 0.13997488 1.5840001 174 179 165 255
-0.52621108 0.13971891 1.5810001 175 181 164 255
-0.52061081 0.13937461 1.577 173 179 162 255
-0.51568711 0.13920721 1.575 170 176 158 255
-0.51077414 0.13903992 1.5730001 171 177 159 255
-0.50587183 0.13887271 1.5710001 163 169 151 255
-0.5006609 0.1386172 1.5680001 168 174 156 255
-0.49578261 0.13845019 1.5660001 170 179 160 255
-0.49060106 0.13819484 1.5630001 161 167 149 255
-0.48543552 0.13793954 1.5600001 165 171 153 255
-0.48121136 0.13794962 1.5600001 165 171 153 255
-0.47637549 0.13778293 1.5580001 169 175 157 255
-0.47215614 0.13779317 1.5580001 165 171 153 255
-0.46733579 0.13762659 1.5560001 159 168 149 255
-0.46371651 0.13781391 1.5580001 163 172 153 255
-0.45920113 0.13773593 1.557 166 175 156 255
-0.4546909 0.13765804 1.5560001 176 185 166 255
-0.44931707 0.13731477 1.552 184 193 174 255
-0.44482484 0.13723695 1.5510001 164 173 154 255
-0.44033766 0.13715918 1.5500001 161 168 147 255
-0.43698084 0.13743545 1.5530001 146 153 132 255
-0.43193531 0.13718078 1.5500001 172 179 158 255
-0.42718154 0.13701466 1.5480001 183 190 169 255
-0.42189145 0.13667148 1.544 186 193 172 255
-0.41770479 0.13668242 1.544 153 162 143 255
-0.41298187 0.13651632 1.5420001 148 157 138 255
-0.40853438 0.13643877 1.5410001 161 167 149 255
-0.40330443 0.13609557 1.5370001 163 169 151 255
-0.39887467 0.13601801 1.536 164 173 154 255
-0.39419276 0.1358519 1.534 159 168 149 255
-0.3905381 0.13604008 1.536 153 162 141 255
-0.38662043 0.13613969 1.5370001 160 170 147 255
