ply
format ascii 1.0
comment PCL generated
element vertex 974
property float x
property float y
property float z
property uchar red
property uchar green
property uchar blue
property uchar alpha
element camera 0
property float view_px
property float view_py
property float view_pz
property float x_axisx
property float x_axisy
property float x_axisz
property float y_axisx
property float y_axisy
property float y_axisz
property float z_axisx
property float z_axisy
property float z_axisz
property float focal
property float scalex
property float scaley
property float centerx
property float centery
property int viewportx
property int viewporty
property float k1
property float k2
end_header
0.72576058 -0.28936338 1.7520001 165 173 166 255
0.72761571 -0.28820729 1.7450001 161 169 162 255
0.72943419 -0.2870518 1.738 162 170 163 255
0.73037153 -0.28556666 1.7290001 164 172 165 255
0.73126137 -0.28408211 1.72 168 176 169 255
0.73167604 -0.28243309 1.71 172 179 175 255
0.73332983 -0.28128019 1.7030001 174 181 177 255
0.73278058 -0.27930209 1.6910001 176 183 179 255
0.73391205 -0.2779853 1.6830001 176 183 179 255
0.7358793 -0.2769995 1.677 178 186 179 255
0.73693269 -0.275684 1.669 176 183 179 255
0.73838872 -0.27453437 1.6620001 181 188 184 255
0.73623258 -0.27206388 1.6470001 181 188 184 255
0.73714471 -0.27075028 1.6390001 181 188 184 255
0.73756284 -0.26927221 1.6300001 180 188 181 255
0.73884439 -0.26812515 1.623 182 190 183 255
0.73917407 -0.26664835 1.6140001 182 189 185 255
0.73945665 -0.26517215 1.605 183 190 186 255
0.74015594 -0.26386186 1.5970001 180 187 183 255
0.7403475 -0.26238698 1.5880001 180 187 183 255
0.73955429 -0.26058221 1.577 180 188 181 255
0.73964679 -0.2591086 1.5680001 180 188 181 255
0.73826903 -0.25713986 1.5560001 179 187 180 255
0.73873687 -0.25583273 1.5480001 179 187 180 255
0.73772347 -0.25403044 1.5370001 179 187 180 255
0.73761785 -0.25255927 1.5280001 179 187 180 255
0.73795098 -0.25125405 1.5200001 179 187 180 255
0.73824298 -0.2499495 1.5120001 178 186 179 255
0.73898488 -0.24881087 1.5050001 181 189 182 255
0.7249319 -0.2938014 1.7500001 163 172 165 255
0.72678214 -0.29262644 1.743 163 171 164 255
0.72943532 -0.29178795 1.738 164 173 166 255
0.7299509 -0.29011068 1.728 167 175 168 255
0.73126376 -0.28876981 1.72 173 181 174 255
0.7316792 -0.28709382 1.71 173 181 174 255
0.73376423 -0.28609005 1.7040001 176 184 177 255
0.73321825 -0.28407955 1.692 178 186 179 255
0.73304492 -0.28223759 1.6810001 178 186 179 255
0.73544621 -0.28140369 1.6760001 179 187 180 255
0.73738074 -0.28040257 1.6700001 181 189 182 255
0.73750728 -0.27873045 1.6600001 180 188 181 255
0.73624033 -0.27655524 1.6470001 181 188 184 255
0.73715329 -0.27522027 1.6390001 181 188 184 255
0.73757207 -0.273718 1.6300001 180 187 183 255
0.73748857 -0.2720485 1.6200001 180 187 183 255
0.73781067 -0.27054751 1.6110001 181 188 184 255
0.73716432 -0.2687113 1.6 182 190 183 255
0.73877758 -0.26771551 1.5940001 181 189 182 255
0.73849541 -0.26604852 1.5840001 179 187 180 255
0.73909885 -0.26471812 1.5760001 178 186 179 255
0.7387175 -0.26305243 1.5660001 180 188 181 255
0.73875833 -0.26155534 1.557 178 186 179 255
0.73827517 -0.25989088 1.5470001 180 188 181 255
0.73773974 -0.25822705 1.5370001 179 187 180 255
0.73522115 -0.25589177 1.5230001 178 186 179 255
0.73554128 -0.25456521 1.5150001 177 185 178 255
0.73777318 -0.25391141 1.511 179 187 180 255
0.73998624 -0.25325844 1.5070001 179 187 180 255
0.72534621 -0.29874045 1.751 164 172 165 255
0.72761691 -0.29771733 1.7450001 163 171 164 255
0.73027623 -0.29686552 1.7400001 167 175 168 255
0.72995299 -0.29482004 1.728 171 179 172 255
0.73169172 -0.29362828 1.7210001 174 182 175 255
0.7325384 -0.29209593 1.7120001 174 182 175 255
0.73419887 -0.29090551 1.705 175 183 176 255
0.73278975 -0.28852141 1.6910001 178 186 179 255
0.73261428 -0.28664982 1.6800001 179 187 180 255
0.73545241 -0.28597328 1.6760001 181 189 182 255
0.73738754 -0.28495613 1.6700001 181 188 184 255
0.73751485 -0.28325713 1.6600001 181 188 184 255
0.73669565 -0.28121752 1.6480001 180 187 183 255
0.73761189 -0.27986112 1.6400001 181 188 184 255
0.73848665 -0.27850538 1.6320001 182 189 185 255
0.7393198 -0.2771503 1.6240001 179 186 182 255
0.73919564 -0.27545458 1.6140001 182 190 183 255
0.73901904 -0.27375954 1.6040001 180 188 181 255
0.73971689 -0.27240646 1.5960001 181 189 182 255
0.73944104 -0.2707127 1.5860001 181 189 182 255
0.74005073 -0.26936096 1.5780001 181 189 182 255
0.73873222 -0.26732707 1.5660001 179 187 180 255
0.74019718 -0.26631805 1.5600001 180 188 181 255
0.73924577 -0.26445612 1.549 178 186 179 255
0.7391966 -0.26293626 1.5400001 179 187 180 255
0.73620409 -0.26039258 1.5250001 180 188 181 255
0.73555946 -0.2587032 1.5150001 178 185 181 255
0.73779219 -0.25803906 1.511 177 185 178 255
0.73951501 -0.25720492 1.506 179 187 180 255
0.72886878 -0.30299252 1.748 165 173 166 255
0.73111731 -0.30195403 1.7420001 167 175 168 255
0.73122263 -0.30004951 1.7310001 171 179 172 255
0.73211992 -0.29849234 1.7220001 173 181 174 255
0.7333979 -0.29710913 1.7140001 175 183 176 255
0.73463392 -0.29572663 1.7060001 175 183 176 255
0.73366153 -0.29347807 1.6930001 179 186 182 255
0.73436439 -0.29192352 1.6840001 178 185 181 255
0.73458117 -0.2901963 1.674 181 188 184 255
0.7360701 -0.28898984 1.6670001 180 187 183 255
0.73530132 -0.28691724 1.6550001 181 188 184 255
0.73625714 -0.28553873 1.6470001 181 188 184 255
0.73627192 -0.28381419 1.6370001 182 189 186 255
0.73804414 -0.28278378 1.631 182 189 185 255
0.73842019 -0.281234 1.6220001 181 188 184 255
0.73829114 -0.27951139 1.6120001 183 190 186 255
0.73764902 -0.27761611 1.6010001 181 189 182 255
0.73833948 -0.27624163 1.5930001 181 189 182 255
0.73805588 -0.27452102 1.5830001 180 188 181 255
0.74006516 -0.27366823 1.5780001 180 188 181 255
0.73969078 -0.27194893 1.5680001 182 190 183 255
0.74068761 -0.27075064 1.5610001 178 186 179 255
0.7392624 -0.26868576 1.549 180 188 181 255
0.73873395 -0.2669684 1.539 180 188 181 255
0.73718774 -0.26490474 1.5270001 178 186 179 255
0.73606384 -0.26301512 1.516 180 187 183 255
0.73732352 -0.26199362 1.5100001 179 186 182 255
0.73855329 -0.26097286 1.5040001 182 190 183 255
0.72605991 -0.314798 1.7880001 163 171 164 255
0.72970408 -0.30810821 1.7500001 166 174 167 255
0.73153901 -0.30687761 1.743 168 176 169 255
0.73080289 -0.3045913 1.7300001 170 178 171 255
0.73127294 -0.30283383 1.72 173 181 174 255
0.73126251 -0.300901 1.7090001 174 182 175 255
0.73334682 -0.29984912 1.7030001 176 184 177 255
0.73366696 -0.29809371 1.6930001 177 184 180 255
0.73524272 -0.29686716 1.6860001 178 185 181 255
0.73458797 -0.29476091 1.674 183 190 186 255
0.73475295 -0.29300746 1.664 182 189 185 255
0.73442096 -0.29107863 1.6530001 181 188 184 255
0.73537213 -0.28967872 1.6450001 182 189 185 255
0.73583186 -0.2881034 1.636 182 189 186 255
0.73669708 -0.28670484 1.628 182 189 185 255
0.73888659 -0.28583536 1.623 182 189 185 255
0.73921913 -0.28426212 1.6140001 181 188 184 255
0.73950464 -0.28268951 1.605 180 188 181 255
0.73881632 -0.28076535 1.5940001 180 188 181 255
0.73900265 -0.27919409 1.585 179 187 180 255
0.73961103 -0.27779964 1.577 180 188 181 255
0.73923475 -0.27605361 1.567 180 188 181 255
0.73975497 -0.27466053 1.559 178 186 179 255
0.73927963 -0.27291578 1.549 178 186 179 255
0.73971194 -0.2715241 1.5410001 178 185 181 255
0.73865473 -0.26960441 1.5300001 178 185 181 255
0.73753989 -0.26768538 1.5190001 179 186 182 255
0.73734379 -0.26611942 1.5100001 178 185 181 255
0.73759222 -0.26473036 1.5020001 179 186 182 255
0.72986257 -0.31091285 1.7390001 170 178 171 255
0.72996098 -0.30894899 1.728 171 179 172 255
0.73042637 -0.30716458 1.7180001 172 180 173 255
0.73169476 -0.30573848 1.71 174 182 175 255
0.73421317 -0.30484945 1.705 175 183 176 255
0.73497283 -0.30324593 1.6960001 179 186 182 255
0.73524928 -0.30146432 1.6860001 177 184 180 255
0.73371762 -0.29896811 1.6720001 181 188 184 255
0.73431945 -0.29736662 1.6630001 183 190 186 255
0.73442966 -0.295587 1.6530001 181 188 184 255
0.73538154 -0.2941657 1.6450001 181 188 184 255
0.7367416 -0.2929239 1.6380001 182 189 185 255
0.73716044 -0.29132518 1.6290001 181 188 184 255
0.73798776 -0.28990597 1.6210001 179 186 182 255
0.73785746 -0.28812975 1.6110001 181 188 184 255
0.73813564 -0.28653312 1.6020001 180 187 183 255
0.7379033 -0.28475824 1.5920001 180 187 183 255
0.73715228 -0.28280514 1.5810001 182 189 185 255
0.7382195 -0.28156826 1.5740001 178 185 181 255
0.73877913 -0.28015319 1.5660001 181 188 184 255
0.73929745 -0.2787388 1.5580001 180 187 183 255
0.73882014 -0.27696732 1.5480001 178 185 181 255
0.73781031 -0.27501747 1.5370001 177 184 180 255
0.73770851 -0.2734262 1.5280001 177 184 180 255
0.73755985 -0.27183557 1.5190001 178 185 181 255
0.73736465 -0.27024564 1.5100001 176 183 179 255
0.73859596 -0.26919329 1.5040001 177 185 178 255
0.7294454 -0.31547093 1.738 171 179 172 255
0.72954196 -0.31347749 1.7270001 171 179 172 255
0.73000526 -0.31166619 1.7170001 174 182 175 255
0.73084372 -0.31003708 1.7080001 175 183 176 255
0.73335749 -0.30913484 1.7030001 177 185 178 255
0.73454577 -0.30768865 1.6950001 175 182 178 255
0.73438406 -0.30569863 1.6840001 174 181 177 255
0.73372525 -0.30352771 1.6720001 182 189 185 255
0.7352109 -0.30226517 1.6650001 180 187 183 255
0.73532736 -0.3004587 1.6550001 179 186 182 255
0.73539138 -0.29865295 1.6450001 181 188 184 255
0.73630238 -0.29721096 1.6370001 182 189 185 255
0.73717189 -0.29576972 1.6290001 182 189 185 255
0.73891044 -0.29469228 1.623 180 187 183 255
0.73832846 -0.29270774 1.6120001 181 188 184 255
0.73768842 -0.2907238 1.6010001 180 187 183 255
0.73699057 -0.28874055 1.59 178 185 181 255
0.73716742 -0.28712118 1.5810001 181 188 184 255
0.73870444 -0.28604731 1.575 178 186 179 255
0.73926765 -0.28461096 1.567 179 187 180 255
0.73884052 -0.28281203 1.557 178 185 181 255
0.73836106 -0.28101373 1.5470001 179 186 182 255
0.73734933 -0.27903447 1.536 179 186 182 255
0.73627985 -0.2770558 1.5250001 180 187 183 255
0.73563826 -0.27525946 1.5150001 179 186 182 255
0.73543262 -0.27364546 1.506 181 188 184 255
0.73763609 -0.27294075 1.5020001 179 187 180 255
0.72954565 -0.31818497 1.7270001 172 180 173 255
0.73085999 -0.31671527 1.7190001 172 180 173 255
0.73213261 -0.31524628 1.7110001 177 185 178 255
0.73379391 -0.31396225 1.7040001 176 184 177 255
0.73411906 -0.31212619 1.6940001 177 184 180 255
0.73395526 -0.31010652 1.6830001 176 183 179 255
0.73373336 -0.30808759 1.6720001 181 188 184 255
0.73610288 -0.30717495 1.6670001 181 188 184 255
0.73533702 -0.30497316 1.6550001 182 189 185 255
0.73495466 -0.30295625 1.6440001 181 188 184 255
0.73496407 -0.30112433 1.6340001 183 190 186 255
0.73673117 -0.30003026 1.628 181 188 184 255
0.73710191 -0.2983841 1.6190001 181 189 182 255
0.73605168 -0.29618561 1.6070001 179 186 182 255
0.73493791 -0.29398781 1.595 180 187 183 255
0.73561496 -0.29252803 1.5870001 179 186 182 255
0.73718315 -0.29143757 1.5810001 179 187 180 255
0.73872095 -0.29034787 1.575 178 186 179 255
0.73834139 -0.28852153 1.5650001 179 187 180 255
0.73743492 -0.28651145 1.554 179 187 180 255
0.73790264 -0.28505516 1.5460001 178 185 181 255
0.73736894 -0.28323081 1.536 179 186 182 255
0.73678309 -0.28140712 1.526 179 186 182 255
0.73663056 -0.2797685 1.5170001 179 186 182 255
0.73594302 -0.27794611 1.5070001 180 188 181 255
0.73815 -0.2772311 1.503 181 189 182 255
0.73039454 -0.32326657 1.7290001 172 180 173 255
0.73086482 -0.32140154 1.7190001 174 182 175 255
0.73085445 -0.31935024 1.7080001 174 182 175 255
0.73380029 -0.31860843 1.7040001 175 183 176 255
0.73412603 -0.31674552 1.6940001 177 184 180 255
0.73439914 -0.31488329 1.6840001 179 186 182 255
0.73374182 -0.31264779 1.6720001 181 188 184 255
0.73522902 -0.31134799 1.6650001 182 189 185 255
0.73490268 -0.30930084 1.654 182 189 185 255
0.73451841 -0.30725443 1.6430001 182 189 185 255
0.73452592 -0.30539572 1.6330001 181 188 184 255
0.73583847 -0.30409876 1.626 181 189 182 255
0.73711503 -0.3028025 1.6190001 181 189 182 255
0.73652357 -0.30075887 1.608 178 185 181 255
0.73633486 -0.29890296 1.598 181 188 184 255
0.73702091 -0.29742181 1.59 180 187 183 255
0.73906446 -0.29650268 1.585 180 188 181 255
0.738738 -0.29464886 1.575 178 186 179 255
0.73741561 -0.29242158 1.5630001 178 186 179 255
0.73650444 -0.29038203 1.552 179 186 182 255
0.73696744 -0.28890449 1.544 177 184 180 255
0.73738915 -0.28742763 1.536 176 183 179 255
0.73680407 -0.28557721 1.526 179 186 182 255
0.73568118 -0.28354037 1.5150001 181 188 184 255
0.73547721 -0.28187841 1.506 181 189 182 255
0.73670012 -0.28077874 1.5000001 181 189 182 255
0.73129511 -0.3262777 1.72 174 182 175 255
0.73214412 -0.32457626 1.7110001 176 184 177 255
0.73423755 -0.32344455 1.705 175 183 176 255
0.7337001 -0.3211754 1.6930001 178 186 179 255
0.73222685 -0.31852752 1.6790001 180 187 183 255
0.73155659 -0.31625968 1.6670001 181 188 184 255
0.73347247 -0.31513092 1.6610001 181 188 184 255
0.73491317 -0.31381315 1.654 182 189 185 255
0.7354238 -0.31211668 1.6450001 182 189 185 255
0.73498768 -0.3100414 1.6340001 183 190 186 255
0.73494613 -0.30815661 1.6240001 182 189 185 255
0.73576283 -0.30665204 1.6160001 180 187 183 255
0.73653793 -0.30514815 1.608 177 184 180 255
0.73588926 -0.30307573 1.5970001 179 186 182 255
0.73703694 -0.30176309 1.59 181 189 182 255
0.7376824 -0.30026144 1.582 181 188 184 255
0.73828661 -0.29876047 1.5740001 181 189 182 255
0.73649043 -0.29631117 1.5610001 179 187 180 255
0.73652363 -0.29462183 1.552 177 184 180 255
0.73651016 -0.29293317 1.5430001 177 184 180 255
0.73741001 -0.29162493 1.536 179 186 182 255
0.73730862 -0.2899377 1.5270001 178 185 181 255
0.7371605 -0.28825116 1.5180001 180 187 183 255
0.73696572 -0.28656533 1.5090001 181 189 182 255
0.73721546 -0.28507015 1.501 180 187 183 255
0.73002529 -0.33038995 1.7170001 173 181 174 255
0.73086667 -0.3286643 1.7080001 175 183 176 255
0.73381412 -0.3279016 1.7040001 177 185 178 255
0.73370802 -0.32579255 1.6930001 178 186 179 255
0.7326715 -0.32329932 1.6800001 179 186 182 255
0.73200482 -0.32099926 1.6680001 180 187 183 255
0.73304099 -0.31946969 1.6600001 181 188 184 255
0.73447984 -0.31813332 1.6530001 181 188 184 255
0.73454142 -0.31622031 1.6430001 183 190 186 255
0.73589987 -0.31488544 1.636 183 190 186 255
0.73586464 -0.31297386 1.626 180 187 183 255
0.7371428 -0.31164047 1.6190001 180 187 183 255
0.73746902 -0.30992287 1.6100001 177 184 180 255
0.7372874 -0.30801344 1.6 180 187 183 255
0.73705345 -0.30610475 1.59 179 187 180 255
0.73723346 -0.30438927 1.5810001 178 185 181 255
0.73736668 -0.30267453 1.572 181 188 184 255
0.73745304 -0.30096048 1.5630001 179 186 182 255
0.73749256 -0.29924718 1.554 178 185 181 255
0.73796284 -0.2977272 1.5460001 179 186 182 255
0.73695147 -0.29563013 1.5350001 178 186 179 255
0.7363652 -0.2937263 1.5250001 179 187 180 255
0.73621237 -0.29201579 1.516 180 188 181 255
0.73650128 -0.29049861 1.508 181 189 182 255
0.73724031 -0.28917485 1.501 177 184 180 255
0.72757965 -0.34500203 1.7680001 165 173 166 255
0.72867501 -0.34324864 1.7590001 166 174 167 255
0.72787458 -0.33623657 1.723 172 180 173 255
0.72918093 -0.33468121 1.715 175 183 176 255
0.73001772 -0.33293146 1.7060001 175 183 176 255
0.73166841 -0.33157277 1.6990001 176 184 177 255
0.73198283 -0.32962933 1.6890001 178 186 179 255
0.73268056 -0.32788175 1.6800001 179 186 182 255
0.7333312 -0.32613498 1.6710001 179 186 182 255
0.73393482 -0.32438889 1.6620001 181 188 184 255
0.73315823 -0.32205799 1.6500001 182 189 185 255
0.73321235 -0.32011822 1.6400001 181 188 184 255
0.7336638 -0.31837431 1.631 181 188 184 255
0.73452073 -0.31682637 1.623 180 187 183 255
0.7353363 -0.31527919 1.6150001 181 188 184 255
0.73611033 -0.31373274 1.6070001 180 187 183 255
0.73592132 -0.31179655 1.5970001 182 189 185 255
0.73614353 -0.31005636 1.5880001 181 189 182 255
0.73538607 -0.30792633 1.577 178 185 181 255
0.73644727 -0.3065781 1.5700001 178 185 181 255
0.73652899 -0.30484009 1.5610001 179 186 182 255
0.73751307 -0.30349338 1.554 179 186 182 255
0.73702937 -0.3015615 1.544 178 185 181 255
0.73697352 -0.29982564 1.5350001 178 186 179 255
0.73638815 -0.29789516 1.5250001 180 188 181 255
0.73672181 -0.29635608 1.5170001 180 187 183 255
0.73603749 -0.29442698 1.5070001 180 187 183 255
0.72717077 -0.34962296 1.7670001 167 175 168 255
0.7270214 -0.34725183 1.7550001 166 174 167 255
0.72788018 -0.34093437 1.723 172 180 173 255
0.72706145 -0.33836824 1.71 173 181 174 255
0.72916913 -0.33718807 1.7040001 174 182 175 255
0.73167646 -0.33620647 1.6990001 175 182 178 255
0.7315582 -0.33403835 1.6880001 179 186 182 255
0.73312634 -0.33266249 1.6810001 180 187 183 255
0.73290277 -0.33049583 1.6700001 180 187 184 255
0.7330628 -0.32852778 1.6600001 181 188 185 255
0.73183715 -0.32596675 1.6470001 181 188 184 255
0.73188382 -0.32400015 1.6370001 180 187 183 255
0.73322749 -0.32262805 1.6300001 182 189 185 255
0.73408258 -0.32105884 1.6220001 180 187 184 255
0.7353515 -0.31968829 1.6150001 181 188 185 255
0.73521018 -0.31772462 1.605 180 187 184 255
0.73593813 -0.31615767 1.5970001 181 188 184 255
0.73662478 -0.31459144 1.5890001 180 187 183 255
0.7363373 -0.31263 1.5790001 178 185 181 255
0.73693579 -0.31106529 1.5710001 178 185 181 255
0.73702097 -0.30930328 1.562 179 186 182 255
0.73611039 -0.30714601 1.5510001 177 184 180 255
0.73561925 -0.3051874 1.5410001 178 185 181 255
0.73555595 -0.30342758 1.5320001 180 187 183 255
0.73592889 -0.30186653 1.524 180 187 183 255
0.73626059 -0.3003062 1.516 180 187 183 255
0.73557436 -0.29835045 1.506 180 187 183 255
0.72593927 -0.35383749 1.7640001 166 174 167 255
0.72569698 -0.34683001 1.7290001 170 178 171 255
0.72704142 -0.34523121 1.7210001 172 180 173 255
0.72749352 -0.34323189 1.7110001 175 183 176 255
0.72917682 -0.3418352 1.7040001 175 183 176 255
0.72953165 -0.3398374 1.6940001 178 186 179 255
0.73026729 -0.33804095 1.6850001 179 186 182 255
0.73095578 -0.33624527 1.6760001 178 185 181 255
0.73071933 -0.33404905 1.6650001 179 186 182 255
0.73130804 -0.33225486 1.6560001 181 188 184 255
0.73184961 -0.33046138 1.6470001 181 188 184 255
0.73368549 -0.32927066 1.641 180 187 183 255
0.73369145 -0.32727802 1.631 181 188 184 255
0.73409748 -0.32548687 1.6220001 181 188 185 255
0.73491198 -0.32389712 1.6140001 180 187 184 255
0.73522675 -0.3221074 1.605 178 185 182 255
0.73549479 -0.32031849 1.5960001 180 187 183 255
0.73617941 -0.31873101 1.5880001 178 185 181 255
0.73728913 -0.31734505 1.5810001 178 185 181 255
0.73789394 -0.31575909 1.5730001 178 185 181 255
0.73609823 -0.31317022 1.5600001 177 184 180 255
0.73423356 -0.31058195 1.5470001 179 186 182 255
0.73277754 -0.30819508 1.5350001 178 185 181 255
0.73461908 -0.30721438 1.5300001 179 186 182 255
0.73547029 -0.30583295 1.5230001 179 186 182 255
0.73580015 -0.30425143 1.5150001 180 187 183 255
0.73462355 -0.3020682 1.5040001 182 187 183 255
0.72696197 -0.35215425 1.7320001 170 179 172 255
0.72958273 -0.35114402 1.7270001 171 180 173 255
0.73047715 -0.34932128 1.7180001 174 183 176 255
0.73046869 -0.34709266 1.7070001 175 183 176 255
0.73040193 -0.34486476 1.6960001 175 183 176 255
0.73157722 -0.34324762 1.6880001 177 184 180 255
0.73183858 -0.34122452 1.6780001 178 185 181 255
0.73073059 -0.33859211 1.6650001 179 186 182 255
0.73132026 -0.33677393 1.6560001 181 188 184 255
0.73364007 -0.33576992 1.651 181 188 184 255
0.73459357 -0.33415663 1.6430001 180 187 183 255
0.73505563 -0.33234069 1.6340001 179 186 182 255
0.73411304 -0.32991537 1.6220001 178 185 181 255
0.73447293 -0.32810092 1.613 178 185 181 255
0.73478585 -0.32628724 1.6040001 174 181 177 255
0.73505199 -0.32447433 1.595 177 184 180 255
0.73619843 -0.32306907 1.5880001 178 185 181 255
0.73777527 -0.32186803 1.582 179 186 182 255
0.73744553 -0.31985399 1.572 180 187 183 255
0.73706341 -0.31784064 1.562 177 184 181 255
0.73473054 -0.31501406 1.5480001 178 185 182 255
0.73471016 -0.3132056 1.539 179 186 182 255
0.73560339 -0.31180492 1.5320001 178 185 181 255
0.7364611 -0.31040508 1.5250001 181 188 184 255
0.73679745 -0.30880249 1.5170001 179 186 182 255
0.73709255 -0.30720061 1.5090001 180 187 183 255
0.73832923 -0.30600673 1.503 179 186 182 255
0.72864705 -0.35770115 1.7360001 170 179 172 255
0.73001224 -0.35605964 1.728 172 181 174 255
0.73048508 -0.3540068 1.7180001 173 182 177 255
0.73047733 -0.35174865 1.7070001 175 182 178 255
0.72998065 -0.34928513 1.6950001 176 183 179 255
0.73202091 -0.34805885 1.6890001 178 185 181 255
0.73141348 -0.34559685 1.677 180 187 183 255
0.73118144 -0.34334174 1.6660001 179 186 182 255
0.73044962 -0.34088117 1.654 181 188 184 255
0.73409802 -0.34048238 1.6520001 182 189 185 255
0.73460805 -0.33864173 1.6430001 181 188 184 255
0.73462111 -0.33659571 1.6330001 179 186 182 255
0.73412907 -0.33434427 1.6220001 178 185 181 255
0.73403448 -0.33229974 1.6120001 176 183 179 255
0.73342943 -0.33004981 1.6010001 177 184 180 255
0.73414886 -0.32841903 1.5930001 174 181 177 255
0.73529071 -0.32699525 1.5860001 170 177 173 255
0.73686302 -0.32577848 1.58 178 185 181 255
0.73652858 -0.32373771 1.5700001 177 184 180 255
0.73614186 -0.32169771 1.5600001 177 184 181 255
0.73570281 -0.3196584 1.5500001 178 185 181 255
0.73664373 -0.31823856 1.5430001 176 183 179 255
0.73658854 -0.316407 1.534 180 187 183 255
0.73696971 -0.31478244 1.526 181 188 184 255
0.73682404 -0.31295243 1.5170001 180 188 181 255
0.73614317 -0.31091681 1.5070001 180 187 183 255
0.73688394 -0.3095009 1.5000001 180 187 183 255
0.72917479 -0.36035469 1.7260001 171 180 175 255
0.72836739 -0.3576487 1.7130001 173 182 177 255
0.72877479 -0.35556981 1.7030001 175 184 179 255
0.72999066 -0.35390928 1.6950001 176 183 179 255
0.73203176 -0.35266715 1.6890001 178 185 181 255
0.73142511 -0.35017294 1.677 179 186 182 255
0.73207164 -0.34830597 1.6680001 179 186 182 255
0.73222941 -0.34623089 1.6580001 180 187 183 255
0.73455662 -0.34520078 1.6530001 183 190 186 255
0.73462301 -0.34312731 1.6430001 182 189 185 255
0.73463696 -0.34105456 1.6330001 180 187 183 255
0.73369318 -0.33856484 1.6210001 180 187 183 255
0.73268604 -0.33607587 1.6090001 178 185 181 255
0.73161536 -0.33358759 1.5970001 179 186 182 255
0.73278558 -0.33214444 1.59 179 186 182 255
0.73531097 -0.3313289 1.5860001 179 186 182 255
0.73641777 -0.32988745 1.5790001 175 182 179 255
0.73608142 -0.32782 1.5690001 178 185 182 255
0.73663664 -0.32617122 1.5610001 177 184 181 255
0.73715049 -0.32452321 1.5530001 177 184 180 255
0.73762321 -0.32287604 1.5450001 179 186 182 255
0.73709428 -0.3208116 1.5350001 179 186 182 255
0.73747915 -0.31916597 1.5270001 179 187 180 255
0.73636562 -0.31689394 1.516 180 188 181 255
0.73714846 -0.31545889 1.5090001 181 188 184 255
0.73740447 -0.31381553 1.501 181 188 184 255
0.72749305 -0.36421624 1.7220001 170 179 172 255
0.72582501 -0.36105224 1.7070001 172 181 174 255
0.72750056 -0.35958111 1.7 174 183 178 255
0.72957045 -0.35832229 1.6940001 176 183 179 255
0.73074281 -0.35664126 1.6860001 178 185 182 255
0.73012882 -0.35411483 1.674 178 185 182 255
0.73032904 -0.35201225 1.664 178 185 182 255
0.73180169 -0.35054517 1.6570001 179 186 183 255
0.73368251 -0.3492904 1.651 181 188 185 255
0.73419148 -0.34740174 1.6420001 178 185 181 255
0.73420358 -0.34530234 1.6320001 182 189 185 255
0.73325783 -0.34278044 1.6200001 181 188 184 255
0.73224872 -0.34025928 1.608 181 188 184 255
0.73163426 -0.33795047 1.5970001 180 187 183 255
0.73326635 -0.3367005 1.5910001 178 185 181 255
0.73440444 -0.33523977 1.5840001 179 186 182 255
0.73504031 -0.33356819 1.5760001 180 187 183 255
0.73469669 -0.3314741 1.5660001 178 185 181 255
0.73430061 -0.32938072 1.5560001 175 182 178 255
0.73480153 -0.32771146 1.5480001 171 178 174 255
0.73573887 -0.32625476 1.5410001 180 187 183 255
0.73567998 -0.32437539 1.5320001 180 188 181 255
0.7360574 -0.32270855 1.524 181 189 182 255
0.73590803 -0.3208307 1.5150001 181 189 182 255
0.73717749 -0.31958899 1.5090001 182 189 185 255
0.73694313 -0.31771275 1.5000001 181 188 184 255
0.72710997 -0.36635152 1.71 174 182 175 255
0.72751069 -0.3642191 1.7 176 183 179 255
0.73188627 -0.3595407 1.6780001 177 184 181 255
0.73209828 -0.35741144 1.6680001 180 187 184 255
0.73402435 -0.35614011 1.6620001 178 185 182 255
0.73458672 -0.35422674 1.6530001 180 187 184 255
0.73465478 -0.35209984 1.6430001 179 186 182 255
0.73377067 -0.34954506 1.631 178 185 181 255
0.73327577 -0.3472054 1.6200001 180 187 184 255
0.73499984 -0.34593812 1.6140001 178 185 181 255
0.73486102 -0.34381437 1.6040001 180 187 183 255
0.73605239 -0.34233439 1.5970001 178 185 181 255
0.73535329 -0.33999777 1.5860001 178 185 181 255
0.73552912 -0.33809063 1.577 174 182 175 255
0.73518902 -0.33596992 1.567 178 186 179 255
0.73574048 -0.33427876 1.559 178 186 179 255
0.73530132 -0.33215955 1.549 178 185 181 255
0.73528749 -0.33025557 1.5400001 178 185 181 255
0.73474652 -0.32813781 1.5300001 180 187 183 255
0.73656845 -0.32709327 1.5250001 180 187 183 255
0.73690844 -0.3254061 1.5170001 180 188 181 255
0.73818451 -0.32414883 1.511 180 187 183 255
0.73795658 -0.32224876 1.5020001 180 187 183 255
0.72360235 -0.38398796 1.7700001 168 176 169 255
0.72432071 -0.38182414 1.7600001 164 172 165 255
0.72666562 -0.37317657 1.72 174 181 177 255
0.72711986 -0.37101668 1.71 174 182 175 255
0.72794944 -0.36907452 1.7010001 175 183 176 255
0.72959316 -0.36756712 1.6940001 175 182 178 255
0.73120058 -0.36606053 1.687 177 184 180 255
0.73189956 -0.36412078 1.6780001 178 185 181 255
0.73123467 -0.36153084 1.6660001 178 185 182 255
0.73227286 -0.35980967 1.6580001 179 186 183 255
0.73326945 -0.35808936 1.6500001 180 187 184 255
0.73377728 -0.35615274 1.641 180 187 183 255
0.73378849 -0.35399994 1.631 179 186 182 255
0.73419964 -0.352065 1.6220001 181 188 184 255
0.73593014 -0.35078204 1.6160001 179 186 182 255
0.73625582 -0.34884867 1.6070001 180 187 183 255
0.73607367 -0.34669906 1.5970001 181 188 184 255
0.73444819 -0.34389886 1.5840001 179 186 182 255
0.73461938 -0.34196776 1.575 176 184 177 255
0.73521316 -0.34025469 1.567 177 185 178 255
0.73623747 -0.33875954 1.5600001 178 185 181 255
0.73627675 -0.33683091 1.5510001 180 187 183 255
0.73531425 -0.33446869 1.5400001 176 183 179 255
0.73477423 -0.33232439 1.5300001 166 173 169 255
0.73563111 -0.33083251 1.5230001 177 184 180 255
0.7364524 -0.32934144 1.516 182 189 185 255
0.73723799 -0.32785124 1.5090001 179 186 182 255
0.73700559 -0.32592732 1.5000001 180 187 183 255
0.72713023 -0.37568223 1.71 177 184 180 255
0.72874379 -0.37175071 1.692 176 183 179 255
0.73034674 -0.37022561 1.6850001 175 182 178 255
0.73147726 -0.36848164 1.677 180 187 183 255
0.73212731 -0.36651874 1.6680001 178 185 181 255
0.73228854 -0.36433688 1.6580001 178 185 182 255
0.73373044 -0.36281505 1.651 179 186 182 255
0.73379481 -0.36063483 1.641 180 187 183 255
0.73470664 -0.35889491 1.6330001 180 187 183 255
0.73467159 -0.35671628 1.623 179 186 182 255
0.73549497 -0.354978 1.6150001 179 186 183 255
0.73490244 -0.35258111 1.6040001 180 187 184 255
0.73425198 -0.35018498 1.5930001 179 186 183 255
0.73307997 -0.3475697 1.5810001 180 187 183 255
0.73417681 -0.34605446 1.5740001 180 188 181 255
0.7357071 -0.34476 1.5680001 180 188 181 255
0.73815113 -0.34390613 1.5640001 179 186 182 255
0.73772746 -0.34173375 1.554 179 186 182 255
0.73677433 -0.33934227 1.5430001 178 185 182 255
0.73672378 -0.33739138 1.534 176 183 180 255
0.73710966 -0.33566123 1.526 178 185 182 255
0.7369687 -0.33371195 1.5170001 180 187 183 255
0.73678088 -0.33176339 1.508 181 188 184 255
0.72372788 -0.38100469 1.7130001 173 180 176 255
0.72629082 -0.37990341 1.7080001 174 181 177 255
0.72754461 -0.37813571 1.7 176 183 179 255
0.72961801 -0.37681371 1.6940001 175 182 178 255
0.73079383 -0.37504765 1.6860001 176 184 177 255
0.73105568 -0.37283754 1.6760001 177 184 180 255
0.73214263 -0.37107316 1.6680001 177 184 180 255
0.73230475 -0.3688646 1.6580001 178 185 181 255
0.73374766 -0.36732435 1.651 179 186 182 255
0.73426014 -0.36533993 1.6420001 178 185 181 255
0.73472577 -0.36335638 1.6330001 180 187 183 255
0.73423892 -0.3609286 1.6220001 180 187 183 255
0.73323876 -0.35827899 1.6100001 179 186 183 255
0.73354965 -0.35629776 1.6010001 178 185 182 255
0.73289186 -0.35387221 1.59 179 186 183 255
0.73263997 -0.35167 1.58 178 185 182 255
0.73233551 -0.34946856 1.5700001 177 184 180 255
0.73385578 -0.34815833 1.5640001 177 184 180 255
0.73581767 -0.34707156 1.559 180 187 183 255
0.73775506 -0.34598583 1.554 178 185 181 255
0.73775774 -0.34401032 1.5450001 178 185 181 255
0.73723352 -0.34181297 1.5350001 179 186 182 255
0.73520786 -0.33894825 1.5220001 181 188 184 255
0.73457086 -0.33675233 1.5120001 180 187 183 255
0.73437023 -0.33477989 1.503 181 188 184 255
0.73012495 -0.38412645 1.7060001 173 180 176 255
0.73221564 -0.38278872 1.7 176 183 179 255
0.73167509 -0.38010082 1.6880001 177 184 180 255
0.73194325 -0.37786403 1.6780001 179 186 182 255
0.73303664 -0.37607843 1.6700001 179 186 183 255
0.7332052 -0.37384331 1.6600001 178 185 182 255
0.73420995 -0.37205938 1.6520001 178 185 182 255
0.73472619 -0.37005109 1.6430001 179 186 182 255
0.73519534 -0.3680436 1.6340001 179 186 182 255
0.73380673 -0.36513594 1.6210001 180 187 183 255
0.73326027 -0.36267954 1.6100001 177 184 181 255
0.73265576 -0.36022386 1.5990001 178 185 182 255
0.73245436 -0.35799429 1.5890001 178 185 182 255
0.7322005 -0.35576543 1.5790001 179 186 183 255
0.73236078 -0.35376272 1.5700001 179 186 182 255
0.73388207 -0.35243687 1.5640001 179 187 180 255
0.73584497 -0.35133719 1.559 179 186 182 255
0.73778331 -0.3502385 1.554 181 188 184 255
0.73730952 -0.34801385 1.544 180 187 183 255
0.73678333 -0.34578988 1.534 180 187 183 255
0.73427284 -0.34266496 1.5200001 179 186 182 255
0.73411703 -0.3406679 1.511 181 188 184 255
0.73342597 -0.33844611 1.501 182 189 186 255
0.73309118 -0.38788539 1.702 176 183 180 255
0.73299032 -0.38539329 1.6910001 175 182 179 255
0.73152286 -0.38221821 1.677 178 185 182 255
0.73173648 -0.37995556 1.6670001 179 186 183 255
0.73233938 -0.3779217 1.6580001 176 183 180 255
0.73333961 -0.37611657 1.6500001 179 186 183 255
0.73340416 -0.37385643 1.6400001 179 186 183 255
0.73431599 -0.372053 1.6320001 179 186 182 255
0.73382819 -0.36956647 1.6210001 178 185 181 255
0.73373801 -0.36730871 1.6110001 177 184 181 255
0.73451179 -0.36550778 1.603 179 186 183 255
0.73432225 -0.36325163 1.5930001 178 185 182 255
0.73361671 -0.36076823 1.582 179 186 182 255
0.73378623 -0.3587417 1.5730001 179 186 182 255
0.73484755 -0.35717216 1.5660001 176 183 179 255
0.73587298 -0.35560346 1.559 180 187 183 255
0.7368629 -0.35403574 1.552 180 187 183 255
0.73638451 -0.35178444 1.5420001 180 187 183 255
0.73585373 -0.34953389 1.5320001 178 185 181 255
0.73430473 -0.34682778 1.5200001 181 188 184 255
0.7336641 -0.34457877 1.5100001 181 188 184 255
0.73297119 -0.34233043 1.5000001 182 189 186 255
0.73224431 -0.39207098 1.7 176 183 180 255
0.7308386 -0.38885754 1.6860001 175 182 179 255
0.73023057 -0.38610613 1.674 179 186 183 255
0.73043698 -0.38381684 1.664 178 185 182 255
0.73279941 -0.38268176 1.659 177 184 181 255
0.73380339 -0.3808555 1.651 179 186 183 255
0.73387152 -0.37856874 1.641 181 188 184 255
0.73433703 -0.37651345 1.6320001 180 187 183 255
0.734303 -0.37422833 1.6220001 180 187 183 255
0.73467189 -0.37217471 1.613 180 187 184 255
0.73453575 -0.36989117 1.603 178 185 182 255
0.73434716 -0.36760846 1.5930001 180 187 183 255
0.73410636 -0.36532655 1.5830001 179 186 182 255
0.73474616 -0.36350703 1.575 179 186 182 255
0.73581392 -0.36191913 1.5680001 179 186 183 255
0.73637396 -0.36010134 1.5600001 179 186 183 255
0.73641801 -0.35805357 1.5510001 181 188 185 255
0.73450512 -0.35508311 1.5380001 181 188 185 255
0.73492497 -0.35326773 1.5300001 180 187 184 255
0.7353037 -0.35145321 1.5220001 179 186 183 255
0.73612726 -0.3498705 1.5150001 180 187 184 255
0.73642659 -0.34805769 1.5070001 180 187 184 255
0.72560114 -0.41132554 1.7630001 172 180 173 255
0.72881383 -0.39484608 1.692 173 182 177 255
0.7293753 -0.39021176 1.6720001 177 184 181 255
0.7291382 -0.38766244 1.6610001 178 185 182 255
0.73237675 -0.3869811 1.6580001 178 185 182 255
0.73249 -0.38466686 1.6480001 179 186 183 255
0.73299795 -0.38258687 1.6390001 180 187 184 255
0.73255908 -0.38004085 1.628 180 187 183 255
0.73251486 -0.37772906 1.618 180 187 183 255
0.73332924 -0.37588501 1.6100001 178 185 182 255
0.73410231 -0.37404186 1.6020001 178 185 182 255
0.73483402 -0.37219957 1.5940001 178 185 181 255
0.73413301 -0.36965755 1.5830001 178 185 181 255
0.73337418 -0.36711633 1.572 178 185 181 255
0.73443472 -0.36551008 1.5650001 179 186 183 255
0.7349875 -0.36367112 1.557 180 187 184 255
0.73502421 -0.3615995 1.5480001 181 188 187 255
0.73453665 -0.35929507 1.5380001 181 188 187 255
0.73447722 -0.35722503 1.529 181 188 185 255
0.73533744 -0.35562313 1.5220001 179 186 183 255
0.73616201 -0.35402212 1.5150001 181 188 185 255
0.73695105 -0.352422 1.508 181 188 185 255
0.73060757 -0.40557405 1.7180001 172 179 175 255
0.72889727 -0.40204787 1.7030001 175 182 178 255
0.7292605 -0.39970282 1.6930001 176 183 179 255
0.72982937 -0.39501527 1.6730001 178 185 182 255
0.72915691 -0.3922005 1.6610001 177 184 181 255
0.73151308 -0.39103943 1.6560001 177 184 181 255
0.73162162 -0.38869855 1.646 178 185 182 255
0.73301965 -0.38706702 1.6390001 181 188 185 255
0.73303163 -0.38472787 1.6290001 181 188 184 255
0.73253834 -0.3821533 1.618 181 188 184 255
0.73289835 -0.380052 1.6090001 179 186 183 255
0.73366964 -0.37818775 1.6010001 178 185 182 255
0.73486048 -0.37656054 1.5940001 178 185 181 255
0.73462427 -0.37422556 1.5840001 179 186 182 255
0.73340261 -0.37141874 1.572 179 186 183 255
0.73352563 -0.36932161 1.5630001 180 187 184 255
0.73407388 -0.36746159 1.5550001 179 186 183 255
0.73410606 -0.36536613 1.5460001 180 187 186 255
0.73504674 -0.36374417 1.539 180 187 186 255
0.73499113 -0.36165038 1.5300001 181 188 187 255
0.73633826 -0.3602666 1.524 181 188 187 255
0.73522574 -0.35770169 1.5130001 181 188 187 255
0.73552167 -0.35584685 1.5050001 181 188 187 255
0.72976899 -0.40717605 1.705 172 179 175 255
0.7310918 -0.39532638 1.6550001 178 185 182 255
0.73119861 -0.39295891 1.6450001 177 184 181 255
0.73304206 -0.39154786 1.6390001 178 185 182 255
0.73215503 -0.3887043 1.6270001 179 186 183 255
0.73029894 -0.38538367 1.613 181 188 184 255
0.73019058 -0.38301951 1.603 180 187 184 255
0.730488 -0.38089508 1.5940001 179 186 183 255
0.73350477 -0.38020539 1.5910001 179 186 183 255
0.7341888 -0.37832171 1.5830001 180 187 184 255
0.73389852 -0.37596098 1.5730001 180 187 184 255
0.73261726 -0.37312299 1.5610001 180 187 184 255
0.7326889 -0.37100282 1.552 179 186 183 255
0.73223889 -0.36864445 1.5420001 179 186 185 255
0.73460251 -0.36772138 1.5380001 180 187 186 255
0.73502553 -0.36584294 1.5300001 181 188 185 255
0.73540747 -0.36396536 1.5220001 179 186 185 255
0.7338044 -0.36113203 1.5100001 180 187 186 255
0.73360425 -0.3590169 1.501 179 186 185 255
0.73067117 -0.39960843 1.654 178 185 184 255
0.73255426 -0.39818087 1.6480001 180 187 186 255
0.73351252 -0.39627102 1.6400001 180 187 184 255
0.73262912 -0.39339542 1.628 180 187 184 255
0.73077679 -0.39003733 1.6140001 182 189 186 255
0.73021656 -0.38740495 1.603 181 188 185 255
0.73051506 -0.38525674 1.5940001 181 188 185 255
0.73307174 -0.38431793 1.59 179 186 183 255
0.73421794 -0.38265496 1.5830001 179 186 183 255
0.73532844 -0.38099298 1.5760001 178 185 182 255
0.73405641 -0.37812299 1.5640001 181 188 185 255
0.73460954 -0.37622094 1.5560001 179 186 183 255
0.73322183 -0.3733525 1.544 179 186 185 255
0.73559219 -0.37241948 1.5400001 183 190 189 255
0.73506093 -0.37003636 1.5300001 181 188 185 255
0.73544395 -0.36813781 1.5220001 181 188 187 255
0.73432779 -0.36551437 1.511 180 187 186 255
0.73364276 -0.36313364 1.501 182 189 188 255
0.72894657 -0.41600144 1.7030001 174 181 178 255
0.73290199 -0.40535176 1.659 179 186 185 255
0.73346633 -0.40317565 1.6500001 179 186 185 255
0.73264194 -0.40026727 1.6380001 179 186 185 255
0.73130405 -0.39711526 1.6250001 179 186 183 255
0.72989708 -0.39396405 1.6120001 180 187 184 255
0.72978789 -0.39154679 1.6020001 181 188 187 255
0.7296263 -0.38913035 1.5920001 180 187 186 255
0.73171765 -0.38793698 1.5870001 179 186 185 255
0.73378414 -0.38674453 1.582 179 185 187 255
0.73395967 -0.38457525 1.5730001 179 185 187 255
0.73314977 -0.38191777 1.562 179 186 185 255
0.73322624 -0.3797501 1.5530001 180 187 186 255
0.73373085 -0.37782785 1.5450001 181 188 187 255
0.73467207 -0.37615108 1.5380001 180 187 186 255
0.7346167 -0.37398604 1.529 182 189 188 255
0.73451483 -0.37182185 1.5200001 179 186 185 255
0.73485225 -0.36990315 1.5120001 181 188 187 255
0.73417097 -0.36749595 1.5020001 182 189 186 255
0.72551024 -0.43242982 1.751 171 178 174 255
0.72530109 -0.4294802 1.7390001 172 179 175 255
0.73336661 -0.41013497 1.6600001 178 185 182 255
0.73215657 -0.40694666 1.6470001 177 184 181 255
0.73087752 -0.40375912 1.6340001 178 185 184 255
0.73042959 -0.40106657 1.623 180 187 186 255
0.73082936 -0.3988691 1.6140001 181 188 185 255
0.73118222 -0.39667249 1.605 182 189 188 255
0.73194659 -0.39472392 1.5970001 180 187 186 255
0.73220849 -0.39252907 1.5880001 180 187 186 255
0.73288733 -0.39058226 1.58 179 185 187 255
0.73259181 -0.38814196 1.5700001 180 186 188 255
0.73318273 -0.38619694 1.562 179 186 185 255
0.73420453 -0.38450009 1.5550001 180 187 186 255
0.73471576 -0.38255686 1.5470001 179 186 185 255
0.73518592 -0.38061458 1.539 179 186 185 255
0.73609537 -0.3789205 1.5320001 179 186 185 255
0.73551953 -0.37648532 1.5220001 181 188 187 255
0.73586357 -0.37454566 1.5140001 180 187 186 255
0.73470014 -0.37186471 1.503 182 189 186 255
0.72718155 -0.43820915 1.7550001 171 178 174 255
0.7286526 -0.43622625 1.7470001 171 178 174 255
0.72910601 -0.40475783 1.6200001 181 188 187 255
0.72995126 -0.40278637 1.6120001 181 188 187 255
0.73075527 -0.40081587 1.6040001 180 187 186 255
0.73151791 -0.39884627 1.5960001 180 187 186 255
0.73223913 -0.39687753 1.5880001 180 187 186 255
0.73291916 -0.39490977 1.58 180 186 188 255
0.73309118 -0.39269289 1.5710001 181 187 189 255
0.73368597 -0.39072692 1.5630001 180 186 188 255
0.73282295 -0.38801181 1.552 180 186 188 255
0.73380196 -0.38629758 1.5450001 179 185 187 255
0.73331219 -0.38383415 1.5350001 181 188 187 255
0.73517269 -0.38262194 1.5300001 179 186 185 255
0.73410898 -0.37991014 1.5190001 180 187 186 255
0.73541808 -0.3784498 1.5130001 180 187 186 255
0.73376393 -0.37548941 1.501 179 186 183 255
0.72908521 -0.44124967 1.748 170 177 173 255
0.72857434 -0.42970833 1.702 175 182 179 255
0.73048359 -0.40994903 1.623 180 187 186 255
0.73088533 -0.407704 1.6140001 180 187 186 255
0.73124027 -0.40545985 1.605 180 187 186 255
0.73200679 -0.40346926 1.5970001 181 188 187 255
0.73227072 -0.40122694 1.5880001 182 189 188 255
0.73341566 -0.39949077 1.5810001 180 187 186 255
0.73499155 -0.39800835 1.575 179 186 185 255
0.73653734 -0.39652696 1.5690001 181 188 187 255
0.73521978 -0.39353001 1.557 180 187 186 255
0.73478889 -0.3910394 1.5470001 182 189 188 255
0.73382783 -0.38829675 1.536 181 188 187 255
0.73521179 -0.38681903 1.5300001 181 188 187 255
0.73414928 -0.38407803 1.5190001 181 188 187 255
0.7364316 -0.38310796 1.5150001 180 187 186 255
0.7362507 -0.38087445 1.506 183 190 187 255
0.73035288 -0.44678956 1.751 171 178 175 255
0.72859448 -0.43436015 1.702 174 181 178 255
0.72896183 -0.43182912 1.692 176 183 182 255
0.73045456 -0.4194423 1.6430001 180 187 186 255
0.7318514 -0.41768235 1.636 180 187 186 255
0.73096198 -0.41464683 1.6240001 180 186 188 255
0.7300089 -0.411612 1.6120001 183 189 191 255
0.72990388 -0.40908882 1.6020001 181 187 189 255
0.7302047 -0.40682173 1.5930001 182 189 191 255
0.73138088 -0.40506637 1.5860001 181 188 187 255
0.73298538 -0.40356743 1.58 180 188 187 255
0.7350263 -0.40232491 1.575 182 189 188 255
0.73657328 -0.40082797 1.5690001 179 186 185 255
0.73525679 -0.39779916 1.557 180 187 186 255
0.73482686 -0.39528209 1.5470001 181 188 187 255
0.7333892 -0.39225477 1.5350001 181 188 187 255
0.73429102 -0.39050597 1.5280001 180 187 186 255
0.73419052 -0.38824695 1.5190001 182 189 188 255
0.73550189 -0.3867557 1.5130001 183 190 189 255
0.73531651 -0.38449845 1.5040001 182 189 186 255
0.72775936 -0.4384968 1.7 173 180 177 255
0.72860593 -0.42545962 1.649 178 185 184 255
0.72959238 -0.42342246 1.641 179 186 185 255
0.73098493 -0.42164427 1.6340001 180 187 186 255
0.73144132 -0.41935092 1.6250001 178 184 186 255
0.730492 -0.41628417 1.613 181 187 189 255
0.73130196 -0.4142507 1.605 182 188 190 255
0.73069543 -0.41144377 1.5940001 182 188 190 255
0.73049206 -0.40889576 1.5840001 182 189 188 255
0.73116428 -0.40686497 1.5760001 181 188 187 255
0.73319525 -0.40560961 1.5710001 181 188 187 255
0.73661023 -0.40513 1.5690001 183 190 189 255
0.73671144 -0.40284392 1.5600001 181 188 187 255
0.73581588 -0.40004224 1.549 179 186 183 255
0.73534036 -0.39749959 1.539 181 188 187 255
0.73529321 -0.39521614 1.5300001 180 187 186 255
0.7361663 -0.39345023 1.5230001 181 188 187 255
0.73505926 -0.39065179 1.5120001 181 188 187 255
0.7358501 -0.3888877 1.5050001 180 187 186 255
0.73006499 -0.42817485 1.6420001 180 187 186 255
0.73101395 -0.42611766 1.6340001 180 187 186 255
0.73192149 -0.42406139 1.626 179 186 185 255
0.73142904 -0.42122361 1.6150001 180 187 186 255
0.73178983 -0.4189083 1.6060001 180 187 186 255
0.73027021 -0.41555047 1.5930001 180 187 186 255
0.73006517 -0.41297603 1.5830001 182 189 188 255
0.72887981 -0.40988061 1.5710001 182 189 188 255
0.7308982 -0.40861243 1.5660001 181 188 187 255
0.73383099 -0.40786719 1.5630001 181 188 187 255
0.73533356 -0.40634027 1.557 180 187 186 255
0.73490578 -0.40377039 1.5470001 181 188 185 255
0.7344259 -0.40120131 1.5370001 181 188 187 255
0.73581612 -0.39967725 1.531 179 186 185 255
0.73620981 -0.39763218 1.5230001 181 188 187 255
0.73461753 -0.3945435 1.511 182 189 188 255
0.72938681 -0.43761984 1.6610001 178 185 184 255
0.7313118 -0.43606675 1.6550001 178 185 184 255
0.73187244 -0.43372416 1.646 178 185 184 255
0.73238611 -0.43138257 1.6370001 178 185 184 255
0.73285288 -0.4290418 1.628 179 186 185 255
0.73281986 -0.42643845 1.618 181 188 187 255
0.73319012 -0.4240995 1.6090001 181 188 187 255
0.73122126 -0.42044348 1.595 179 186 185 255
0.73148406 -0.41810623 1.5860001 180 187 186 255
0.73030806 -0.41497898 1.5740001 179 185 187 255
0.73233598 -0.41369823 1.5690001 180 186 188 255
0.73433936 -0.41241851 1.5640001 181 188 187 255
0.7353735 -0.41061237 1.557 180 187 186 255
0.73494691 -0.40801612 1.5470001 180 187 186 255
0.73399019 -0.40515688 1.536 180 187 186 255
0.73537886 -0.40361744 1.5300001 181 188 187 255
0.73528743 -0.40128753 1.521 181 188 187 255
0.73514938 -0.39895853 1.5120001 181 188 187 255
0.73398668 -0.39610261 1.501 181 187 189 255
0.730241 -0.44823426 1.6840001 176 182 184 255
0.73051274 -0.44559905 1.674 176 184 183 255
0.73029286 -0.44269851 1.6630001 177 184 183 255
0.73178262 -0.44086382 1.6560001 178 185 184 255
0.73145759 -0.43796504 1.6450001 178 185 184 255
0.73331189 -0.43639845 1.6390001 180 187 186 255
0.73333514 -0.4337678 1.6290001 178 185 184 255
0.73285294 -0.43087167 1.618 179 186 185 255
0.73231292 -0.42797649 1.6070001 181 188 187 255
0.73171502 -0.42508203 1.5960001 179 186 185 255
0.73290408 -0.42325389 1.5890001 178 185 184 255
0.73220152 -0.42036122 1.5780001 180 186 188 255
0.73424172 -0.4190678 1.5730001 180 186 188 255
0.73484862 -0.41697618 1.5650001 179 185 187 255
0.73446995 -0.41435266 1.5550001 179 185 187 255
0.73356366 -0.41146338 1.544 177 184 183 255
0.73212194 -0.40830848 1.5320001 180 187 186 255
0.73350066 -0.40675345 1.526 181 188 187 255
0.73339927 -0.40439987 1.5170001 182 189 188 255
0.73470986 -0.4028469 1.511 181 188 187 255
0.73354548 -0.39996189 1.5000001 182 189 188 255
0.73070121 -0.45311153 1.6850001 175 182 181 255
0.73054028 -0.45018092 1.674 176 183 182 255
0.73076057 -0.4475202 1.664 176 183 182 255
0.73092842 -0.44486034 1.654 178 185 184 255
0.73237783 -0.44300836 1.6470001 176 182 184 255
0.732449 -0.44035032 1.6370001 178 184 186 255
0.73111725 -0.43688616 1.6240001 180 186 188 255
0.73107523 -0.43422985 1.6140001 180 187 186 255
0.73143667 -0.43184349 1.605 177 184 183 255
0.73175126 -0.42945805 1.5960001 176 183 182 255
0.73340273 -0.42788082 1.59 179 185 187 255
0.73316807 -0.42522818 1.58 179 185 187 255
0.7361486 -0.42446044 1.577 180 186 188 255
0.73535925 -0.42154053 1.5660001 180 186 188 255
0.73498428 -0.41889063 1.5560001 180 186 188 255
0.7326566 -0.41516459 1.5420001 179 186 185 255
0.73168808 -0.41224691 1.531 182 188 190 255
0.732104 -0.41013801 1.5230001 181 187 189 255
0.73247886 -0.40803 1.5150001 183 190 189 255
0.7328127 -0.40592295 1.5070001 181 188 187 255
0.72951913 -0.46875638 1.7260001 173 181 180 255
0.72873259 -0.4652499 1.7130001 174 182 181 255
0.73029506 -0.45745188 1.6840001 176 183 182 255
0.73013246 -0.45449215 1.6730001 176 183 182 255
0.73035109 -0.45180497 1.6630001 176 183 182 255
0.7300753 -0.44884694 1.6520001 178 185 184 255
0.73063087 -0.44643325 1.6430001 179 185 187 255
0.73065728 -0.43838239 1.613 181 187 189 255
0.73147279 -0.43624413 1.605 180 187 186 255
0.73133004 -0.43356323 1.595 178 185 184 255
0.73205745 -0.43142691 1.5870001 178 184 186 255
0.73320764 -0.42956334 1.58 181 187 189 255
0.7352559 -0.42824471 1.575 181 187 189 255
0.73587084 -0.4261114 1.567 181 187 189 255
0.73455501 -0.42289123 1.5550001 180 186 188 255
0.7322256 -0.41912785 1.5410001 182 188 190 255
0.73125547 -0.41618106 1.5300001 182 188 190 255
0.73166972 -0.4140512 1.5220001 183 189 191 255
0.73300999 -0.41246653 1.516 182 188 190 255
0.73237514 -0.40979442 1.506 181 188 187 255
0.7303887 -0.47402647 1.728 173 180 179 255
0.72918326 -0.47021109 1.7140001 175 181 183 255
0.72994244 -0.45608515 1.6620001 177 183 185 255
0.73054886 -0.45364687 1.6530001 178 184 186 255
0.73021889 -0.45066062 1.6420001 178 184 187 255
0.72848856 -0.44685176 1.628 180 186 189 255
0.72893488 -0.44441617 1.6190001 180 186 188 255
0.73114634 -0.44307956 1.6140001 182 188 190 255
0.73242158 -0.44119501 1.6070001 181 188 187 255
0.73090982 -0.43766406 1.5940001 180 187 186 255
0.73117429 -0.43523222 1.585 180 187 186 255
0.73232019 -0.4333505 1.5780001 180 187 186 255
0.73389721 -0.43174449 1.572 179 185 187 255
0.73403543 -0.42931557 1.5630001 180 186 188 255
0.7336545 -0.42661285 1.5530001 182 188 190 255
0.73274601 -0.42363626 1.5420001 184 190 192 255
0.73321372 -0.42148474 1.534 181 187 189 255
0.73315954 -0.41905934 1.5250001 180 186 188 255
0.73499304 -0.41773421 1.5200001 182 188 190 255
0.73339778 -0.41448617 1.508 182 188 190 255
0.73418492 -0.41261339 1.501 181 187 189 255
0.72878385 -0.47462443 1.7130001 174 180 182 255
0.72969753 -0.45762181 1.651 178 184 186 255
0.7293632 -0.45460638 1.6400001 179 185 187 255
0.73073035 -0.44722876 1.613 180 186 188 255
0.73245984 -0.44560337 1.6070001 181 187 189 255
0.7314077 -0.4423151 1.595 180 187 186 255
0.73121476 -0.43958229 1.585 180 187 186 255
0.73189777 -0.43740514 1.577 179 186 185 255
0.73253965 -0.435229 1.5690001 181 188 187 255
0.73314023 -0.43305373 1.5610001 181 187 189 255
