ply
format ascii 1.0
comment PCL generated
element vertex 1022
property float x
property float y
property float z
property uchar red
property uchar green
property uchar blue
property uchar alpha
element camera 0
property float view_px
property float view_py
property float view_pz
property float x_axisx
property float x_axisy
property float x_axisz
property float y_axisx
property float y_axisy
property float y_axisz
property float z_axisx
property float z_axisy
property float z_axisz
property float focal
property float scalex
property float scaley
property float centerx
property float centery
property int viewportx
property int viewporty
property float k1
property float k2
end_header
0.30076206 0.14296404 1.6620001 77 81 74 255
0.30602911 0.14329743 1.6660001 81 85 78 255
0.31150353 0.14371669 1.6710001 87 90 86 255
0.3168152 0.14404982 1.6750001 82 85 81 255
0.32176408 0.14421083 1.677 79 82 78 255
0.32613927 0.14411379 1.6760001 77 80 76 255
0.33070543 0.14410266 1.6760001 79 83 76 255
0.33487055 0.1439195 1.674 79 80 74 255
0.33942956 0.14390826 1.674 79 83 76 255
0.34378222 0.143811 1.6730001 81 85 78 255
0.34854496 0.14388561 1.674 81 84 80 255
0.35352322 0.1440461 1.6760001 84 87 83 255
0.3585116 0.14420652 1.6780001 83 86 82 255
0.36350995 0.14436685 1.6800001 84 87 84 255
0.36851835 0.14452712 1.682 81 84 81 255
0.37331501 0.1446014 1.6830001 82 85 81 255
0.37856534 0.14484747 1.6860001 78 81 77 255
0.38383117 0.14509347 1.6890001 79 82 78 255
0.38957244 0.1455112 1.6940001 83 87 80 255
0.39464197 0.14567114 1.6960001 82 86 79 255
0.39995703 0.14591695 1.6990001 85 88 84 255
0.40528753 0.14616269 1.702 83 86 82 255
0.41111529 0.14658011 1.7070001 82 85 81 255
0.41696942 0.14699747 1.7120001 80 83 79 255
0.42235732 0.14724302 1.715 78 81 77 255
0.42726287 0.14731687 1.7160001 79 83 76 255
0.4321731 0.14739069 1.7170001 82 86 79 255
0.4375968 0.14763618 1.72 82 86 79 255
0.44252181 0.14770998 1.7210001 79 83 76 255
0.44667208 0.14752632 1.7190001 79 83 76 255
0.4508107 0.14734273 1.7170001 77 82 78 255
0.4546726 0.14707337 1.7140001 78 83 79 255
0.4598574 0.14723308 1.7160001 78 83 79 255
0.4645111 0.14722125 1.7160001 79 83 76 255
0.46943757 0.14729521 1.7170001 82 86 79 255
0.4735404 0.14711186 1.715 77 81 74 255
0.47791076 0.14701439 1.7140001 76 80 73 255
0.48143047 0.14665966 1.71 76 80 73 255
0.4854964 0.14647658 1.7080001 74 80 73 255
0.48869011 0.14603631 1.7030001 76 81 77 255
0.49243551 0.14576767 1.7 77 82 78 255
0.49499473 0.1451562 1.6930001 78 83 79 255
0.49810567 0.14471637 1.6880001 81 86 83 255
0.50089133 0.14419094 1.682 81 86 83 255
0.50454563 0.14392284 1.6790001 87 92 89 255
0.50757682 0.14348343 1.674 88 93 90 255
0.51149839 0.14330131 1.6720001 85 90 87 255
0.51633453 0.1433764 1.6730001 88 91 88 255
0.52210993 0.14370866 1.677 84 87 83 255
0.5279066 0.14404097 1.6810001 78 79 73 255
0.53277451 0.1441163 1.682 67 68 62 255
0.53700864 0.14402039 1.6810001 69 70 64 255
0.54091507 0.14383896 1.6790001 62 66 59 255
0.54448551 0.14357199 1.6760001 56 60 53 255
0.54836714 0.14339083 1.674 44 49 45 255
0.55091679 0.14286725 1.6680001 85 90 86 255
0.55210191 0.14200129 1.6580001 74 79 75 255
0.55256134 0.14096427 1.646 89 94 91 255
0.5549863 0.14044139 1.6400001 95 100 97 255
0.55942547 0.14043246 1.6400001 85 88 85 255
0.56524003 0.1407662 1.6440001 80 83 79 255
0.56899709 0.14058635 1.6420001 65 70 66 255
0.57274342 0.14040665 1.6400001 60 65 61 255
0.57683104 0.14031279 1.6390001 77 82 78 255
0.58197743 0.1404759 1.641 79 84 80 255
0.58606285 0.14038239 1.6400001 71 76 72 255
0.59014297 0.14028907 1.6390001 69 74 71 255
0.59312981 0.13993917 1.6350001 90 93 90 255
0.59572977 0.13950391 1.6300001 84 89 86 255
0.59793484 0.13898331 1.6240001 74 79 76 255
0.60159147 0.13880529 1.6220001 91 95 95 255
0.60523766 0.13862747 1.6200001 85 90 87 255
0.60887361 0.13844988 1.618 85 88 85 255
0.61212021 0.13818696 1.6150001 91 94 91 255
0.61611456 0.13809539 1.6140001 108 109 105 255
0.61971974 0.13791853 1.6120001 10 11 5 255
0.624089 0.13791299 1.6120001 16 17 11 255
0.62767923 0.13773659 1.6100001 19 21 13 255
0.62811881 0.13687606 1.6 20 22 12 255
0.63008612 0.13635804 1.5940001 20 22 12 255
0.63321573 0.13609689 1.5910001 20 25 13 255
0.63632989 0.13583602 1.5880001 20 25 13 255
0.64104247 0.13591759 1.5890001 17 22 10 255
0.64251238 0.13531511 1.582 22 25 13 255
0.64190096 0.13428527 1.5700001 22 25 13 255
0.64492965 0.13402554 1.567 18 21 9 255
0.64835739 0.1338516 1.5650001 17 19 9 255
0.65135854 0.13359244 1.562 19 21 11 255
0.65350509 0.13316251 1.557 18 23 12 255
0.65604818 0.13281842 1.5530001 16 21 10 255
0.66112179 0.13298774 1.5550001 15 17 7 255
0.66577983 0.13307185 1.5560001 26 31 20 255
0.66872233 0.1328142 1.5530001 27 29 19 255
0.67078334 0.13238579 1.5480001 27 32 20 255
0.67238259 0.13187218 1.5420001 24 29 17 255
0.67746091 0.13204305 1.544 29 34 23 255
0.67901987 0.13153009 1.5380001 28 32 24 255
0.67832661 0.13058984 1.5270001 27 31 23 255
0.67712826 0.1295644 1.5150001 27 31 23 255
0.67766494 0.12888135 1.5070001 26 30 22 255
0.68766028 0.12999462 1.5200001 27 32 21 255
-0.77199602 0.14133556 1.7070001 222 223 219 255
-0.75744683 0.13951251 1.6850001 223 229 222 255
-0.74346668 0.13777266 1.664 204 210 203 255
-0.73226738 0.13652995 1.649 199 205 198 255
-0.72424126 0.13586718 1.641 219 225 217 255
-0.71801502 0.13553593 1.6370001 209 216 205 255
-0.71311986 0.13545337 1.636 211 216 204 255
-0.7082321 0.13537118 1.6350001 205 210 198 255
-0.70249027 0.13512367 1.6320001 196 199 185 255
-0.69719404 0.13495928 1.6300001 194 198 181 255
-0.69191033 0.13479519 1.628 179 183 166 255
-0.68832803 0.13496262 1.6300001 158 160 142 255
-0.68347758 0.13488193 1.6290001 150 152 134 255
-0.67821693 0.13471872 1.6270001 151 153 133 255
-0.67338258 0.13463859 1.626 152 155 133 255
-0.66896635 0.13464156 1.626 148 149 127 255
-0.66536862 0.1348104 1.628 148 149 127 255
-0.6613552 0.13489673 1.6290001 152 153 131 255
-0.65733737 0.1349833 1.6300001 151 152 130 255
-0.65291458 0.13498734 1.6300001 151 152 130 255
-0.64928842 0.13515726 1.6320001 149 150 128 255
-0.64565235 0.13532746 1.6340001 147 147 127 255
-0.64239872 0.13558072 1.6370001 147 147 127 255
-0.63873988 0.1357514 1.6390001 146 147 125 255
-0.63507098 0.13592236 1.641 145 146 122 255
-0.63177627 0.13617638 1.6440001 146 148 122 255
-0.6280843 0.13634779 1.646 148 150 122 255
-0.6247611 0.1366023 1.649 146 148 120 255
-0.6206699 0.13669136 1.6500001 147 150 119 255
-0.61732072 0.13694634 1.6530001 147 150 119 255
-0.61358511 0.13711868 1.6550001 148 151 120 255
-0.61094314 0.13753982 1.6600001 152 153 121 255
-0.60754383 0.13779548 1.6630001 153 154 122 255
-0.60412872 0.13805135 1.6660001 153 154 122 255
-0.59997785 0.13814169 1.6670001 152 155 124 255
-0.59617907 0.13831511 1.669 110 113 82 255
-0.59236985 0.13848875 1.6710001 80 83 52 255
-0.58819813 0.13857968 1.6720001 95 95 65 255
-0.58367211 0.13858791 1.6720001 112 113 81 255
-0.57983893 0.13876209 1.674 124 125 93 255
-0.57599515 0.13893645 1.6760001 124 125 93 255
-0.57214057 0.13911098 1.6780001 121 122 90 255
-0.56827521 0.13928568 1.6800001 124 124 94 255
-0.56372792 0.13929474 1.6800001 118 121 90 255
-0.55951351 0.13938685 1.6810001 119 121 93 255
-0.55496347 0.13939621 1.6810001 120 123 92 255
-0.55041331 0.13940567 1.6810001 123 126 95 255
-0.5461877 0.1394982 1.682 121 125 89 255
-0.54131258 0.13942499 1.6810001 129 131 103 255
-0.53676206 0.13943484 1.6810001 130 133 102 255
-0.53221124 0.13944481 1.6810001 125 129 101 255
-0.52797407 0.13953784 1.682 128 130 102 255
-0.52373129 0.13963099 1.6830001 135 137 109 255
-0.51917434 0.13964128 1.6830001 131 134 103 255
-0.51461703 0.13965169 1.6830001 132 134 106 255
-0.50975627 0.13957918 1.682 136 138 110 255
-0.50580174 0.13975574 1.6840001 142 144 116 255
-0.50153822 0.13984939 1.6850001 131 135 109 255
-0.49726892 0.13994315 1.6860001 138 142 116 255
-0.49270153 0.139954 1.6860001 132 136 108 255
-0.48813367 0.13996489 1.6860001 118 122 94 255
-0.48385206 0.14005889 1.687 121 125 99 255
-0.47871238 0.13990389 1.6850001 139 143 117 255
-0.47386429 0.13983195 1.6840001 149 156 134 255
-0.46902117 0.13976005 1.6830001 157 164 143 255
-0.46445876 0.13977122 1.6830001 164 173 154 255
-0.45934927 0.13961634 1.6810001 171 177 159 255
-0.45397955 0.13937841 1.6780001 170 177 156 255
-0.44916108 0.1393066 1.677 158 165 144 255
-0.44461256 0.1393179 1.677 126 133 112 255
-0.43980101 0.13924617 1.6760001 133 140 119 255
-0.43499407 0.1391744 1.6750001 139 146 125 255
-0.43019202 0.13910268 1.674 139 144 123 255
-0.42564896 0.13911407 1.674 126 131 110 255
-0.42085359 0.13904233 1.6730001 143 148 126 255
-0.41581413 0.13888749 1.6710001 140 143 119 255
-0.41078475 0.13873263 1.669 133 137 111 255
-0.40600893 0.13866086 1.6680001 124 130 104 255
-0.40123779 0.1385891 1.6670001 128 134 108 255
-0.39670929 0.13860044 1.6670001 130 136 111 255
-0.39265054 0.13877808 1.669 133 140 118 255
-0.38811499 0.1387894 1.669 163 170 149 255
-0.38311908 0.1386344 1.6670001 157 164 143 255
-0.3774519 0.13822983 1.6620001 181 188 167 255
-0.37203544 0.13790834 1.6580001 127 134 113 255
-0.36708331 0.13775316 1.6560001 138 145 123 255
-0.36257911 0.13776428 1.6560001 156 164 139 255
-0.35850653 0.13794176 1.6580001 148 154 128 255
-0.35442227 0.13811924 1.6600001 123 130 99 255
-0.35011548 0.13821347 1.6610001 117 122 91 255
-0.34559438 0.13822447 1.6610001 127 132 101 255
-0.34045637 0.13798575 1.6580001 128 133 102 255
-0.33492863 0.13758047 1.6530001 173 181 155 255
-0.32942727 0.13717507 1.6480001 149 157 132 255
-0.32454374 0.13701925 1.646 153 163 140 255
-0.32025367 0.13711311 1.6470001 143 153 130 255
-0.31595731 0.13720693 1.6480001 8 15 0 255
-0.3118436 0.13738395 1.6500001 22 26 8 255
-0.30697307 0.13722783 1.6480001 25 27 9 255
-0.30266321 0.13732144 1.649 31 29 11 255
-0.29780465 0.13716516 1.6470001 33 31 13 255
-0.29313418 0.13709204 1.646 32 30 12 255
-0.28811759 0.13685225 1.6430001 33 32 16 255
-0.28363442 0.13686222 1.6430001 34 33 19 255
-0.27881065 0.13670547 1.641 24 25 13 255
-0.2743313 0.13671526 1.641 82 84 76 255
-0.26985109 0.13672495 1.641 88 92 85 255
-0.26537001 0.13673452 1.641 88 94 87 255
-0.2605702 0.13657734 1.6390001 71 77 70 255
-0.25593677 0.13650338 1.6380001 76 82 75 255
-0.25100091 0.13626261 1.6350001 66 70 63 255
-0.24623141 0.13610503 1.6330001 80 84 77 255
-0.24162006 0.13603066 1.6320001 57 61 54 255
-0.23701344 0.13595618 1.631 89 92 88 255
-0.23212634 0.13571484 1.628 86 89 85 255
-0.22753455 0.13564008 1.6270001 74 77 73 255
-0.22308457 0.13564858 1.6270001 87 91 84 255
-0.21876821 0.13574031 1.628 79 83 76 255
-0.2140507 0.13558178 1.626 59 63 56 255
-0.20947231 0.1355065 1.6250001 62 66 59 255
-0.20489861 0.13543104 1.6240001 70 74 67 255
-0.20057657 0.13552226 1.6250001 62 66 59 255
-0.19600695 0.13544653 1.6240001 69 73 66 255
-0.19144209 0.13537067 1.623 86 90 83 255
-0.18676682 0.13521124 1.6210001 81 85 78 255
-0.18232676 0.13521849 1.6210001 72 76 69 255
-0.17755681 0.1349753 1.618 73 77 70 255
-0.17301665 0.13489881 1.6170001 78 82 75 255
-0.1685856 0.13490559 1.6170001 77 81 74 255
-0.16425541 0.13499565 1.618 72 76 69 255
-0.15982036 0.13500212 1.618 83 87 80 255
-0.15528868 0.13492502 1.6170001 65 69 62 255
-0.15085515 0.13493118 1.6170001 63 67 60 255
-0.14642109 0.13493718 1.6170001 62 63 57 255
-0.14207424 0.13502647 1.618 66 67 61 255
-0.1376363 0.13503216 1.618 63 64 58 255
-0.1331155 0.13495423 1.6170001 58 59 53 255
-0.12867926 0.13495958 1.6170001 52 53 47 255
-0.12416565 0.1348813 1.6160001 69 68 62 255
-0.11965706 0.13480285 1.6150001 65 64 58 255
-0.11515346 0.1347242 1.6140001 58 55 49 255
-0.11058631 0.13456193 1.6120001 63 58 51 255
-0.10570039 0.13398205 1.605 66 61 51 255
-0.10066316 0.13315155 1.595 78 68 59 255
-0.095620066 0.13223732 1.5840001 93 77 67 255
-0.090694606 0.13140637 1.5740001 89 71 56 255
-0.086043186 0.13090913 1.5680001 90 69 55 255
-0.081580758 0.13066217 1.5650001 93 69 53 255
-0.077233247 0.13058202 1.5640001 91 64 49 255
-0.0728909 0.13050167 1.5630001 90 61 46 255
-0.068641536 0.13058814 1.5640001 79 50 35 255
-0.064468667 0.13084143 1.567 77 48 33 255
-0.060317446 0.13117807 1.5710001 70 43 28 255
-0.056286588 0.13184853 1.5790001 63 39 23 255
-0.052211538 0.13251884 1.5870001 65 46 34 255
-0.048062157 0.13310549 1.5940001 63 48 35 255
-0.04370968 0.13319093 1.595 68 53 40 255
-0.039277554 0.13302568 1.5930001 74 59 46 255
-0.034812447 0.13269323 1.5890001 93 78 65 255
-0.030311696 0.13211006 1.582 91 76 61 255
-0.02584929 0.13152669 1.575 93 77 62 255
-0.021438912 0.13102664 1.5690001 76 58 42 255
-0.017094169 0.13077693 1.5660001 82 62 46 255
-0.012790349 0.13077757 1.5660001 88 64 48 255
-0.0084918933 0.13086152 1.567 87 63 47 255
-0.0041932478 0.13111234 1.5700001 83 59 41 255
0.00012237075 0.13186403 1.5790001 80 56 40 255
0.0045044143 0.13311659 1.5940001 80 58 42 255
0.0089633148 0.13428545 1.608 83 65 49 255
0.013440874 0.13486956 1.6150001 79 63 48 255
0.017912572 0.13511942 1.618 98 86 77 255
0.022373043 0.13520208 1.6190001 77 69 62 255
0.026789216 0.13503401 1.6170001 76 71 65 255
0.031213596 0.13494927 1.6160001 72 73 67 255
0.035610292 0.13478084 1.6140001 76 77 73 255
0.040095087 0.13494624 1.6160001 78 81 78 255
0.044535592 0.13494444 1.6160001 77 80 76 255
0.04900622 0.13502598 1.6170001 81 85 78 255
0.05338297 0.13485681 1.6150001 77 81 74 255
0.057820112 0.13485445 1.6150001 74 78 71 255
0.062218465 0.13476841 1.6140001 74 78 71 255
0.066652358 0.13476568 1.6140001 75 79 72 255
0.071085989 0.13476279 1.6140001 76 79 75 255
0.075519323 0.13475971 1.6140001 77 80 76 255
0.080100946 0.13500692 1.6170001 77 80 76 255
0.084646448 0.13517044 1.6190001 80 83 79 255
0.089202583 0.13533379 1.6210001 75 78 74 255
0.093653791 0.13532998 1.6210001 76 79 75 255
0.09816514 0.13540946 1.6220001 77 80 76 255
0.10274484 0.13557224 1.6240001 77 81 74 255
0.10740113 0.13581832 1.6270001 78 82 75 255
0.11186719 0.13581379 1.6270001 76 80 73 255
0.1161898 0.13564213 1.6250001 78 81 77 255
0.12050095 0.1354703 1.623 78 83 79 255
0.1247237 0.13521488 1.6200001 82 87 84 255
0.12916864 0.13520965 1.6200001 84 89 85 255
0.13336568 0.13495392 1.6170001 83 88 84 255
0.1378866 0.13503185 1.618 84 89 86 255
0.14214858 0.13485926 1.6160001 85 90 87 255
0.14667116 0.13493684 1.6170001 84 87 83 255
0.15110523 0.13493083 1.6170001 88 91 88 255
0.15573108 0.13509154 1.6190001 82 85 81 255
0.16026838 0.13516866 1.6200001 83 86 82 255
0.16481054 0.13524559 1.6210001 77 82 78 255
0.16925316 0.13523893 1.6210001 77 82 78 255
0.17358801 0.1351487 1.6200001 80 85 81 255
0.17791671 0.13505834 1.6190001 81 84 81 255
0.18223926 0.13496782 1.618 82 85 82 255
0.18678644 0.13504399 1.6190001 85 88 85 255
0.19110218 0.1349532 1.618 86 89 86 255
0.19541179 0.13486229 1.6170001 88 90 90 255
0.19983877 0.13485463 1.6170001 88 91 88 255
0.20477036 0.13518041 1.6210001 87 90 86 255
0.20998119 0.13567279 1.6270001 81 84 80 255
0.21548776 0.13633177 1.6350001 78 83 79 255
0.22117192 0.13707389 1.6440001 79 85 78 255
0.22621818 0.13739893 1.6480001 76 82 75 255
0.23016554 0.13705686 1.6440001 66 72 65 255
0.23323381 0.13621454 1.6340001 69 73 66 255
0.23711945 0.13587233 1.6300001 74 77 73 255
0.24113064 0.1356134 1.6270001 75 78 74 255
0.24603027 0.13585448 1.6300001 82 85 81 255
0.25140649 0.13634542 1.636 81 85 78 255
0.25728393 0.13708618 1.6450001 81 85 78 255
0.26352802 0.13799343 1.6560001 78 82 75 255
0.26869825 0.13831712 1.6600001 80 84 77 255
0.27323109 0.13830744 1.6600001 57 58 52 255
0.27759579 0.13821432 1.659 40 41 35 255
0.28246441 0.13837105 1.6610001 69 70 64 255
0.28768861 0.13869426 1.6650001 43 44 38 255
0.29223171 0.13868414 1.6650001 47 48 42 255
0.29748696 0.13900709 1.669 71 72 66 255
0.30312511 0.13949645 1.6750001 82 86 79 255
0.30897883 0.14006895 1.682 83 87 80 255
0.31412414 0.1403082 1.6850001 83 86 82 255
0.31890666 0.14038081 1.6860001 80 83 79 255
0.32330999 0.14028682 1.6850001 81 85 78 255
0.32790157 0.140276 1.6850001 79 83 76 255
0.33249232 0.14026515 1.6850001 80 84 77 255
0.33708215 0.1402542 1.6850001 83 84 78 255
0.34146839 0.14015999 1.6840001 82 86 79 255
0.34625933 0.14023216 1.6850001 80 84 77 255
0.35126299 0.14038749 1.687 84 87 83 255
0.3566986 0.14070916 1.6910001 83 86 82 255
0.3613005 0.14069793 1.6910001 82 85 82 255
0.36698347 0.14110263 1.6960001 81 84 81 255
0.37225458 0.14134085 1.6990001 82 85 82 255
0.37798476 0.14174534 1.7040001 81 84 80 255
0.38374135 0.14214976 1.7090001 82 85 81 255
0.38906974 0.14238772 1.7120001 88 91 87 255
0.39395365 0.14245929 1.7130001 85 88 84 255
0.39860952 0.14244768 1.7130001 83 86 82 255
0.40373531 0.14260232 1.715 79 82 79 255
0.40887123 0.14275695 1.7170001 78 81 78 255
0.41425809 0.14299467 1.72 74 77 74 255
0.41990399 0.14331549 1.7240001 80 83 80 255
0.42483199 0.14338686 1.725 81 84 81 255
0.43026266 0.14362445 1.728 82 85 81 255
0.4354572 0.14377892 1.7300001 81 84 80 255
0.44117057 0.14409956 1.7340001 80 83 79 255
0.44561931 0.14400469 1.733 82 85 81 255
0.45006192 0.14390984 1.7320001 77 80 76 255
0.45397329 0.14364888 1.7290001 75 78 74 255
0.45839819 0.14355411 1.728 77 80 76 255
0.46281701 0.14345939 1.7270001 72 75 71 255
0.46750048 0.1434478 1.7270001 74 77 73 255
0.47136313 0.14318708 1.7240001 74 78 71 255
0.47520876 0.14292644 1.7210001 72 76 69 255
0.47847995 0.14249979 1.7160001 77 81 74 255
0.482005 0.1421563 1.7120001 77 81 74 255
0.48579204 0.14189595 1.7090001 76 82 75 255
0.48956227 0.1416357 1.7060001 73 78 74 255
0.49331573 0.14137556 1.7030001 77 82 78 255
0.49646774 0.14094949 1.6980001 79 84 80 255
0.49988729 0.14060657 1.6940001 81 86 83 255
0.502689 0.14009778 1.6880001 81 86 83 255
0.50635946 0.13983813 1.6850001 87 92 89 255
0.50970995 0.1394956 1.6810001 87 92 89 255
0.51334441 0.13923621 1.6780001 88 93 90 255
0.51819682 0.13930883 1.6790001 87 90 87 255
0.52367693 0.13954745 1.682 86 89 86 255
0.53011525 0.14003503 1.6880001 82 83 79 255
0.53468525 0.14002492 1.6880001 73 74 68 255
0.53957438 0.14009786 1.6890001 70 74 67 255
0.54285794 0.13975622 1.6850001 62 66 59 255
0.54611963 0.13941471 1.6810001 54 60 53 255
0.54968715 0.13915633 1.6780001 47 53 46 255
0.55389881 0.13906395 1.677 81 87 80 255
0.55743909 0.1388059 1.674 66 71 67 255
0.55827743 0.13788471 1.6630001 70 75 72 255
0.55871767 0.13688084 1.651 84 89 86 255
0.56250423 0.13670631 1.649 83 86 83 255
0.56696773 0.13669772 1.649 78 81 78 255
0.57108468 0.13660641 1.6480001 67 72 68 255
0.57449788 0.13634948 1.6450001 63 68 64 255
0.58000672 0.13659005 1.6480001 78 81 77 255
0.58553189 0.13683075 1.651 80 85 81 255
0.5900014 0.13682297 1.651 67 72 68 255
0.59303111 0.13648391 1.6470001 69 72 69 255
0.59603935 0.13614507 1.6430001 92 95 92 255
0.59792978 0.13555786 1.636 89 93 93 255
0.60051912 0.13513663 1.631 79 83 83 255
0.60345268 0.13479848 1.6270001 87 91 91 255
0.60711223 0.13462625 1.6250001 83 88 85 255
0.61000878 0.13428855 1.6210001 84 87 84 255
0.61402136 0.13419963 1.6200001 86 89 86 255
0.61764729 0.13402806 1.618 106 107 101 255
0.62164754 0.13393958 1.6170001 9 10 4 255
0.62564296 0.13385133 1.6160001 19 21 13 255
0.62963367 0.13376331 1.6150001 20 22 12 255
0.63008648 0.1329301 1.605 18 21 9 255
0.63167179 0.13234568 1.598 19 22 10 255
0.63441408 0.13201 1.5940001 21 24 12 255
0.63753623 0.13175736 1.5910001 20 23 11 255
0.64225656 0.13183625 1.5920001 21 26 14 255
0.6437344 0.13125291 1.585 21 26 14 255
0.64149535 0.12992458 1.5690001 18 23 11 255
0.64452112 0.12967306 1.5660001 16 21 9 255
0.64794588 0.12950464 1.5640001 20 22 12 255
0.65136087 0.12933646 1.562 19 21 11 255
0.6543467 0.12908578 1.559 19 24 13 255
0.65689492 0.12875257 1.5550001 12 17 6 255
0.66282403 0.12908205 1.559 16 21 10 255
0.66834843 0.12932901 1.562 23 28 17 255
0.67044562 0.12891388 1.557 26 31 20 255
0.67121726 0.12825069 1.549 28 33 22 255
0.67151082 0.127505 1.5400001 26 31 19 255
0.67789966 0.12791875 1.5450001 29 34 23 255
0.67901957 0.12733927 1.5380001 26 30 22 255
0.67965865 0.1266773 1.5300001 27 31 23 255
0.67578644 0.1251877 1.5120001 29 33 25 255
0.67811328 0.12485754 1.508 26 30 22 255
-0.77923036 0.13796507 1.723 216 219 215 255
-0.76598656 0.13644229 1.7040001 220 224 217 255
-0.75240171 0.13483982 1.6840001 222 228 221 255
-0.73937201 0.1333178 1.6650001 220 226 219 255
-0.72821313 0.13211639 1.6500001 173 179 171 255
-0.72152406 0.13171601 1.6450001 202 209 198 255
-0.71617168 0.13155618 1.6430001 216 221 209 255
-0.71126503 0.13147675 1.6420001 204 209 197 255
-0.70464361 0.1310773 1.6370001 204 209 195 255
-0.69847864 0.13075824 1.6330001 183 188 174 255
-0.6936121 0.1306797 1.6320001 185 189 172 255
-0.69001913 0.13084164 1.6340001 200 204 186 255
-0.68515807 0.13076368 1.6330001 196 198 180 255
-0.68030375 0.130686 1.6320001 186 189 167 255
-0.67545605 0.13060857 1.631 178 181 157 255
-0.67102653 0.13061149 1.631 164 167 143 255
-0.66741556 0.13077487 1.6330001 160 163 139 255
-0.66338879 0.13085841 1.6340001 159 162 140 255
-0.65935767 0.1309422 1.6350001 153 154 132 255
-0.65532207 0.13102627 1.636 155 156 134 255
-0.65167993 0.13119067 1.6380001 157 158 134 255
-0.64802778 0.13135532 1.6400001 153 154 130 255
-0.64475816 0.13160034 1.6430001 151 154 130 255
-0.64030385 0.13160528 1.6430001 154 157 133 255
-0.63701135 0.13185076 1.646 151 153 125 255
-0.63331902 0.13201639 1.6480001 150 152 124 255
-0.6296165 0.13218226 1.6500001 152 155 124 255
-0.62590384 0.13234833 1.6520001 153 156 125 255
-0.62180471 0.13243452 1.6530001 154 155 123 255
-0.61882097 0.13276128 1.6570001 142 145 113 255
-0.61507475 0.13292804 1.659 126 130 95 255
-0.61205411 0.13325526 1.6630001 97 98 64 255
-0.60901231 0.13358271 1.6670001 87 89 53 255
-0.60594928 0.13391037 1.6710001 82 84 48 255
-0.601785 0.13399784 1.6720001 78 79 45 255
-0.59725839 0.13400532 1.6720001 99 100 66 255
-0.59308666 0.13409315 1.6730001 123 126 95 255
-0.5885579 0.13410099 1.6730001 132 132 102 255
-0.58402944 0.13410902 1.6730001 129 132 101 255
-0.57950097 0.13411719 1.6730001 129 132 101 255
-0.57600367 0.13436602 1.6760001 129 132 101 255
-0.57180834 0.1344547 1.677 129 129 99 255
-0.56828403 0.13470387 1.6800001 125 125 95 255
-0.56373698 0.1347127 1.6800001 125 125 95 255
-0.55952263 0.13480182 1.6810001 123 125 97 255
-0.5546425 0.13473071 1.6800001 125 128 97 255
-0.55009532 0.13473992 1.6800001 127 130 99 255
-0.54554784 0.13474925 1.6800001 129 134 103 255
-0.54132223 0.13483892 1.6810001 129 134 103 255
-0.53677183 0.13484851 1.6810001 133 136 105 255
-0.53253776 0.1349384 1.682 129 133 105 255
-0.5276702 0.13486797 1.6810001 133 135 107 255
-0.52343017 0.13495809 1.682 137 139 111 255
-0.51887602 0.13496809 1.682 135 138 107 255
-0.51432151 0.13497819 1.682 133 135 107 255
-0.51006973 0.13506863 1.6830001 124 126 98 255
-0.50581223 0.13515916 1.6840001 126 130 102 255
-0.50125116 0.13516952 1.6840001 139 143 117 255
-0.49668968 0.13517997 1.6840001 135 139 113 255
-0.49212784 0.1351905 1.6840001 138 142 114 255
-0.48785493 0.13528135 1.6850001 134 138 110 255
-0.48328936 0.13529201 1.6850001 130 134 108 255
-0.47843918 0.13522242 1.6840001 139 143 117 255
-0.47359386 0.13515288 1.6830001 148 153 132 255
-0.4687534 0.13508336 1.682 149 155 137 255
-0.46446985 0.13517456 1.6830001 164 173 154 255
-0.45990688 0.13518545 1.6830001 170 176 158 255
-0.45426121 0.13487509 1.6790001 167 176 157 255
-0.4491722 0.13472536 1.677 172 178 160 255
-0.44382828 0.13449529 1.674 163 169 151 255
-0.43876246 0.13434558 1.6720001 132 139 118 255
-0.43396649 0.13427621 1.6710001 142 149 128 255
-0.42917529 0.13420686 1.6700001 150 155 133 255
-0.42438877 0.1341375 1.669 144 149 127 255
-0.41985852 0.13414851 1.669 141 145 119 255
-0.41507876 0.13407917 1.6680001 137 141 115 255
-0.41079593 0.13417059 1.669 137 141 113 255
-0.40577671 0.13402084 1.6670001 134 140 114 255
-0.40124896 0.13403186 1.6670001 130 136 110 255
-0.39672047 0.13404287 1.6670001 131 137 112 255
-0.39266172 0.1342147 1.669 142 149 127 255
-0.38789365 0.13414527 1.6680001 170 177 156 255
-0.38290042 0.13399541 1.6660001 166 173 152 255
-0.37723586 0.13360417 1.6610001 183 190 169 255
-0.37182209 0.13329329 1.6570001 129 136 115 255
-0.36687261 0.13314323 1.6550001 132 139 117 255
-0.36237112 0.13315402 1.6550001 154 162 137 255
-0.35830122 0.13332568 1.6570001 167 173 147 255
-0.35421968 0.13349736 1.659 119 126 95 255
-0.34991553 0.13358852 1.6600001 117 124 93 255
-0.34560519 0.13367969 1.6610001 122 127 96 255
-0.3404671 0.13344884 1.6580001 124 129 98 255
-0.33514187 0.13313739 1.654 178 184 158 255
-0.32943779 0.13266486 1.6480001 152 158 133 255
-0.32455423 0.13251422 1.646 154 164 141 255
-0.3202641 0.13260503 1.6470001 140 147 126 255
-0.31577593 0.13261527 1.6470001 9 13 0 255
-0.3112869 0.13262543 1.6470001 25 29 11 255
-0.30661073 0.13255499 1.646 28 30 12 255
-0.30248985 0.13272612 1.6480001 33 31 13 255
-0.29763386 0.13257498 1.646 35 32 16 255
-0.29278794 0.13242374 1.6440001 38 35 19 255
-0.28760135 0.1321113 1.6400001 40 39 23 255
-0.28312632 0.13212095 1.6400001 39 40 28 255
-0.27882034 0.13221109 1.641 33 34 22 255
-0.27434087 0.13222058 1.641 72 74 66 255
-0.26986057 0.13222995 1.641 89 93 86 255
-0.26489428 0.13199751 1.6380001 90 96 89 255
-0.26010251 0.1318455 1.636 79 85 78 255
-0.25516465 0.13161279 1.6330001 80 85 81 255
-0.25054935 0.13154112 1.6320001 71 74 70 255
-0.24578792 0.13138875 1.6300001 75 79 72 255
-0.24148083 0.13147807 1.631 56 59 55 255
-0.23687682 0.13140605 1.6300001 100 103 99 255
-0.23199232 0.13117267 1.6270001 78 81 77 255
-0.22726324 0.13101977 1.6250001 72 75 71 255
-0.22268151 0.13094734 1.6240001 77 81 74 255
-0.21837325 0.13103607 1.6250001 93 97 90 255
-0.21392708 0.13104405 1.6250001 62 66 59 255
-0.20948023 0.1310519 1.6250001 63 67 60 255
-0.20478022 0.13089831 1.623 65 69 62 255
-0.20021389 0.13082522 1.6220001 82 86 79 255
-0.19577305 0.13083267 1.6220001 73 77 70 255
-0.19144943 0.13092063 1.623 65 71 64 255
-0.18677402 0.13076647 1.6210001 89 95 88 255
-0.18210885 0.13061213 1.6190001 74 78 71 255
-0.17734423 0.13037698 1.6160001 74 78 71 255
-0.1730234 0.13046439 1.6170001 83 87 80 255
-0.16880073 0.13063233 1.6190001 81 85 78 255
-0.16436338 0.13063876 1.6190001 78 82 75 255
-0.1597279 0.13048367 1.6170001 81 85 78 255
-0.15510274 0.1303284 1.6150001 68 72 65 255
-0.15067457 0.13033436 1.6150001 69 73 66 255
-0.14624582 0.13034019 1.6150001 70 71 65 255
-0.14199212 0.13050726 1.6170001 68 69 63 255
-0.13755675 0.13051277 1.6170001 69 70 64 255
-0.13312085 0.13051812 1.6170001 65 66 60 255
-0.12860486 0.1304426 1.6160001 52 53 47 255
-0.12409383 0.13036689 1.6150001 72 73 67 255
-0.11943962 0.13012958 1.6120001 68 69 63 255
-0.11494409 0.13005352 1.6110001 60 61 55 255
-0.1105222 0.13005805 1.6110001 60 59 53 255
-0.10603401 0.12998167 1.6100001 67 62 55 255
-0.10142466 0.12974364 1.6070001 64 59 52 255
-0.096589886 0.12918246 1.6 74 64 55 255
-0.091850795 0.12870184 1.5940001 80 68 58 255
-0.087199144 0.12830175 1.5890001 89 74 61 255
-0.082470335 0.12773995 1.582 84 68 53 255
-0.077829048 0.12725875 1.5760001 90 70 54 255
-0.073220372 0.12677732 1.5700001 94 70 54 255
-0.068776041 0.12653796 1.567 95 66 51 255
-0.064430207 0.12645994 1.5660001 83 53 38 255
-0.06016637 0.12654324 1.567 87 58 43 255
-0.056039382 0.12694938 1.572 82 53 39 255
-0.052049205 0.12775919 1.582 69 44 32 255
-0.048094306 0.12881111 1.595 62 41 31 255
-0.04395815 0.12953983 1.6040001 70 52 44 255
-0.039649054 0.12986459 1.608 58 55 48 255
-0.035208274 0.12978537 1.6070001 54 49 42 255
-0.030772831 0.12970598 1.6060001 62 54 45 255
-0.026309932 0.12946485 1.603 62 55 44 255
-0.021836083 0.12906204 1.598 72 61 48 255
-0.01737871 0.12857825 1.5920001 80 67 54 255
-0.01296241 0.12817505 1.5870001 85 69 54 255
-0.0085627018 0.12761013 1.58 76 58 43 255
-0.0042094495 0.12728734 1.5760001 78 56 40 255
0.0001225309 0.12769124 1.5810001 81 59 43 255
0.0045159068 0.12906417 1.598 82 60 44 255
0.0089971377 0.13035615 1.6140001 91 75 60 255
0.013458083 0.13059799 1.6170001 98 83 70 255
0.017913321 0.13067812 1.618 71 65 58 255
0.022360157 0.13067727 1.618 72 67 61 255
0.026773768 0.13051473 1.6160001 74 73 67 255
0.031176271 0.13035202 1.6140001 75 78 74 255
0.035567652 0.13018912 1.6120001 75 78 74 255
0.040047139 0.13034908 1.6140001 77 80 76 255
0.044509891 0.13042811 1.6150001 75 79 72 255
0.049008261 0.1305877 1.6170001 74 78 71 255
0.053418249 0.13050485 1.6160001 74 78 71 255
0.057894126 0.13058332 1.6170001 73 77 70 255
0.062259603 0.13041936 1.6150001 78 82 75 255
0.066696428 0.13041672 1.6150001 80 84 77 255
0.07108894 0.13033314 1.6140001 80 84 77 255
0.075522445 0.13033015 1.6140001 79 82 78 255
0.080005176 0.13040774 1.6150001 80 83 79 255
0.084493078 0.13048513 1.6160001 79 82 78 255
0.088986136 0.13056237 1.6170001 82 85 81 255
0.093542084 0.13072015 1.6190001 79 82 78 255
0.098108649 0.13087776 1.6210001 76 79 75 255
0.10268578 0.13103518 1.623 78 81 77 255
0.1072735 0.13119243 1.6250001 77 81 74 255
0.11173423 0.13118804 1.6250001 78 82 75 255
0.11612303 0.13110274 1.6240001 79 83 76 255
0.12050585 0.13101728 1.623 79 82 78 255
0.12480573 0.13085094 1.6210001 81 84 80 255
0.12909412 0.13068445 1.6190001 88 91 88 255
0.1334535 0.13059853 1.618 89 92 89 255
0.13780692 0.13051246 1.6170001 88 91 88 255
0.14224222 0.13050693 1.6170001 88 91 88 255
0.14667702 0.13050127 1.6170001 85 88 84 255
0.15129814 0.13065684 1.6190001 86 89 85 255
0.15583344 0.13073154 1.6200001 85 88 84 255
0.16027468 0.1307254 1.6200001 83 86 82 255
0.16481701 0.13079979 1.6210001 85 89 82 255
0.16936421 0.13087402 1.6220001 78 83 79 255
0.1738091 0.13086742 1.6220001 77 83 76 255
0.1781434 0.13077998 1.6210001 80 85 81 255
0.18235898 0.13061176 1.6190001 85 88 85 255
0.18679366 0.13060473 1.6190001 84 87 84 255
0.19099142 0.13043624 1.6170001 85 88 85 255
0.19529839 0.13034828 1.6160001 88 90 90 255
0.19972277 0.13034087 1.6160001 89 92 89 255
0.20452544 0.13057527 1.6190001 88 91 88 255
0.20960194 0.13097082 1.6240001 85 88 84 255
0.21510045 0.1316081 1.6320001 80 85 81 255
0.22064203 0.13224518 1.6400001 82 88 81 255
0.22581479 0.13264018 1.6450001 77 83 76 255
0.22989403 0.13238996 1.6420001 67 73 66 255
0.23324238 0.13173655 1.6340001 70 74 67 255
0.23698267 0.13132495 1.6290001 75 78 74 255
0.24128762 0.13123572 1.628 82 86 79 255
0.24634105 0.13154946 1.6320001 82 86 79 255
0.25187656 0.13210483 1.6390001 82 86 79 255
0.25760594 0.13274062 1.6470001 81 85 78 255
0.26401478 0.13369855 1.659 81 85 78 255
0.26935524 0.13409218 1.664 82 83 77 255
0.27439293 0.13432449 1.6670001 71 72 66 255
0.27894416 0.13431494 1.6670001 57 58 52 255
0.28400475 0.134547 1.6700001 64 65 59 255
0.28925365 0.13485949 1.674 51 50 44 255
0.29417244 0.13501073 1.6760001 60 61 55 255
0.29999256 0.13556461 1.6830001 75 76 70 255
0.30657396 0.13644052 1.6940001 81 82 76 255
0.31247956 0.13699402 1.7010001 85 86 82 255
0.31749034 0.13714471 1.7030001 81 85 78 255
0.32175452 0.13697323 1.7010001 79 82 78 255
0.32639068 0.13696273 1.7010001 80 84 77 255
0.33083135 0.13687161 1.7 81 85 78 255
0.33585769 0.13702199 1.702 81 85 78 255
0.34069395 0.13709179 1.7030001 83 87 80 255
0.34533203 0.137081 1.7030001 85 89 82 255
0.34935275 0.13682871 1.7 83 86 82 255
0.3537727 0.13673736 1.6990001 82 85 82 255
0.35839725 0.13672642 1.6990001 81 84 81 255
0.36302096 0.13671549 1.6990001 84 87 84 255
0.36807659 0.13686541 1.7010001 80 83 80 255
0.37423775 0.13741753 1.7080001 79 82 79 255
0.45503506 0.1392463 1.733 80 83 79 255
0.45920554 0.13907424 1.7310001 78 81 77 255
0.46309644 0.1388219 1.728 76 79 75 255
0.46778262 0.13881063 1.728 78 82 75 255
0.47164786 0.13855843 1.725 75 79 72 255
0.47549617 0.13830632 1.7220001 76 80 73 255
0.47877002 0.13789365 1.7170001 77 81 74 255
0.4825792 0.13764171 1.7140001 77 81 74 255
0.48694006 0.13755046 1.7130001 73 78 74 255
0.49072114 0.13729869 1.71 77 80 76 255
0.49506468 0.13720761 1.7090001 78 81 78 255
0.49823284 0.13679546 1.7040001 84 87 84 255
0.50225872 0.13662428 1.702 83 86 83 255
0.50508207 0.13613214 1.6960001 88 91 88 255
0.50907457 0.13596119 1.6940001 87 91 91 255
0.51184291 0.13546932 1.6880001 85 89 89 255
0.51580209 0.13529861 1.6860001 86 91 88 255
0.52005881 0.13520826 1.6850001 84 86 86 255
0.52617782 0.13559943 1.6900001 84 87 84 255
0.5320096 0.13591041 1.6940001 75 78 74 255
0.53722924 0.13606098 1.6960001 69 72 68 255
0.54118162 0.1358908 1.6940001 70 74 67 255
0.54447848 0.13556029 1.6900001 66 70 63 255
0.54742873 0.13514976 1.6850001 63 69 62 255
0.5513345 0.13498001 1.6830001 57 63 56 255
0.55622023 0.135051 1.6840001 73 78 74 255
0.56310928 0.13560325 1.6910001 81 86 82 255
0.56667912 0.13535367 1.6880001 152 157 154 255
0.56549478 0.13398178 1.6710001 187 191 191 255
0.56592399 0.13301104 1.659 71 73 73 255
0.56903905 0.13268197 1.6550001 77 79 79 255
0.57247907 0.13243325 1.6520001 73 76 73 255
0.57695067 0.13242519 1.6520001 80 83 80 255
0.58318216 0.13281806 1.6570001 88 91 87 255
0.58944088 0.13321105 1.6620001 72 77 73 255
0.59429747 0.13328359 1.6630001 67 72 68 255
0.59771937 0.1330357 1.6600001 69 74 71 255
0.60076267 0.13270791 1.6560001 87 92 89 255
0.60305363 0.13222004 1.6500001 89 93 93 255
0.60457599 0.13157216 1.6420001 89 93 93 255
0.60679734 0.13108478 1.636 87 91 91 255
0.60936022 0.13067776 1.631 86 90 90 255
0.61264914 0.13043123 1.628 88 92 92 255
0.61592245 0.13018492 1.6250001 93 96 93 255
0.61994344 0.13009906 1.6240001 108 109 103 255
0.62319076 0.12985317 1.6210001 9 10 4 255
0.62680972 0.12968767 1.6190001 20 22 12 255
0.62963873 0.12936218 1.6150001 19 22 10 255
0.63166165 0.12887673 1.6090001 20 23 11 255
0.63365281 0.12839156 1.603 20 23 11 255
0.63680625 0.12814693 1.6 18 23 11 255
0.63914305 0.12774237 1.595 18 23 11 255
0.64306718 0.12765843 1.5940001 21 26 14 255
0.64373785 0.12693405 1.585 21 26 14 255
0.64313406 0.12596972 1.5730001 20 25 13 255
0.64534718 0.12556626 1.5680001 16 21 9 255
0.64836287 0.12532322 1.5650001 19 21 11 255
0.65178037 0.12516053 1.5630001 22 24 14 255
0.65476853 0.12491804 1.5600001 18 23 12 255
0.65774167 0.12467581 1.557 11 16 5 255
0.66410106 0.12507448 1.562 21 26 15 255
0.66920549 0.12523317 1.5640001 26 31 20 255
0.67173845 0.12491173 1.5600001 26 31 19 255
0.67251796 0.12427029 1.552 25 30 18 255
0.67456359 0.12386936 1.5470001 28 33 21 255
0.67965478 0.12402922 1.549 29 34 22 255
0.67946082 0.12322856 1.539 26 31 20 255
0.67921394 0.12242819 1.529 28 33 22 255
0.67846733 0.12154805 1.5180001 28 32 24 255
-0.90276289 0.13489185 1.7420001 20 21 9 255
-0.78420359 0.13412067 1.7340001 216 219 215 255
-0.77182913 0.13280447 1.7170001 223 227 220 255
-0.75954956 0.13148862 1.7 220 226 219 255
-0.74647653 0.13001843 1.6810001 218 224 217 255
-0.73306775 0.12847124 1.6610001 221 227 220 255
-0.72503322 0.12785251 1.6530001 203 207 199 255
-0.71835154 0.12746614 1.6480001 158 163 152 255
-0.71299839 0.12731211 1.646 153 158 146 255
-0.70593601 0.12684898 1.6400001 193 199 182 255
-0.69976324 0.12654084 1.636 196 202 185 255
-0.69446373 0.12638766 1.6340001 201 205 187 255
-0.69086564 0.12654416 1.636 194 199 178 255
-0.68641901 0.12654626 1.636 188 191 169 255
-0.68197364 0.12654862 1.636 169 172 148 255
-0.67670125 0.12639655 1.6340001 164 167 143 255
-0.67267531 0.12647678 1.6350001 167 171 145 255
-0.66905367 0.12663466 1.6370001 163 167 141 255
-0.66501629 0.12671541 1.6380001 167 169 143 255
-0.66016799 0.12664171 1.6370001 170 172 146 255
-0.65692842 0.12687768 1.6400001 167 169 143 255
-0.65327567 0.12703654 1.6420001 161 163 135 255
-0.64921778 0.1271183 1.6430001 155 157 129 255
-0.64476287 0.12712291 1.6430001 146 148 120 255
-0.64069855 0.1272051 1.6440001 148 151 120 255
-0.63740361 0.12744232 1.6470001 142 142 112 255
-0.63409305 0.12767972 1.6500001 131 131 101 255
-0.63038534 0.12784 1.6520001 124 125 93 255
-0.62666738 0.12800048 1.654 113 114 82 255
-0.62293929 0.12816121 1.6560001 112 113 81 255
-0.61957425 0.12839952 1.659 109 113 78 255
-0.61582279 0.12856065 1.6610001 117 121 86 255
-0.61279696 0.12887679 1.6650001 111 112 78 255
-0.60938454 0.12911576 1.6680001 102 103 69 255
-0.60595632 0.12935492 1.6710001 92 93 61 255
-0.60107237 0.12928462 1.6700001 97 98 66 255
-0.59619427 0.12921448 1.669 127 127 97 255
-0.59167629 0.12922193 1.669 128 132 94 255
-0.58751035 0.12930697 1.6700001 130 133 102 255
-0.58333915 0.12939218 1.6710001 131 134 103 255
-0.57916272 0.12947756 1.6720001 133 136 105 255
-0.57532454 0.12964052 1.674 129 132 101 255
-0.57113481 0.12972623 1.6750001 130 130 100 255
-0.56727785 0.12988953 1.677 131 131 101 255
-0.5634101 0.13005298 1.6790001 126 129 98 255
-0.55919868 0.13013913 1.6800001 126 129 98 255
-0.55432141 0.13007048 1.6790001 126 130 102 255
-0.55010444 0.13015689 1.6800001 133 137 109 255
-0.54523236 0.13008846 1.6790001 135 139 111 255
-0.54068756 0.13009763 1.6790001 134 138 110 255
-0.53646195 0.1301844 1.6800001 136 138 110 255
-0.53191411 0.1301938 1.6800001 136 138 110 255
-0.52767998 0.13028082 1.6810001 132 134 106 255
-0.52312881 0.1302904 1.6810001 139 141 113 255
-0.51888585 0.13037761 1.682 141 143 115 255
-0.51433152 0.13038741 1.682 138 142 114 255
-0.50977671 0.13039729 1.682 132 136 108 255
-0.50552201 0.13048479 1.6830001 135 139 111 255
-0.50066602 0.1304173 1.682 141 145 119 255
-0.49640501 0.13050497 1.6830001 148 151 127 255
-0.49155369 0.13043761 1.682 144 148 122 255
-0.48728636 0.13052543 1.6830001 137 140 116 255
-0.48272619 0.13053574 1.6830001 130 134 108 255
-0.47816566 0.13054612 1.6830001 137 141 115 255
-0.47332308 0.13047899 1.682 148 154 129 255
-0.46848544 0.13041189 1.6810001 156 161 139 255
-0.46448049 0.13057758 1.6830001 165 170 149 255
-0.45991766 0.13058816 1.6830001 177 183 165 255
-0.4540014 0.13021077 1.6780001 174 180 162 255
-0.44864729 0.12998857 1.6750001 163 170 149 255
-0.44304368 0.12968875 1.6710001 176 183 162 255
-0.43824843 0.12962176 1.6700001 174 181 160 255
-0.43319818 0.12947716 1.6680001 145 150 129 255
-0.42841515 0.12941018 1.6670001 151 156 135 255
-0.42363682 0.12934321 1.6660001 145 150 128 255
-0.41911468 0.12935387 1.6660001 139 145 120 255
-0.41434309 0.12928689 1.6650001 136 142 116 255
-0.41006842 0.12937523 1.6660001 135 142 113 255
-0.40554413 0.1293859 1.6660001 135 139 111 255
-0.40077841 0.12931891 1.6650001 131 137 111 255
-0.39601731 0.1292519 1.664 139 145 120 255
-0.39196673 0.12941791 1.6660001 149 154 132 255
-0.38743934 0.12942855 1.6660001 172 179 158 255
-0.38268134 0.12936148 1.6650001 166 173 152 255
-0.37701946 0.12898359 1.6600001 174 181 159 255
-0.37160838 0.12868331 1.6560001 125 132 110 255
-0.36688322 0.12861608 1.6550001 131 137 112 255
-0.36216271 0.12854882 1.654 140 146 120 255
-0.35787934 0.12863697 1.6550001 166 172 146 255
-0.35358965 0.12872508 1.6560001 149 156 127 255
-0.34929368 0.12881318 1.6570001 121 128 99 255
-0.34499142 0.12890124 1.6580001 125 132 103 255
-0.34006679 0.128756 1.6560001 122 128 102 255
-0.3345443 0.12837742 1.651 183 189 164 255
-0.32904822 0.12799872 1.646 147 152 130 255
-0.32436723 0.12793101 1.6450001 154 161 139 255
-0.32007974 0.12801875 1.646 126 131 109 255
-0.31559423 0.12802866 1.646 48 53 32 255
-0.3109189 0.12796073 1.6450001 26 30 12 255
-0.30643436 0.1279705 1.6450001 32 31 15 255
-0.30194899 0.1279802 1.6450001 32 31 15 255
-0.29710114 0.12783423 1.6430001 36 33 19 255
-0.29244143 0.12776597 1.6420001 38 36 25 255
-0.28743556 0.12754197 1.6390001 43 41 30 255
-0.2831358 0.12762915 1.6400001 42 42 32 255
-0.27865979 0.12763841 1.6400001 37 37 29 255
-0.27401578 0.12756976 1.6390001 57 58 52 255
-0.2693764 0.12750101 1.6380001 87 91 84 255
-0.26441818 0.12727648 1.6350001 96 99 95 255
-0.25947553 0.1270518 1.6320001 82 87 83 255
-0.25454846 0.12682699 1.6290001 77 80 76 255
-0.25009751 0.12683563 1.6290001 73 76 73 255
-0.24549493 0.12676631 1.628 76 79 75 255
-0.24119321 0.1268526 1.6290001 57 60 56 255
-0.23659454 0.12678304 1.628 102 105 101 255
-0.23185799 0.12663551 1.626 73 77 70 255
-0.22727138 0.12656569 1.6250001 68 72 65 255
-0.22268951 0.12649576 1.6240001 73 77 70 255
-0.21824676 0.1265036 1.6240001 101 105 98 255
-0.21380322 0.12651132 1.6240001 71 75 68 255
-0.20923004 0.12644102 1.623 60 64 57 255
-0.20478773 0.12644848 1.623 67 71 64 255
-0.20022129 0.12637791 1.6220001 82 86 79 255
-0.19578032 0.12638512 1.6220001 75 79 72 255
-0.19133861 0.12639219 1.6220001 51 57 50 255
-0.186781 0.12632121 1.6210001 95 99 92 255
-0.18211567 0.12617214 1.6190001 73 79 72 255
-0.1775704 0.12610087 1.618 73 79 72 255
-0.17302996 0.12602945 1.6170001 82 88 81 255
-0.16870286 0.12611374 1.618 80 86 79 255
-0.16416663 0.12604205 1.6170001 81 85 78 255
-0.15953644 0.12589222 1.6150001 83 87 80 255
-0.15501267 0.12582019 1.6140001 65 69 62 255
-0.15049377 0.12574801 1.613 69 73 66 255
-0.1461609 0.12583159 1.6140001 69 73 66 255
-0.14190979 0.12599301 1.6160001 71 75 68 255
-0.13747704 0.12599835 1.6160001 70 71 65 255
-0.13296139 0.12592557 1.6150001 65 66 60 255
-0.12837112 0.12577462 1.613 59 60 54 255
-0.12386816 0.1257015 1.6120001 73 74 68 255
-0.11944431 0.1257062 1.6120001 75 76 70 255
-0.11494862 0.12563275 1.6110001 61 62 56 255
-0.11052657 0.12563713 1.6110001 64 65 59 255
-0.1060382 0.12556337 1.6100001 68 67 61 255
-0.10155492 0.12548941 1.6090001 69 66 60 255
-0.097016327 0.12533732 1.6070001 69 64 58 255
-0.092545941 0.12526302 1.6060001 67 61 54 255
-0.088080689 0.12518856 1.605 67 58 47 255
-0.083516292 0.12495793 1.6020001 74 61 48 255
-0.078869261 0.12457111 1.5970001 84 69 54 255
-0.074109457 0.12395011 1.5890001 98 80 64 255
-0.069437183 0.12340688 1.582 98 74 58 255
-0.064803094 0.12286349 1.575 101 74 59 255
-0.060283985 0.12247593 1.5700001 93 64 50 255
-0.055934701 0.12240022 1.5690001 93 64 50 255
-0.051755194 0.12271442 1.5730001 92 64 53 255
-0.047764555 0.12357454 1.5840001 73 42 33 255
-0.043795493 0.12466857 1.598 67 43 34 255
-0.039650664 0.12545039 1.608 61 55 48 255
-0.035297338 0.12568595 1.6110001 64 58 51 255
-0.030908212 0.12584329 1.613 60 55 48 255
-0.02644231 0.1256884 1.6110001 63 59 49 255
-0.022014618 0.12568936 1.6110001 62 58 48 255
-0.017554082 0.12545609 1.608 66 59 48 255
-0.013118133 0.12530066 1.6060001 65 56 45 255
-0.0086768633 0.12491101 1.6010001 79 64 51 255
-0.0042683845 0.1246772 1.598 90 75 62 255
0.00012393098 0.12475532 1.5990001 90 71 59 255
0.0045415256 0.12537938 1.6070001 86 70 55 255
0.0089975027 0.12592524 1.6140001 108 92 82 255
0.013441985 0.12600282 1.6150001 88 76 66 255
0.017891906 0.12608023 1.6160001 72 67 60 255
0.022333426 0.12607941 1.6160001 71 70 64 255
0.026741717 0.1259224 1.6140001 73 74 68 255
0.031138903 0.1257652 1.6120001 72 75 71 255
0.035547026 0.12568586 1.6110001 73 76 72 255
0.040048759 0.12591839 1.6140001 78 82 75 255
0.04453925 0.12607275 1.6160001 75 79 72 255
0.049131475 0.12646095 1.6210001 75 79 72 255
0.053618748 0.12653694 1.6220001 76 80 73 255
0.05807548 0.1265347 1.6220001 78 82 75 255
0.062377766 0.12622029 1.618 80 84 77 255
0.066781715 0.12613972 1.6170001 85 89 82 255
0.071135841 0.12598097 1.6150001 84 88 81 255
0.075665854 0.12613408 1.6170001 91 94 90 255
0.080008388 0.125975 1.6150001 86 89 85 255
0.084496461 0.12604977 1.6160001 83 86 82 255
0.088934645 0.12604636 1.6160001 80 83 79 255
0.09348803 0.12619878 1.618 79 82 78 255
0.09793096 0.12619503 1.618 80 83 79 255
0.10250004 0.12634711 1.6200001 81 84 80 255
0.10694766 0.12634303 1.6200001 81 85 78 255
0.11153235 0.12649474 1.6220001 77 81 74 255
0.11598457 0.12649032 1.6220001 77 81 74 255
0.12043633 0.12648576 1.6220001 78 82 75 255
0.12473363 0.12632507 1.6200001 81 84 80 255
0.12909916 0.12624221 1.6190001 81 84 81 255
0.13345872 0.12615919 1.618 89 92 89 255
0.13789748 0.12615399 1.618 89 92 89 255
0.14224775 0.12607068 1.6170001 88 91 88 255
0.14677337 0.12614313 1.618 84 87 83 255
0.15130395 0.12621544 1.6190001 84 87 83 255
0.15583941 0.12628761 1.6200001 84 87 83 255
0.16018187 0.12620369 1.6190001 81 84 80 255
0.16461994 0.12619758 1.6190001 86 89 85 255
0.16905737 0.12619135 1.6190001 82 87 83 255
0.17360136 0.1262629 1.6200001 78 83 79 255
0.17804024 0.12625638 1.6200001 82 87 83 255
0.18247847 0.1262497 1.6200001 82 87 84 255
0.18680063 0.12616497 1.6190001 84 87 84 255
0.19099854 0.12600219 1.6170001 85 88 85 255
0.19530563 0.1259172 1.6160001 85 88 85 255
0.19973014 0.12591001 1.6160001 92 95 92 255
0.20440662 0.12605852 1.618 88 91 88 255
0.20948051 0.12644058 1.623 84 87 84 255
0.21458104 0.1268225 1.628 83 88 84 255
0.22011185 0.12743792 1.636 83 87 80 255
0.22541109 0.12789737 1.6420001 81 87 80 255
0.22990228 0.12788931 1.6420001 74 80 73 255
0.23339346 0.12733597 1.6350001 71 75 68 255
0.23699106 0.12686045 1.6290001 76 80 73 255
0.24129613 0.12677427 1.628 76 80 73 255
0.24680255 0.1273109 1.6350001 81 85 78 255
0.25265378 0.12800305 1.6440001 85 89 82 255
0.25870979 0.12877287 1.654 83 87 80 255
0.26450133 0.1293868 1.6620001 83 87 80 255
0.27001199 0.12984484 1.6680001 83 84 78 255
0.27522534 0.13014704 1.6720001 86 87 81 255
0.28029233 0.13037126 1.6750001 79 80 74 255
0.28503472 0.13043971 1.6760001 70 71 65 255
0.2903001 0.13074151 1.6800001 67 68 62 255
0.29576197 0.13112099 1.6850001 72 73 67 255
0.30249801 0.13204502 1.697 78 79 73 255
0.30911767 0.13289101 1.7080001 85 86 82 255
0.31487796 0.13334781 1.7140001 86 87 83 255
0.31973782 0.13341549 1.715 84 85 81 255
0.32460228 0.13348308 1.7160001 79 80 76 255
0.32927939 0.13347282 1.7160001 80 81 75 255
0.33395562 0.13346246 1.7160001 78 79 73 255
0.33863094 0.13345206 1.7160001 78 82 75 255
0.34370548 0.13359712 1.7180001 79 83 76 255
0.34777609 0.13335328 1.715 78 82 75 255
0.46941796 0.13455568 1.7340001 84 85 79 255
0.47329944 0.13431197 1.7310001 82 86 79 255
0.47688785 0.13399076 1.7270001 80 84 77 255
0.47989625 0.13351448 1.7210001 77 81 74 255
0.48427936 0.13342616 1.72 77 81 74 255
0.48865649 0.13333796 1.7190001 78 81 77 255
0.49302766 0.1332498 1.7180001 83 86 83 255
0.49652377 0.13292904 1.7140001 83 86 83 255
0.49999774 0.1326084 1.71 84 87 84 255
0.50433493 0.13252051 1.7090001 87 90 87 255
0.50807047 0.13227761 1.7060001 88 91 88 255
0.51209003 0.13211238 1.7040001 89 91 91 255
0.51488531 0.13163714 1.6980001 87 91 91 255
0.51825964 0.13131709 1.6940001 85 89 89 255
0.52253795 0.13122971 1.6930001 84 86 86 255
0.52805579 0.13145247 1.6960001 81 84 81 255
0.53358972 0.1316753 1.6990001 77 80 76 255
0.53850597 0.13174318 1.7 69 72 68 255
0.54214954 0.13150121 1.697 69 73 66 255
0.54513228 0.13110441 1.692 68 72 65 255
0.54841262 0.13078526 1.6880001 65 71 64 255
0.55265397 0.13069868 1.687 60 65 61 255
0.55821103 0.13092214 1.6900001 64 69 65 255
0.56544924 0.13153298 1.6980001 80 87 84 255
0.57070822 0.12957087 1.6730001 181 185 187 255
0.57111031 0.12863331 1.6610001 146 148 150 255
0.57560599 0.12862527 1.6610001 68 70 72 255
0.58080024 0.12877227 1.6630001 78 80 80 255
0.58846915 0.12946139 1.6720001 83 86 83 255
0.59441376 0.12976348 1.6760001 71 74 71 255
0.60002279 0.12998828 1.6790001 69 72 69 255
