ply
format ascii 1.0
comment PCL generated
element vertex 982
property float x
property float y
property float z
property uchar red
property uchar green
property uchar blue
property uchar alpha
element camera 0
property float view_px
property float view_py
property float view_pz
property float x_axisx
property float x_axisy
property float x_axisz
property float y_axisx
property float y_axisy
property float y_axisz
property float z_axisx
property float z_axisy
property float z_axisz
property float focal
property float scalex
property float scaley
property float centerx
property float centery
property int viewportx
property int viewporty
property float k1
property float k2
end_header
0.69456404 -0.031474166 1.5170001 26 30 13 255
0.69456089 -0.031287815 1.508 27 31 14 255
0.70007038 -0.031350527 1.511 27 31 14 255
0.70606446 -0.031434078 1.5150001 29 33 16 255
0.71020734 -0.031434719 1.5150001 27 33 16 255
0.71340948 -0.031393956 1.5130001 23 31 14 255
0.71992272 -0.031498533 1.5180001 22 32 15 255
0.72408074 -0.031499457 1.5180001 12 21 9 255
0.72680187 -0.031438217 1.5150001 147 157 146 255
0.72757936 -0.031294066 1.508 155 167 158 255
0.72929132 -0.031191505 1.503 168 177 170 255
-0.98568785 -0.040827211 1.7340001 30 31 17 255
-0.98419017 -0.040962141 1.7400001 52 53 39 255
-0.92992276 -0.040259667 1.7120001 28 30 13 255
-0.94513726 -0.041125041 1.7490001 22 23 9 255
-0.94402224 -0.04128506 1.756 23 24 10 255
-0.90604419 -0.040030621 1.7030001 22 22 12 255
-0.91877341 -0.040802296 1.7360001 19 19 9 255
-0.92079443 -0.041103952 1.7490001 19 19 9 255
-0.91436857 -0.041029729 1.7460001 19 19 9 255
-0.91473573 -0.041261137 1.756 18 18 8 255
-0.91660619 -0.04156315 1.7690001 17 17 7 255
-0.90964746 -0.041465878 1.7650001 18 18 8 255
-0.90527785 -0.041486226 1.766 20 20 10 255
-0.91365296 -0.042093981 1.7920001 20 20 10 255
-0.8945058 -0.041433427 1.7640001 22 20 10 255
-0.90325516 -0.042064883 1.7910001 20 18 8 255
-0.8998214 -0.04213275 1.794 21 17 7 255
-0.89687365 -0.042224247 1.7980001 23 19 8 255
-0.89390743 -0.042315863 1.802 27 24 10 255
-0.89141607 -0.042431105 1.807 27 23 9 255
-0.883995 -0.042311665 1.802 30 24 7 255
-0.87855601 -0.042286292 1.8010001 31 23 6 255
-0.87700629 -0.042448889 1.8080001 32 20 1 255
-0.87590361 -0.042635072 1.8160001 47 33 13 255
-0.87044382 -0.04261009 1.8150001 53 39 15 255
-0.8654694 -0.042608716 1.8150001 63 50 23 255
-0.85907561 -0.042537045 1.812 65 50 21 255
-0.85458648 -0.0425594 1.8130001 65 50 20 255
-0.84962606 -0.042558406 1.8130001 68 51 21 255
-0.84653181 -0.04265143 1.817 68 51 21 255
-0.84202892 -0.042674154 1.8180001 72 53 23 255
-0.83706254 -0.042673517 1.8180001 78 56 28 255
-0.83072537 -0.04260258 1.8150001 81 61 35 255
-0.82531703 -0.042578708 1.8140001 67 52 32 255
-0.81358504 -0.042226341 1.7990001 228 214 195 255
-0.78620386 -0.041052561 1.7490001 240 238 220 255
-0.76267183 -0.040066678 1.7070001 215 223 208 255
-0.75047213 -0.039667692 1.6900001 169 179 164 255
-0.74233907 -0.039480049 1.682 186 196 181 255
-0.73600578 -0.039386392 1.6780001 186 196 181 255
-0.72795242 -0.039198946 1.6700001 200 208 193 255
-0.72081053 -0.039058525 1.664 204 214 197 255
-0.71198106 -0.038824301 1.654 186 196 179 255
-0.70534617 -0.038707532 1.649 148 159 140 255
-0.69873989 -0.038590837 1.6440001 149 160 139 255
-0.69342905 -0.038544655 1.6420001 142 152 129 255
-0.68855006 -0.038522024 1.641 148 158 133 255
-0.68326074 -0.038475998 1.6390001 146 157 128 255
-0.67839777 -0.038453527 1.6380001 151 162 131 255
-0.67354137 -0.038431138 1.6370001 140 151 120 255
-0.66828269 -0.038385343 1.6350001 142 153 122 255
-0.66303593 -0.038339619 1.6330001 150 161 130 255
-0.65820432 -0.038317446 1.6320001 147 158 127 255
-0.65337896 -0.038295344 1.631 146 157 126 255
-0.64895797 -0.038296789 1.631 147 156 125 255
-0.64493293 -0.038321793 1.6320001 136 146 113 255
-0.64011824 -0.038299896 1.631 123 130 98 255
-0.6364792 -0.038348518 1.6330001 121 129 94 255
-0.6320557 -0.038350236 1.6330001 104 112 76 255
-0.6284017 -0.038398992 1.6350001 107 115 79 255
-0.62397408 -0.038400844 1.6350001 121 129 93 255
-0.61992592 -0.038426243 1.636 122 131 92 255
-0.61587298 -0.038451701 1.6370001 118 125 85 255
-0.61256206 -0.038524207 1.6400001 96 101 61 255
-0.60886449 -0.03857328 1.6420001 96 101 61 255
-0.60478842 -0.038598929 1.6430001 121 126 86 255
-0.60034192 -0.038601134 1.6430001 142 146 108 255
-0.59589571 -0.038603391 1.6430001 140 144 108 255
-0.5914498 -0.038605709 1.6430001 137 143 108 255
-0.58736134 -0.03863157 1.6440001 128 134 99 255
-0.5829131 -0.03863398 1.6440001 127 133 98 255
-0.57881689 -0.038659945 1.6450001 120 128 93 255
-0.57541376 -0.038732965 1.6480001 125 133 98 255
-0.57199436 -0.038806032 1.651 128 136 101 255
-0.56787145 -0.03883215 1.6520001 124 129 97 255
-0.56374305 -0.038858313 1.6530001 126 131 99 255
-0.55994749 -0.038908023 1.6550001 127 132 100 255
-0.5561412 -0.03895779 1.6570001 125 130 98 255
-0.55232388 -0.039007593 1.659 124 129 97 255
-0.54783523 -0.039010417 1.659 122 129 97 255
-0.54334641 -0.039013274 1.659 129 137 102 255
-0.53950709 -0.039063208 1.6610001 122 129 97 255
-0.53565669 -0.039113179 1.6630001 123 130 98 255
-0.53179526 -0.039163187 1.6650001 120 128 92 255
-0.52792263 -0.03921324 1.6670001 120 128 92 255
-0.52372503 -0.039239798 1.6680001 118 124 88 255
-0.51921034 -0.039242864 1.6680001 118 126 90 255
-0.51500386 -0.039269485 1.669 118 126 90 255
-0.51109755 -0.039319675 1.6710001 119 127 92 255
-0.50748301 -0.039393418 1.674 120 127 95 255
-0.50325102 -0.039420135 1.6750001 123 131 95 255
-0.49901316 -0.039446879 1.6760001 128 132 104 255
-0.4947693 -0.039473645 1.677 121 127 92 255
-0.4911043 -0.039547514 1.6800001 104 109 67 255
-0.48684326 -0.039574336 1.6810001 98 103 61 255
-0.48286313 -0.039624721 1.6830001 105 110 68 255
-0.47858745 -0.03965158 1.6840001 111 119 76 255
-0.47430575 -0.039678466 1.6850001 114 121 81 255
-0.46918166 -0.039634712 1.6830001 116 123 83 255
-0.46351567 -0.039543867 1.6790001 119 128 88 255
-0.45759737 -0.039429456 1.674 127 136 97 255
-0.45224681 -0.039362151 1.6710001 124 132 96 255
-0.44744775 -0.03934196 1.6700001 125 133 97 255
-0.4429186 -0.039345335 1.6700001 130 139 100 255
-0.43891379 -0.039395839 1.6720001 122 131 92 255
-0.43515712 -0.03946992 1.6750001 113 122 83 255
-0.43112651 -0.039520454 1.677 112 121 82 255
-0.42708418 -0.039570998 1.6790001 113 119 83 255
-0.4225269 -0.039574411 1.6790001 109 117 81 255
-0.41771996 -0.039554257 1.6780001 111 119 84 255
-0.41267142 -0.039510522 1.6760001 118 126 91 255
-0.40836343 -0.039537504 1.677 120 128 93 255
-0.40404925 -0.039564494 1.6780001 119 127 92 255
-0.39972878 -0.03959148 1.6790001 115 123 87 255
-0.39493135 -0.0395713 1.6780001 120 128 92 255
-0.39060378 -0.039598286 1.6790001 132 142 107 255
-0.38489035 -0.039483745 1.674 152 162 127 255
-0.37965772 -0.039416358 1.6710001 132 142 107 255
-0.37421602 -0.039325356 1.6670001 111 121 86 255
-0.36990404 -0.039352294 1.6680001 111 122 85 255
-0.36514765 -0.039332032 1.6670001 123 134 97 255
-0.36082849 -0.039358955 1.6680001 154 165 128 255
-0.35628933 -0.039362263 1.6680001 129 138 99 255
-0.35217106 -0.039412756 1.6700001 78 85 45 255
-0.34783289 -0.039439648 1.6710001 86 90 52 255
-0.34328294 -0.039442923 1.6710001 90 94 58 255
-0.33852938 -0.039422572 1.6700001 115 119 83 255
-0.33378035 -0.039402194 1.669 119 125 89 255
-0.32923305 -0.039405406 1.669 115 123 88 255
-0.32487947 -0.03943222 1.6700001 118 129 92 255
-0.32013586 -0.039411779 1.669 119 130 91 255
-0.31596407 -0.039462168 1.6710001 114 126 83 255
-0.31140774 -0.039465301 1.6710001 113 125 80 255
-0.30721778 -0.039515652 1.6730001 17 19 1 255
-0.30247325 -0.039495118 1.6720001 28 30 10 255
-0.29755512 -0.039450936 1.6700001 32 30 12 255
-0.29264697 -0.039406717 1.6680001 34 32 14 255
-0.28843972 -0.039456975 1.6700001 32 34 16 255
-0.2840507 -0.039483581 1.6710001 23 25 7 255
-0.27948803 -0.039486531 1.6710001 89 93 76 255
-0.27410185 -0.039371289 1.6660001 78 85 73 255
-0.26874208 -0.039256003 1.6610001 75 84 73 255
-0.26340875 -0.039140664 1.6560001 76 85 74 255
-0.25857088 -0.039096188 1.654 72 81 70 255
-0.25389665 -0.039075315 1.6530001 68 77 66 255
-0.24937789 -0.039078042 1.6530001 54 63 52 255
-0.24456206 -0.039033454 1.651 67 73 65 255
-0.23990174 -0.039012469 1.6500001 71 77 69 255
-0.23524602 -0.03899144 1.649 82 90 82 255
-0.23031509 -0.038923081 1.646 78 84 76 255
-0.22553696 -0.038878322 1.6440001 73 82 71 255
-0.22090346 -0.038857173 1.6430001 74 83 71 255
-0.216538 -0.038883276 1.6440001 56 63 51 255
-0.21203734 -0.038885701 1.6440001 54 61 49 255
-0.20753589 -0.038888082 1.6440001 36 45 33 255
-0.2027867 -0.038843106 1.6420001 68 77 65 255
-0.1980477 -0.038798086 1.6400001 63 72 61 255
-0.19331893 -0.038753025 1.6380001 82 91 80 255
-0.18883094 -0.038755231 1.6380001 80 88 80 255
-0.18400458 -0.038686406 1.6350001 76 84 76 255
-0.1793038 -0.038641196 1.6330001 76 84 76 255
-0.17472033 -0.0386196 1.6320001 77 85 77 255
-0.17045462 -0.038668949 1.6340001 61 69 61 255
-0.16638044 -0.038765598 1.6380001 66 73 62 255
-0.16228367 -0.038862202 1.6420001 57 64 53 255
-0.15797213 -0.038911436 1.6440001 53 58 47 255
-0.15336895 -0.038889617 1.6430001 53 58 46 255
-0.14858945 -0.038820405 1.6400001 57 64 52 255
-0.14408937 -0.038822155 1.6400001 68 75 63 255
-0.13941851 -0.038776513 1.6380001 77 84 72 255
-0.13492277 -0.038778163 1.6380001 72 77 63 255
-0.13034686 -0.038756084 1.6370001 62 67 53 255
-0.12585281 -0.038757637 1.6370001 62 67 55 255
-0.12120997 -0.038711783 1.6350001 66 71 59 255
-0.11664898 -0.038689546 1.6340001 70 75 64 255
-0.11216166 -0.038690943 1.6340001 74 81 70 255
-0.10773975 -0.038715966 1.6350001 66 75 64 255
-0.10318561 -0.038693577 1.6340001 47 56 45 255
-0.098576143 -0.038647454 1.6320001 70 79 67 255
-0.094092533 -0.038648639 1.6320001 75 84 73 255
-0.089663438 -0.038673453 1.6330001 56 65 54 255
-0.085228465 -0.038698211 1.6340001 75 84 73 255
-0.080738232 -0.038699239 1.6340001 70 77 65 255
-0.076200999 -0.03867653 1.6330001 55 62 51 255
-0.071712844 -0.038677447 1.6330001 57 64 53 255
-0.067224376 -0.038678311 1.6330001 63 68 56 255
-0.062735617 -0.038679115 1.6330001 66 73 61 255
-0.05824659 -0.038679868 1.6330001 55 62 51 255
-0.053757317 -0.038680568 1.6330001 44 51 40 255
-0.049267806 -0.038681209 1.6330001 53 60 49 255
-0.044695821 -0.038610738 1.6300001 93 100 89 255
-0.040140137 -0.038540203 1.6270001 70 77 65 255
-0.035600774 -0.038469609 1.6240001 60 67 55 255
-0.031154456 -0.038493719 1.6250001 61 66 54 255
-0.026686069 -0.038494084 1.6250001 63 68 56 255
-0.022203891 -0.038470697 1.6240001 66 73 62 255
-0.017716197 -0.038423572 1.6220001 67 73 65 255
-0.013247599 -0.03840008 1.6210001 78 84 77 255
-0.0087844403 -0.038376525 1.6200001 79 85 78 255
-0.0043240725 -0.038329229 1.618 79 85 78 255
0.0001253918 -0.038305569 1.6170001 74 80 72 255
0.0045721834 -0.038305536 1.6170001 69 77 69 255
0.0090245316 -0.038329136 1.618 66 75 64 255
0.013474013 -0.038328994 1.618 62 71 59 255
0.017934514 -0.038352489 1.6190001 62 69 57 255
0.022414263 -0.038399618 1.6210001 63 70 58 255
0.026888337 -0.038422994 1.6220001 60 67 55 255
0.031367794 -0.038446318 1.623 59 66 55 255
0.035830535 -0.038445897 1.623 64 69 58 255
0.040268295 -0.038421735 1.6220001 61 66 54 255
0.044727959 -0.038421202 1.6220001 65 70 58 255
0.049248081 -0.038467992 1.6240001 64 69 58 255
0.05377898 -0.038514722 1.626 64 69 58 255
0.058248997 -0.038514022 1.626 65 70 59 255
0.0626802 -0.038489588 1.6250001 64 68 60 255
0.067105621 -0.038465094 1.6240001 62 69 58 255
0.071569338 -0.03846423 1.6240001 62 69 58 255
0.075939104 -0.038415946 1.6220001 62 69 57 255
0.080247983 -0.038343929 1.6190001 64 71 60 255
0.084592365 -0.038295545 1.6170001 68 75 63 255
0.089090556 -0.038318153 1.618 70 77 66 255
0.093536057 -0.038317025 1.618 70 77 66 255
0.098041743 -0.038339533 1.6190001 72 77 66 255
0.10255249 -0.038361982 1.6200001 64 69 57 255
0.10700227 -0.038360704 1.6200001 61 66 55 255
0.11138278 -0.038335688 1.6190001 58 63 52 255
0.11568581 -0.038286947 1.6170001 60 65 53 255
0.12012595 -0.038285516 1.6170001 63 70 58 255
0.12448855 -0.038260352 1.6160001 65 72 61 255
0.12876537 -0.038211469 1.6140001 67 74 63 255
0.13303067 -0.038162544 1.6120001 60 69 58 255
0.13754028 -0.038184587 1.613 61 69 61 255
0.1418788 -0.038159244 1.6120001 89 97 90 255
0.14612049 -0.038110182 1.6100001 89 97 90 255
0.14997658 -0.037966389 1.6040001 83 91 84 255
0.15408793 -0.037893575 1.6010001 81 89 82 255
0.15847914 -0.037891723 1.6010001 82 90 82 255
0.16286975 -0.037889827 1.6010001 65 74 63 255
0.16715525 -0.037864223 1.6 54 63 52 255
0.1713274 -0.037814911 1.598 66 75 64 255
0.17548791 -0.037765559 1.5960001 69 77 69 255
0.17997487 -0.037787158 1.5970001 97 103 95 255
0.1844666 -0.037808701 1.598 66 72 64 255
0.18896313 -0.037830207 1.5990001 66 71 60 255
0.19310172 -0.037780702 1.5970001 62 67 56 255
0.19722858 -0.037731152 1.595 66 71 60 255
0.20134376 -0.037681568 1.5930001 67 74 63 255
0.20544724 -0.037631955 1.5910001 65 74 63 255
0.20967092 -0.03760596 1.59 71 78 67 255
0.21402296 -0.037603579 1.59 91 98 87 255
0.21823686 -0.03757751 1.5890001 96 105 94 255
0.22216438 -0.037504118 1.5860001 61 70 59 255
0.22607468 -0.037430696 1.5830001 66 73 62 255
0.23011333 -0.037380897 1.5810001 62 69 58 255
0.23399198 -0.037307423 1.5780001 76 84 76 255
0.23830643 -0.037304845 1.5780001 71 79 71 255
0.24246635 -0.0372786 1.577 101 107 100 255
0.24677643 -0.037275963 1.577 98 104 97 255
0.25060812 -0.037202392 1.5740001 65 71 63 255
0.25474644 -0.037176061 1.5730001 66 72 64 255
0.25854906 -0.037102439 1.5700001 68 74 66 255
0.26283675 -0.037099697 1.5700001 62 68 60 255
0.26695347 -0.037073296 1.5690001 94 100 92 255
0.27106386 -0.037046865 1.5680001 89 95 88 255
0.27499235 -0.036996797 1.5660001 73 80 69 255
0.2792657 -0.036993947 1.5660001 68 75 64 255
0.28353825 -0.036991078 1.5660001 67 74 63 255
0.28744236 -0.036940947 1.5640001 67 74 63 255
0.29114822 -0.036867183 1.5610001 73 82 71 255
0.29483682 -0.036793403 1.5580001 75 83 75 255
0.29908413 -0.03679046 1.5580001 91 99 91 255
0.30352533 -0.03681111 1.559 77 85 77 255
0.30777362 -0.036808122 1.559 71 79 71 255
0.31202111 -0.036805119 1.559 72 78 70 255
0.31606492 -0.036778491 1.5580001 77 83 75 255
0.32010242 -0.036751848 1.557 73 79 71 255
0.32392529 -0.036701594 1.5550001 70 76 68 255
0.3281585 -0.036698535 1.5550001 79 85 77 255
0.33239087 -0.036695462 1.5550001 77 84 73 255
0.33662248 -0.036692373 1.5550001 72 79 68 255
0.34063399 -0.036665678 1.554 70 79 68 255
0.34441736 -0.036615387 1.552 74 83 72 255
0.34863827 -0.036612272 1.552 75 83 75 255
0.35308579 -0.036632743 1.5530001 74 80 72 255
0.3575379 -0.036653191 1.554 73 79 71 255
0.36176187 -0.03665005 1.554 73 79 71 255
0.36527851 -0.036576159 1.5510001 77 83 75 255
0.3694928 -0.036573015 1.5510001 76 82 74 255
0.37370628 -0.036569867 1.5510001 78 85 74 255
0.37816262 -0.036590286 1.552 76 81 69 255
0.38287005 -0.036634278 1.554 74 79 67 255
0.3870894 -0.036631115 1.554 73 78 66 255
0.39155987 -0.036651526 1.5550001 70 75 63 255
0.39552599 -0.036624797 1.554 72 77 65 255
0.40000042 -0.036645204 1.5550001 72 77 65 255
0.40421966 -0.036642045 1.5550001 70 75 63 255
0.40896353 -0.036686018 1.557 69 74 62 255
0.41318679 -0.036682867 1.557 68 73 61 255
0.41714135 -0.036656164 1.5560001 67 72 58 255
0.42081907 -0.036605921 1.554 70 75 61 255
0.42503229 -0.036602795 1.554 71 79 64 255
0.42952114 -0.03662324 1.5550001 69 77 62 255
0.43373591 -0.036620136 1.5550001 67 75 60 255
0.4379501 -0.036617044 1.5550001 65 73 58 255
0.44216368 -0.036613964 1.5550001 66 73 61 255
0.44608971 -0.036587358 1.554 67 74 63 255
0.4502995 -0.03658431 1.554 68 75 64 255
0.45421642 -0.036557741 1.5530001 77 86 75 255
0.457537 -0.036484119 1.5500001 88 94 86 255
0.46084082 -0.036410522 1.5470001 84 92 84 255
0.46412805 -0.036336962 1.544 86 94 86 255
0.46861181 -0.036357563 1.5450001 72 78 70 255
0.47279465 -0.03635465 1.5450001 75 82 71 255
0.47821188 -0.036445871 1.549 74 81 70 255
0.48333901 -0.036513578 1.552 76 83 72 255
0.48753977 -0.036510732 1.552 73 80 69 255
0.49078962 -0.036437333 1.549 69 76 65 255
0.49370345 -0.03634046 1.5450001 69 76 65 255
0.49756208 -0.036314182 1.544 74 81 69 255
0.502065 -0.036334977 1.5450001 73 80 69 255
0.50690085 -0.036379319 1.5470001 71 78 67 255
0.51174742 -0.036423679 1.549 75 82 71 255
0.5159384 -0.036421046 1.549 70 77 66 255
0.52080089 -0.036465473 1.5510001 72 79 68 255
0.5256741 -0.036509924 1.5530001 71 78 67 255
0.53124046 -0.03660142 1.557 71 78 66 255
0.53579682 -0.036622431 1.5580001 72 77 65 255
0.54105181 -0.036690492 1.5610001 69 74 60 255
0.54492575 -0.03666456 1.5600001 49 54 40 255
0.5480904 -0.036591679 1.557 47 52 40 255
0.55123889 -0.036518853 1.554 51 56 44 255
0.55472881 -0.036469579 1.552 57 64 53 255
0.55820799 -0.036420353 1.5500001 56 63 51 255
0.56203943 -0.036394678 1.549 76 83 71 255
0.56586576 -0.036369056 1.5480001 73 80 68 255
0.57042342 -0.036390468 1.549 27 36 24 255
0.57350308 -0.036317971 1.5460001 27 34 22 255
0.57843506 -0.036362983 1.5480001 77 84 72 255
0.58300203 -0.036384553 1.549 76 84 69 255
0.5887121 -0.036476642 1.5530001 34 42 27 255
0.59215349 -0.036427855 1.5510001 66 71 57 255
0.59635371 -0.036426105 1.5510001 69 75 58 255
0.59939283 -0.036353961 1.5480001 70 76 59 255
0.60241628 -0.036281884 1.5450001 67 72 58 255
0.60581672 -0.036233354 1.5430001 67 72 58 255
0.60960245 -0.036208376 1.5420001 72 77 63 255
0.61338347 -0.036183465 1.5410001 73 80 68 255
0.61756068 -0.036182102 1.5410001 71 76 64 255
0.62173861 -0.036180802 1.5410001 77 82 70 255
0.62591755 -0.036179576 1.5410001 78 83 71 255
0.6305061 -0.036201887 1.5420001 13 16 2 255
0.63592452 -0.036271233 1.5450001 24 27 15 255
0.63804567 -0.036152836 1.5400001 24 27 13 255
0.64139169 -0.036104944 1.5380001 19 22 8 255
0.64514792 -0.036080606 1.5370001 21 24 10 255
0.64932233 -0.03607982 1.5370001 21 24 10 255
0.65222222 -0.03600869 1.534 21 24 10 255
0.65553522 -0.035961118 1.5320001 23 26 12 255
0.65840805 -0.035890155 1.529 21 24 10 255
0.66126591 -0.035819273 1.526 23 26 12 255
0.66498095 -0.03579542 1.5250001 21 24 10 255
0.66913092 -0.03579513 1.5250001 22 25 11 255
0.67416537 -0.035841867 1.5270001 21 24 10 255
0.67832386 -0.035841748 1.5270001 21 24 10 255
0.68382496 -0.035912137 1.5300001 21 24 10 255
0.68484747 -0.035747897 1.5230001 22 26 9 255
0.69080985 -0.035841934 1.5270001 22 26 9 255
0.69361001 -0.035771765 1.524 27 31 14 255
0.69776934 -0.035772104 1.524 25 29 12 255
0.69686425 -0.035514344 1.5130001 27 31 14 255
0.69914424 -0.035420984 1.5090001 27 31 13 255
0.7042008 -0.035468563 1.511 30 34 16 255
0.70880175 -0.03549277 1.5120001 26 32 15 255
0.71435332 -0.035564031 1.5150001 23 31 14 255
0.7208721 -0.035682347 1.5200001 20 30 15 255
0.72551268 -0.03570687 1.521 26 35 23 255
0.72680312 -0.035567172 1.5150001 150 160 149 255
0.72806305 -0.035427567 1.5090001 157 169 160 255
0.72929269 -0.035288062 1.503 166 175 168 255
-1.0051252 -0.046689793 1.7770001 23 22 8 255
-0.99111325 -0.046262443 1.761 35 36 22 255
-0.94909954 -0.044956144 1.7120001 26 25 9 255
-0.96636164 -0.046000436 1.7520001 28 27 11 255
-0.95322257 -0.045600768 1.7370001 27 26 10 255
-0.91068989 -0.043783937 1.6680001 37 39 22 255
-0.93101424 -0.044986043 1.7140001 38 40 23 255
-0.94352108 -0.045820653 1.7460001 27 31 14 255
-0.92306066 -0.045054607 1.7170001 23 26 12 255
-0.9466216 -0.046440385 1.7700001 18 21 9 255
-0.91615701 -0.04517635 1.7220001 17 20 8 255
-0.91983604 -0.0455916 1.738 19 19 9 255
-0.93553954 -0.04661024 1.7770001 18 18 8 255
-0.92484641 -0.046317507 1.766 17 17 7 255
-0.92515796 -0.046575729 1.7760001 17 17 7 255
-0.92438203 -0.046781633 1.784 17 17 7 255
-0.91995841 -0.046804134 1.7850001 18 18 8 255
-0.90528113 -0.046302427 1.766 18 18 8 255
-0.90192956 -0.046377733 1.7690001 21 19 9 255
-0.89957964 -0.046505634 1.774 22 20 10 255
-0.90678823 -0.047131725 1.7980001 22 18 7 255
-0.90283352 -0.047181249 1.8000001 25 21 10 255
-0.89986902 -0.047283344 1.8040001 28 24 10 255
-0.89589411 -0.047333173 1.8060001 29 23 7 255
-0.89240503 -0.047409363 1.8090001 31 23 7 255
-0.88546878 -0.04730225 1.8050001 45 35 18 255
-0.88002145 -0.047273923 1.8040001 56 44 25 255
-0.87749314 -0.04740297 1.8090001 61 48 25 255
-0.87542289 -0.047558356 1.8150001 58 44 20 255
-0.87044531 -0.047556669 1.8150001 60 45 16 255
-0.86547083 -0.04755513 1.8150001 66 49 20 255
-0.86002511 -0.047527533 1.8140001 70 53 23 255
-0.85600173 -0.047578674 1.8160001 69 51 18 255
-0.85103291 -0.047577556 1.8160001 72 54 21 255
-0.84746456 -0.047655173 1.8190001 74 56 23 255
-0.84295589 -0.04768052 1.8200001 75 56 26 255
-0.83798397 -0.047679804 1.8200001 78 56 28 255
-0.83255672 -0.047653023 1.8190001 80 58 30 255
-0.82622743 -0.047573976 1.8160001 83 67 44 255
-0.81177634 -0.047023516 1.7950001 161 153 136 255
-0.78395653 -0.045687277 1.7440001 242 240 222 255
-0.76088464 -0.044613127 1.7030001 220 228 213 255
-0.74825174 -0.04414162 1.6850001 216 226 211 255
-0.7388081 -0.0438536 1.674 214 224 209 255
-0.73118073 -0.043670475 1.6670001 216 226 211 255
-0.72402894 -0.043513648 1.6610001 213 221 206 255
-0.71777791 -0.043409318 1.6570001 220 228 211 255
-0.71025866 -0.043226492 1.6500001 215 225 208 255
-0.70406228 -0.043122351 1.646 204 214 197 255
-0.69831413 -0.043044508 1.6430001 171 182 163 255
-0.69342822 -0.043019153 1.6420001 164 173 152 255
-0.68854904 -0.042993885 1.641 160 170 147 255
-0.68284297 -0.042916317 1.6380001 159 168 139 255
-0.67756832 -0.04286503 1.636 167 176 145 255
-0.67189437 -0.042787626 1.6330001 164 174 139 255
-0.66664642 -0.042736504 1.631 150 162 129 255
-0.66141051 -0.042685464 1.6290001 147 159 126 255
-0.6561864 -0.04263451 1.6270001 144 155 124 255
-0.65177512 -0.042636033 1.6270001 140 151 122 255
-0.64736491 -0.042637642 1.6270001 165 176 147 255
-0.64335054 -0.04266553 1.628 160 169 138 255
-0.6393317 -0.042693503 1.6290001 146 155 124 255
-0.63569784 -0.042747758 1.631 145 152 120 255
-0.63166684 -0.042775884 1.6320001 125 133 97 255
-0.62801534 -0.042830288 1.6340001 114 122 86 255
-0.62397212 -0.042858563 1.6350001 108 116 80 255
-0.61992389 -0.042886905 1.636 110 117 78 255
-0.61587089 -0.042915318 1.6370001 122 127 87 255
-0.61293334 -0.043022446 1.641 123 128 86 255
-0.60923308 -0.043077216 1.6430001 105 110 68 255
-0.60515422 -0.043105833 1.6440001 94 97 55 255
-0.60070497 -0.043108292 1.6440001 92 95 55 255
-0.59625596 -0.043110814 1.6440001 111 115 79 255
-0.59216732 -0.043139618 1.6450001 120 124 89 255
-0.58771604 -0.043142248 1.6450001 125 131 96 255
-0.58291054 -0.043118712 1.6440001 126 132 97 255
-0.57881427 -0.043147683 1.6450001 124 130 95 255
-0.57436359 -0.043150481 1.6450001 123 129 94 255
-0.57025939 -0.043179557 1.646 123 129 94 255
-0.56649363 -0.043234926 1.6480001 124 130 95 255
-0.56271708 -0.043290347 1.6500001 125 130 98 255
-0.55926794 -0.043372061 1.6530001 128 131 99 255
-0.55513132 -0.043401346 1.654 128 133 101 255
-0.55132222 -0.043456931 1.6560001 125 130 99 255
-0.54717177 -0.043486308 1.6570001 121 128 96 255
-0.54334342 -0.043541986 1.659 122 129 97 255
-0.5388543 -0.043545205 1.659 114 121 89 255
-0.53500932 -0.043600973 1.6610001 121 128 96 255
-0.53115326 -0.043656781 1.6630001 121 129 93 255
-0.52728605 -0.043712623 1.6650001 122 128 92 255
-0.52340782 -0.043768521 1.6670001 123 129 93 255
-0.51920706 -0.043798193 1.6680001 121 130 91 255
-0.51469201 -0.043801643 1.6680001 125 134 95 255
-0.51078832 -0.043857645 1.6700001 113 121 86 255
-0.50717658 -0.043939948 1.6730001 122 130 95 255
-0.50324768 -0.043996025 1.6750001 124 132 97 255
-0.49900976 -0.044025864 1.6760001 118 126 90 255
-0.49476591 -0.044055734 1.677 114 120 84 255
-0.49080855 -0.044111907 1.6790001 102 107 67 255
-0.4868398 -0.044168107 1.6810001 99 104 62 255
-0.48257276 -0.044198055 1.682 103 108 66 255
-0.47829971 -0.044228029 1.6830001 109 117 74 255
-0.47430217 -0.044284303 1.6850001 116 124 81 255
-0.46973565 -0.044288035 1.6850001 113 120 80 255
-0.46461639 -0.044239219 1.6830001 113 120 80 255
-0.45868722 -0.044111535 1.6780001 126 133 93 255
-0.45278457 -0.043983839 1.6730001 125 133 97 255
-0.44717622 -0.043882426 1.669 123 131 95 255
-0.44238463 -0.043859892 1.6680001 126 134 98 255
-0.43812269 -0.043889951 1.669 123 131 95 255
-0.43385461 -0.043920022 1.6700001 115 123 87 255
-0.43009454 -0.044002704 1.6730001 115 123 87 255
-0.42606309 -0.044059105 1.6750001 118 124 88 255
-0.42176834 -0.044089209 1.6760001 109 117 82 255
-0.41721848 -0.044093009 1.6760001 114 122 86 255
-0.41242158 -0.044070501 1.6750001 115 123 87 255
-0.4078728 -0.044074293 1.6750001 116 124 89 255
-0.40332326 -0.044078093 1.6750001 117 127 92 255
-0.39901102 -0.044108208 1.6760001 120 128 93 255
-0.39422169 -0.044085678 1.6750001 119 129 94 255
-0.3896696 -0.044089455 1.6750001 124 136 103 255
-0.38442698 -0.04401426 1.6720001 148 160 127 255
-0.37919971 -0.043939035 1.669 130 142 107 255
-0.37421247 -0.043890122 1.6670001 107 117 82 255
-0.36967871 -0.043893848 1.6670001 106 117 80 255
-0.36514413 -0.043897565 1.6670001 117 126 87 255
-0.36017597 -0.043848597 1.6650001 154 163 124 255
-0.35564509 -0.043852285 1.6650001 129 138 99 255
-0.3511132 -0.04385595 1.6650001 89 96 57 255
-0.34720495 -0.043938629 1.6680001 83 89 53 255
-0.34266317 -0.043942273 1.6680001 88 92 56 255
-0.33812049 -0.043945894 1.6680001 118 122 87 255
-0.33317697 -0.043896805 1.6660001 117 123 88 255
-0.32883516 -0.043926731 1.6670001 116 124 89 255
-0.32429248 -0.043930292 1.6670001 119 127 91 255
-0.31994075 -0.04396018 1.6680001 117 128 91 255
-0.31558254 -0.043990046 1.669 117 126 95 255
-0.31140444 -0.044046257 1.6710001 111 118 87 255
-0.3072145 -0.044102453 1.6730001 18 20 2 255
-0.30265093 -0.044105899 1.6730001 27 29 11 255
-0.29773009 -0.044056587 1.6710001 32 30 12 255
-0.29299468 -0.044033602 1.6700001 33 31 13 255
-0.28826383 -0.04401058 1.669 33 33 15 255
-0.28404757 -0.044066641 1.6710001 23 25 8 255
-0.27915043 -0.044017181 1.669 88 92 75 255
-0.27393425 -0.043914933 1.6650001 79 86 74 255
-0.26857725 -0.043786258 1.6600001 74 83 72 255
-0.26356483 -0.043710288 1.6570001 75 84 73 255
-0.25841162 -0.043607891 1.6530001 71 80 69 255
-0.25389376 -0.043610968 1.6530001 67 76 65 255
-0.24907333 -0.043561246 1.651 61 70 59 255
-0.24470738 -0.043590631 1.6520001 69 75 67 255
-0.24004431 -0.043567203 1.651 72 80 72 255
-0.23538592 -0.043543737 1.6500001 77 83 75 255
-0.23031236 -0.04344105 1.646 77 83 75 255
-0.22553432 -0.043391097 1.6440001 76 83 71 255
-0.22103524 -0.04339388 1.6440001 73 80 68 255
-0.21640372 -0.043370228 1.6430001 58 66 51 255
-0.21190585 -0.043372925 1.6430001 56 61 47 255
-0.20728095 -0.043349177 1.6420001 38 46 31 255
-0.20266075 -0.043325379 1.641 70 77 65 255
-0.19792454 -0.043275129 1.6390001 62 69 57 255
-0.19331656 -0.043251235 1.6380001 78 87 76 255
-0.18859805 -0.04320088 1.636 76 85 74 255
-0.18377724 -0.043124069 1.6330001 68 76 68 255
-0.1791918 -0.043100014 1.6320001 73 81 73 255
-0.17461111 -0.043075904 1.631 84 93 82 255
-0.17024389 -0.04310457 1.6320001 62 71 60 255
-0.16607364 -0.043186016 1.6350001 68 77 66 255
-0.16198514 -0.043293834 1.6390001 56 65 53 255
-0.15748972 -0.043295942 1.6390001 50 57 46 255
-0.15290031 -0.043271583 1.6380001 54 61 50 255
-0.14813456 -0.043194328 1.6350001 60 67 55 255
-0.14373611 -0.043222688 1.636 72 79 67 255
-0.13924649 -0.043224581 1.636 69 76 64 255
-0.13475631 -0.043226421 1.636 63 68 56 255
-0.13026558 -0.043228202 1.636 65 70 56 255
-0.12577431 -0.043229926 1.636 64 67 53 255
-0.12113428 -0.043178752 1.6340001 62 67 55 255
-0.11657609 -0.043153938 1.6330001 69 74 62 255
-0.11202292 -0.04312906 1.6320001 80 87 76 255
-0.10754067 -0.043130558 1.6320001 70 79 68 255
-0.10299483 -0.043105569 1.631 48 57 46 255
-0.098393649 -0.043054089 1.6290001 69 78 67 255
-0.093918338 -0.043055404 1.6290001 79 88 77 255
-0.089442641 -0.043056663 1.6290001 61 68 57 255
-0.085070878 -0.043110728 1.631 66 73 62 255
-0.080539539 -0.043085437 1.6300001 59 66 55 255
-0.076106668 -0.043112952 1.631 58 65 54 255
-0.071667977 -0.043140408 1.6320001 59 66 54 255
-0.067182317 -0.043141369 1.6320001 66 73 62 255
-0.062696375 -0.043142274 1.6320001 58 65 54 255
-0.058174487 -0.043116674 1.631 53 60 49 255
-0.053690765 -0.043117449 1.631 49 56 45 255
-0.049146477 -0.043065298 1.6290001 41 48 37 255
-0.044585548 -0.042986639 1.626 96 102 94 255
-0.040040921 -0.042907916 1.623 62 69 58 255
-0.035556465 -0.042882007 1.6220001 61 68 57 255
-0.031096524 -0.042882472 1.6220001 65 70 58 255
-0.026636446 -0.042882875 1.6220001 67 72 61 255
-0.022148909 -0.042830341 1.6200001 73 80 69 255
-0.017672272 -0.042777743 1.618 73 79 71 255
-0.013206558 -0.042725079 1.6160001 77 83 76 255
-0.0087680565 -0.042751674 1.6170001 77 83 75 255
-0.0043240148 -0.042778201 1.618 69 75 67 255
0.00012554522 -0.04280467 1.6190001 65 72 61 255
0.0045777778 -0.04280464 1.6190001 65 72 61 255
0.0090355668 -0.042830985 1.6200001 64 71 59 255
0.013490491 -0.042830829 1.6200001 62 69 57 255
0.017967509 -0.042883482 1.6220001 63 68 56 255
0.022441622 -0.042909641 1.623 57 64 52 255
0.026921134 -0.042935729 1.6240001 61 68 56 255
0.03136738 -0.042908885 1.623 58 65 54 255
0.035830062 -0.042908415 1.623 61 68 57 255
0.040242936 -0.042855009 1.6210001 64 69 57 255
0.044699792 -0.042854417 1.6210001 62 67 55 255
0.049186777 -0.042880204 1.6220001 63 70 59 255
0.053712122 -0.042932358 1.6240001 63 70 58 255
0.058176585 -0.042931579 1.6240001 62 69 58 255
0.062602222 -0.042904302 1.623 62 69 58 255
0.067104734 -0.042929843 1.6240001 63 70 59 255
0.071524329 -0.042902447 1.623 62 69 58 255
0.075938106 -0.042874996 1.6220001 60 67 55 255
0.08024694 -0.042794615 1.6190001 62 69 58 255
0.084591255 -0.042740617 1.6170001 65 72 60 255
0.089034334 -0.042739421 1.6170001 70 77 65 255
0.093419231 -0.042711735 1.6160001 71 78 67 255
0.09791936 -0.042736858 1.6170001 69 76 65 255
0.10236126 -0.042735487 1.6170001 65 72 60 255
0.10686877 -0.042760484 1.618 62 67 56 255
0.11124375 -0.042732574 1.6170001 58 63 52 255
0.11561277 -0.042704605 1.6160001 66 71 59 255
0.11997582 -0.042676583 1.6150001 60 65 54 255
0.12433289 -0.042648505 1.6140001 62 69 58 255
0.12860416 -0.042593952 1.6120001 65 72 61 255
0.13294645 -0.04256577 1.6110001 65 73 65 255
0.13745327 -0.042590383 1.6120001 61 69 62 255
0.14178896 -0.04256209 1.6110001 89 97 90 255
0.14584637 -0.042454503 1.6070001 91 99 92 255
0.1496942 -0.042294029 1.6010001 85 91 84 255
0.15379727 -0.042212766 1.598 67 73 65 255
0.15818021 -0.042210702 1.598 83 90 79 255
0.16246082 -0.042182181 1.5970001 79 86 75 255
0.16673528 -0.042153608 1.5960001 64 71 60 255
0.17089644 -0.042098586 1.5940001 66 72 64 255
0.17526583 -0.042096328 1.5940001 67 73 65 255
0.17985995 -0.042146843 1.5960001 91 97 89 255
0.18446435 -0.042197302 1.598 62 68 60 255
0.18884265 -0.042194903 1.598 64 68 60 255
0.19297846 -0.042139649 1.5960001 64 68 60 255
0.19710253 -0.042084351 1.5940001 69 74 63 255
0.20134133 -0.042055421 1.5930001 69 76 65 255
0.20557395 -0.042026453 1.5920001 64 73 62 255
0.2096684 -0.041971039 1.59 65 74 63 255
0.2138858 -0.041941989 1.5890001 83 92 81 255
0.21809694 -0.041912898 1.5880001 92 101 90 255
0.22202167 -0.04183099 1.585 62 71 60 255
0.22592922 -0.041749053 1.582 67 74 62 255
0.22996509 -0.041693471 1.58 65 72 61 255
0.23413754 -0.04166425 1.5790001 76 84 76 255
0.23815268 -0.041608609 1.577 73 79 71 255
0.24215607 -0.041552939 1.575 95 101 94 255
0.2463042 -0.04152362 1.5740001 93 99 92 255
0.25060529 -0.041520648 1.5740001 60 67 56 255
0.25474358 -0.04149127 1.5730001 62 69 58 255
0.25887555 -0.041461855 1.572 63 70 59 255
0.26283386 -0.041406047 1.5700001 66 72 64 255
0.2672908 -0.041429322 1.5710001 87 93 85 255
0.27106088 -0.04134709 1.5680001 79 85 78 255
0.2751649 -0.041317571 1.567 71 77 69 255
0.27926269 -0.041288033 1.5660001 71 78 67 255
0.28335416 -0.041258469 1.5650001 71 78 67 255
0.28707173 -0.041176163 1.562 69 75 67 255
0.29095861 -0.041120205 1.5600001 74 81 70 255
0.29483372 -0.041064225 1.5580001 75 83 76 255
0.29908103 -0.041060943 1.5580001 87 95 88 255
0.30352214 -0.041083988 1.559 81 89 81 255
0.30777043 -0.041080657 1.559 72 80 72 255
0.3122181 -0.041103657 1.5600001 68 76 68 255
0.31606171 -0.041047592 1.5580001 73 82 71 255
0.3198936 -0.040991522 1.5560001 76 82 74 255
0.32392207 -0.04096178 1.5550001 78 84 76 255
0.32815528 -0.040958371 1.5550001 79 86 75 255
0.33238766 -0.040954944 1.5550001 73 82 71 255
0.33683568 -0.040977836 1.5560001 71 80 69 255
0.34063068 -0.04092171 1.554 71 80 69 255
0.34463599 -0.040891916 1.5530001 71 79 71 255
0.34885967 -0.040888444 1.5530001 75 83 75 255
0.35353717 -0.040937614 1.5550001 73 79 71 255
0.35776466 -0.040934116 1.5550001 74 80 72 255
0.36199135 -0.040930614 1.5550001 73 79 71 255
0.36574623 -0.040874463 1.5530001 73 79 71 255
0.36972767 -0.04084463 1.552 74 80 72 255
0.37394384 -0.040841114 1.552 74 81 70 255
0.37815931 -0.040837601 1.552 72 79 67 255
0.38286671 -0.0408867 1.554 73 78 66 255
0.38708606 -0.040883172 1.554 74 79 67 255
0.39155653 -0.040905956 1.5550001 72 77 65 255
0.39552265 -0.040876128 1.554 72 77 65 255
0.40025434 -0.040925212 1.5560001 70 75 63 255
0.40447631 -0.040921692 1.5560001 69 74 62 255
0.40922287 -0.040970769 1.5580001 68 73 59 255
0.41344887 -0.040967252 1.5580001 68 73 59 255
0.41740608 -0.04093745 1.557 71 74 60 255
0.42135736 -0.04090767 1.5560001 71 76 62 255
0.42530254 -0.040877894 1.5550001 69 74 60 255
0.42951784 -0.040874418 1.5550001 67 75 60 255
0.4337326 -0.040870961 1.5550001 68 76 61 255
0.43822849 -0.040893804 1.5560001 65 73 56 255
0.44272909 -0.040916644 1.557 68 73 59 255
0.44637352 -0.040860672 1.5550001 64 69 57 255
0.45087585 -0.040883552 1.5560001 66 71 59 255
0.45509064 -0.040880173 1.5560001 71 78 67 255
0.45930496 -0.04087681 1.5560001 72 78 70 255
0.46232721 -0.040768396 1.552 73 79 71 255
0.46562791 -0.040686283 1.549 81 87 79 255
0.46891201 -0.040604215 1.5460001 86 92 84 255
0.47187352 -0.040495921 1.5420001 78 85 74 255
0.47635654 -0.040518966 1.5430001 74 81 70 255
0.48146752 -0.040594552 1.5460001 75 82 70 255
0.48659435 -0.040670149 1.549 75 82 70 255
0.49015301 -0.040614497 1.5470001 72 79 67 255
0.49370044 -0.040558886 1.5450001 72 79 68 255
0.49788144 -0.04055582 1.5450001 74 81 69 255
0.50238711 -0.040579032 1.5460001 75 82 71 255
0.50689805 -0.040602274 1.5470001 72 79 68 255
0.51174456 -0.040651791 1.549 77 84 72 255
0.51593554 -0.040648852 1.549 73 80 69 255
0.52046233 -0.040672198 1.5500001 70 77 66 255
0.52533293 -0.040721823 1.552 71 78 66 255
0.53157902 -0.040876422 1.5580001 74 79 65 255
0.53648204 -0.040926106 1.5600001 74 79 65 255
0.54104918 -0.040949598 1.5610001 71 74 60 255
0.54492325 -0.040920667 1.5600001 53 56 42 255
0.54808795 -0.040839329 1.557 49 52 40 255
0.55123645 -0.040758047 1.554 53 58 46 255
0.55472642 -0.040703066 1.552 54 61 50 255
0.55784553 -0.040621907 1.549 61 66 55 255
0.56203717 -0.040619481 1.549 76 81 70 255
0.56659466 -0.040643331 1.5500001 77 84 72 255
0.57152605 -0.040693454 1.552 27 34 22 255
0.57461381 -0.040612537 1.549 30 37 25 255
0.5788067 -0.040610339 1.549 77 84 72 255
0.583 -0.040608201 1.549 73 81 66 255
0.58871019 -0.040710989 1.5530001 43 51 36 255
0.59253347 -0.040682759 1.552 69 72 58 255
0.59673631 -0.040680803 1.552 68 74 57 255
0.5993911 -0.040574081 1.5480001 69 75 58 255
0.60202461 -0.040467426 1.544 71 74 60 255
0.60581517 -0.040439487 1.5430001 69 74 60 255
0.6099962 -0.040437818 1.5430001 74 79 67 255
0.61417812 -0.040436227 1.5430001 73 80 68 255
0.61755919 -0.040382292 1.5410001 74 79 68 255
0.6217373 -0.04038085 1.5410001 77 82 71 255
0.6259163 -0.040379487 1.5410001 82 85 73 255
0.63091391 -0.040430605 1.5430001 11 14 2 255
0.63674653 -0.040534198 1.5470001 25 28 16 255
0.63970184 -0.040454462 1.544 23 26 14 255
0.64222485 -0.040348615 1.5400001 20 23 9 255
0.64514703 -0.040269058 1.5370001 22 25 11 255
0.64847654 -0.040215787 1.5350001 21 24 10 255
0.65264672 -0.040215001 1.5350001 22 25 11 255
0.65596253 -0.040161915 1.5330001 21 24 10 255
0.65883815 -0.040082715 1.5300001 20 23 9 255
0.66039878 -0.03992502 1.524 20 23 9 255
0.66498071 -0.039950803 1.5250001 20 23 9 255
0.66956943 -0.039976675 1.526 22 25 11 255
0.67504817 -0.040055044 1.529 21 24 10 255
0.67921221 -0.040054914 1.529 21 24 10 255
0.68516582 -0.040159676 1.5330001 22 25 11 255
0.68709588 -0.040028766 1.5280001 22 26 9 255
0.69035763 -0.039976552 1.526 21 25 8 255
0.69315523 -0.039898239 1.5230001 28 30 13 255
0.69776982 -0.039924823 1.524 26 28 10 255
0.69732541 -0.039663345 1.5140001 32 34 16 255
0.70007157 -0.039585348 1.511 29 31 13 255
0.70326948 -0.039533664 1.5090001 30 32 14 255
0.707865 -0.039560683 1.5100001 28 32 15 255
0.71435428 -0.039692618 1.5150001 25 31 14 255
0.72134739 -0.039850876 1.521 18 28 13 255
0.72599095 -0.03987826 1.5220001 72 81 69 255
0.72728401 -0.039722342 1.516 143 153 142 255
0.72806442 -0.039540336 1.5090001 160 170 161 255
0.72929412 -0.039384644 1.503 167 175 168 255
-0.99664813 -0.051111404 1.7620001 27 29 12 255
-0.99674869 -0.051364735 1.771 32 34 17 255
-1.010245 -0.052314214 1.8040001 41 43 26 255
-0.95575845 -0.049980387 1.7240001 30 29 15 255
-0.96747106 -0.05084338 1.7540001 25 24 8 255
-0.95158225 -0.050257206 1.7340001 26 25 9 255
-0.92052311 -0.048859961 1.6860001 38 40 23 255
-0.91906965 -0.049027983 1.692 39 41 24 255
-0.95962292 -0.051711086 1.7850001 25 28 14 255
-0.90972412 -0.049272355 1.7010001 20 23 9 255
-0.91562968 -0.049846563 1.7210001 21 22 10 255
-0.92566252 -0.050652537 1.7490001 19 19 9 255
-0.93817651 -0.051603343 1.7820001 20 20 10 255
-0.93689567 -0.051801335 1.789 19 19 9 255
-0.93349695 -0.051883679 1.7920001 19 17 7 255
-0.93164015 -0.052053053 1.7980001 21 17 7 255
-0.92460066 -0.05193311 1.794 18 19 7 255
-0.90938562 -0.051350243 1.774 19 17 6 255
-0.90550196 -0.05140442 1.7760001 19 16 0 255
-0.90972465 -0.051921837 1.794 16 18 0 255
-0.9072957 -0.052063152 1.7990001 26 16 0 255
-0.9028365 -0.052088875 1.8000001 40 26 9 255
-0.89987189 -0.052201584 1.8040001 42 27 8 255
-0.89788103 -0.052372321 1.8100001 45 28 8 255
-0.89388734 -0.052427486 1.812 49 32 12 255
-0.8884145 -0.052396018 1.8110001 55 36 14 255
-0.88295043 -0.052364729 1.8100001 56 38 14 255
-0.87798017 -0.052362535 1.8100001 61 43 17 255
-0.87494248 -0.05247622 1.8140001 67 47 21 255
-0.86996758 -0.052474357 1.8140001 69 50 21 255
-0.86642605 -0.05255942 1.817 72 50 22 255
-0.86144882 -0.052557871 1.817 76 55 23 255
-0.85788846 -0.052643247 1.8200001 80 57 25 255
-0.85243994 -0.052613072 1.8190001 79 56 24 255
-0.84793133 -0.052640904 1.8200001 81 58 26 255
-0.84203035 -0.052582115 1.8180001 83 60 28 255
-0.83752429 -0.052610241 1.8190001 85 62 30 255
-0.83209956 -0.052580662 1.8180001 90 66 38 255
-0.82577288 -0.05249339 1.8150001 86 66 42 255
-0.80996764 -0.051798899 1.7910001 52 40 21 255
-0.77991092 -0.050179053 1.7350001 233 237 220 255
-0.75775713 -0.049051017 1.6960001 225 228 216 255
-0.74558723 -0.048559383 1.6790001 221 230 218 255
-0.73615992 -0.048241399 1.6680001 214 224 209 255
-0.72898728 -0.048068136 1.6620001 206 216 201 255
-0.72315669 -0.04798175 1.659 213 223 208 255
-0.71734416 -0.047895487 1.6560001 218 228 213 255
-0.71068847 -0.047751483 1.651 222 232 217 255
-0.70406151 -0.047607582 1.646 213 223 206 255
-0.69788826 -0.047492713 1.6420001 214 223 204 255
-0.69173813 -0.04737794 1.6380001 200 209 188 255
-0.68645012 -0.047321111 1.636 185 193 168 255
-0.6807574 -0.047235463 1.6330001 171 178 147 255
-0.67591053 -0.047207754 1.6320001 145 155 122 255
-0.67024732 -0.047122288 1.6290001 122 133 96 255
-0.66541892 -0.04709477 1.628 136 147 110 255
-0.66059697 -0.047067337 1.6270001 128 140 107 255
-0.65618479 -0.047068931 1.6270001 129 140 109 255
-0.65177357 -0.047070615 1.6270001 140 151 120 255
-0.64696527 -0.047043446 1.626 141 150 119 255
-0.64255846 -0.047045302 1.626 143 152 121 255
-0.63854486 -0.047076169 1.6270001 150 160 127 255
-0.63452661 -0.047107123 1.628 140 148 112 255
-0.63050359 -0.047138162 1.6290001 130 138 102 255
-0.62686026 -0.047198217 1.631 126 133 94 255
-0.62320662 -0.047258358 1.6330001 125 132 92 255
-0.61992162 -0.04734752 1.636 112 119 79 255
-0.61586857 -0.047378883 1.6370001 120 126 81 255
-0.61255741 -0.0474682 1.6400001 125 129 84 255
-0.60885984 -0.047528662 1.6420001 122 126 81 255
-0.60515165 -0.04758919 1.6440001 94 98 53 255
-0.60106772 -0.047620855 1.6450001 89 92 50 255
-0.59734136 -0.047681529 1.6470001 97 101 63 255
-0.59324443 -0.047713324 1.6480001 125 129 93 255
-0.58878511 -0.047716234 1.6480001 115 121 85 255
-0.58361679 -0.04766129 1.646 120 126 91 255
-0.57881141 -0.047635358 1.6450001 126 132 97 255
-0.57436067 -0.047638442 1.6450001 121 126 94 255
-0.57025635 -0.047670532 1.646 124 129 97 255
-0.56614679 -0.047702689 1.6470001 124 130 95 255
-0.56237292 -0.047763869 1.649 121 127 92 255
-0.55824977 -0.047796138 1.6500001 124 128 92 255
-0.55445689 -0.04785743 1.6520001 124 128 92 255
-0.55032009 -0.047889806 1.6530001 124 130 95 255
-0.54650801 -0.04795121 1.6550001 121 127 92 255
-0.54268497 -0.048012659 1.6570001 123 129 94 255
-0.53820133 -0.048016209 1.6570001 122 128 93 255
-0.53436166 -0.048077758 1.659 123 128 96 255
-0.5301916 -0.048110381 1.6600001 118 124 89 255
-0.52664918 -0.048201013 1.6630001 118 124 89 255
-0.5230903 -0.048291694 1.6660001 116 124 89 255
-0.51920348 -0.04835343 1.6680001 119 127 92 255
-0.51499695 -0.048386224 1.669 119 127 92 255
-0.51047879 -0.048390061 1.669 111 118 86 255
-0.50656652 -0.048451923 1.6710001 117 124 92 255
-0.50264305 -0.048513819 1.6730001 110 118 83 255
-0.499006 -0.048604757 1.6760001 110 118 83 255
-0.49505717 -0.048666731 1.6780001 110 116 80 255
-0.49138936 -0.048757739 1.6810001 104 109 69 255
-0.48741516 -0.048819784 1.6830001 100 105 63 255
-0.48285577 -0.048823841 1.6830001 99 107 64 255
-0.4782958 -0.048827913 1.6830001 104 112 69 255
-0.47429827 -0.048890036 1.6850001 114 122 77 255
-0.47001058 -0.048923176 1.6860001 113 121 78 255
-0.46571666 -0.048956327 1.687 112 120 75 255
-0.46032339 -0.048873417 1.6840001 114 122 79 255
-0.4535926 -0.048645377 1.6760001 117 126 86 255
-0.44744018 -0.048475359 1.6700001 123 131 95 255
-0.44211549 -0.048392419 1.6670001 125 136 99 255
-0.43759367 -0.048396561 1.6670001 124 132 96 255
-0.43333104 -0.048429754 1.6680001 119 127 91 255
-0.42931932 -0.048491992 1.6700001 116 124 88 255
-0.42555037 -0.048583288 1.6730001 117 123 87 255
-0.42151263 -0.048645545 1.6750001 113 121 86 255
-0.41696551 -0.048649736 1.6750001 112 120 84 255
-0.41217133 -0.048624877 1.674 111 119 83 255
-0.40762532 -0.048629064 1.674 118 126 90 255
-0.40283772 -0.048604198 1.6730001 114 122 86 255
-0.39853081 -0.048637424 1.674 121 129 93 255
-0.39398235 -0.048641603 1.674 116 126 91 255
-0.38966563 -0.048674826 1.6750001 141 153 120 255
-0.38419309 -0.048562743 1.6710001 143 155 120 255
-0.37896863 -0.048479695 1.6680001 125 135 100 255
-0.3739841 -0.048425689 1.6660001 104 115 78 255
-0.36967477 -0.048458859 1.6670001 104 113 74 255
-0.36492121 -0.048433892 1.6660001 122 131 92 255
-0.36017209 -0.048408892 1.6650001 146 155 116 255
-0.35542756 -0.04838388 1.664 128 137 98 255
-0.35110936 -0.048417006 1.6650001 96 105 66 255
-0.34720111 -0.048508275 1.6680001 84 90 54 255
-0.34265935 -0.048512291 1.6680001 84 90 54 255
-0.3377113 -0.048458118 1.6660001 116 122 86 255
-0.33297318 -0.048432995 1.6650001 118 124 89 255
-0.32843688 -0.04843694 1.6650001 117 125 90 255
-0.32409424 -0.048469953 1.6660001 115 123 87 255
-0.31974518 -0.048502944 1.6670001 115 126 89 255
-0.31557888 -0.048565011 1.669 111 120 89 255
-0.31140077 -0.048627064 1.6710001 115 122 93 255
-0.30702722 -0.048659991 1.6720001 16 19 0 255
-0.30228552 -0.048634689 1.6710001 26 28 8 255
-0.29772651 -0.048638452 1.6710001 31 29 11 255
-0.29299113 -0.048613071 1.6700001 33 31 13 255
-0.28843307 -0.048616767 1.6700001 33 33 15 255
-0.28404409 -0.048649546 1.6710001 23 25 8 255
-0.27931422 -0.048624054 1.6700001 70 74 57 255
-0.27376634 -0.048452932 1.664 72 79 67 255
-0.26873568 -0.048369113 1.6610001 72 81 70 255
-0.2637206 -0.048285242 1.6580001 73 82 70 255
-0.25887734 -0.048230439 1.6560001 72 81 69 255
-0.25404412 -0.048175585 1.654 60 69 58 255
-0.24907015 -0.048091561 1.651 60 69 58 255
-0.24485238 -0.048153132 1.6530001 59 67 59 255
-0.24004124 -0.048098132 1.651 71 79 71 255
-0.23538288 -0.048072223 1.6500001 68 75 64 255
-0.23058926 -0.048017133 1.6480001 75 82 71 255
-0.22594291 -0.047991119 1.6470001 76 83 71 255
-0.22130126 -0.047965053 1.646 70 77 65 255
-0.21653256 -0.047909796 1.6440001 52 60 45 255
-0.21190304 -0.04788363 1.6430001 52 57 43 255
-0.20715195 -0.047828268 1.641 54 61 49 255
-0.20253454 -0.04780199 1.6400001 66 73 61 255
-0.19792189 -0.04777566 1.6390001 62 69 57 255
-0.19343196 -0.047778428 1.6390001 74 83 72 255
-0.18871078 -0.047722831 1.6370001 71 80 69 255
-0.18399984 -0.047667183 1.6350001 68 76 68 255
-0.17940894 -0.047640629 1.6340001 72 80 72 255
-0.17492989 -0.047643177 1.6340001 85 94 83 255
-0.17024153 -0.047587343 1.6320001 67 76 65 255
-0.16586821 -0.047618937 1.6330001 68 77 66 255
-0.16148874 -0.047650471 1.6340001 55 64 52 255
-0.15719925 -0.047711119 1.636 52 59 48 255
-0.15271148 -0.047713388 1.636 54 61 50 255
-0.14813249 -0.047686428 1.6350001 71 78 66 255
-0.14347054 -0.047630243 1.6330001 75 82 70 255
-0.13915944 -0.04769066 1.6350001 63 70 58 255
-0.13467205 -0.047692679 1.6350001 59 64 52 255
-0.13034336 -0.047752988 1.6370001 61 66 52 255
-0.12561877 -0.047667377 1.6340001 63 68 54 255
-0.12113255 -0.047669217 1.6340001 59 64 52 255
-0.11650303 -0.047612645 1.6320001 66 73 62 255
-0.11195267 -0.047585182 1.631 77 84 73 255
-0.10747324 -0.047586832 1.631 69 77 69 255
-0.10299335 -0.047588423 1.631 52 61 50 255
-0.098392233 -0.047531586 1.6290001 68 76 68 255
-0.093859322 -0.047503855 1.628 78 86 78 255
-0.089331545 -0.047476068 1.6270001 54 61 50 255
-0.084965326 -0.047535747 1.6290001 53 60 49 255
-0.080488957 -0.047537003 1.6290001 59 66 55 255
-0.076058909 -0.047567382 1.6300001 56 63 52 255
-0.071579114 -0.047568507 1.6300001 62 69 57 255
-0.067057848 -0.047540382 1.6290001 70 77 66 255
-0.06254179 -0.047512189 1.628 56 63 52 255
-0.058102302 -0.047542296 1.6290001 43 50 39 255
-0.053624149 -0.047543157 1.6290001 50 57 46 255
-0.04908542 -0.047485575 1.6270001 66 75 64 255
-0.044502631 -0.047369547 1.623 81 89 81 255
-0.039990995 -0.047311824 1.6210001 59 66 55 255
-0.035534021 -0.047312401 1.6210001 60 67 56 255
-0.031057725 -0.047283731 1.6200001 63 70 59 255
-0.026603213 -0.047284178 1.6200001 68 75 64 255
-0.022121239 -0.047226176 1.618 72 78 70 255
-0.017661091 -0.047197293 1.6170001 72 78 70 255
-0.013198194 -0.04713916 1.6150001 78 84 76 255
-0.0087625049 -0.047168512 1.6160001 66 72 64 255
-0.0043266239 -0.047256183 1.6190001 62 69 58 255
0.00012562094 -0.047285404 1.6200001 61 68 57 255
0.0045861923 -0.047343742 1.6220001 62 69 58 255
0.0090521658 -0.047372818 1.623 64 69 58 255
