ply
format ascii 1.0
comment PCL generated
element vertex 990
property float x
property float y
property float z
property uchar red
property uchar green
property uchar blue
property uchar alpha
element camera 0
property float view_px
property float view_py
property float view_pz
property float x_axisx
property float x_axisy
property float x_axisz
property float y_axisx
property float y_axisy
property float y_axisz
property float z_axisx
property float z_axisy
property float z_axisz
property float focal
property float scalex
property float scaley
property float centerx
property float centery
property int viewportx
property int viewporty
property float k1
property float k2
end_header
0.42774767 -0.27681497 1.7580001 78 82 75 255
0.43301407 -0.27711049 1.7600001 79 83 76 255
0.43829066 -0.27740595 1.7620001 77 81 74 255
0.44382906 -0.27785888 1.7650001 77 81 74 255
0.44938302 -0.27831179 1.7680001 79 82 78 255
0.45546663 -0.27907953 1.7730001 76 80 73 255
0.46053833 -0.27921757 1.774 73 77 70 255
0.46509019 -0.27904093 1.7730001 74 77 73 255
0.46910614 -0.27854967 1.7700001 72 75 71 255
0.47390839 -0.2785306 1.7700001 70 74 67 255
0.47816932 -0.27819693 1.7680001 72 76 69 255
0.48269209 -0.27802074 1.7670001 74 78 71 255
0.48638132 -0.27737275 1.7630001 77 81 74 255
0.49060559 -0.27703953 1.761 78 81 77 255
0.49481857 -0.27670652 1.7590001 83 86 82 255
0.49902031 -0.27637368 1.7570001 85 90 87 255
0.5034976 -0.2761983 1.756 84 88 88 255
0.50767964 -0.27586579 1.7540001 82 86 86 255
0.51214266 -0.27569076 1.7530001 83 87 87 255
0.51601028 -0.27520141 1.7500001 90 94 94 255
0.52075398 -0.27518409 1.7500001 91 95 97 255
0.52519715 -0.2750096 1.7490001 96 100 102 255
0.52963471 -0.27483541 1.748 96 100 102 255
0.53223246 -0.27371809 1.7410001 97 101 103 255
0.5363341 -0.27338716 1.7390001 98 100 102 255
0.54198045 -0.27384251 1.7420001 90 92 92 255
0.54889816 -0.27492675 1.7490001 19 22 19 255
0.5539546 -0.27506804 1.7500001 18 21 18 255
0.55773926 -0.27458081 1.7470001 85 88 84 255
0.56215161 -0.27440825 1.7460001 45 51 44 255
0.5665586 -0.27423599 1.7450001 43 46 42 255
0.57030535 -0.27374971 1.7420001 61 66 62 255
0.57370591 -0.2731066 1.738 77 82 78 255
0.57775033 -0.27277809 1.7360001 84 89 85 255
0.5821197 -0.27260709 1.7350001 86 91 87 255
0.58682197 -0.27259347 1.7350001 72 77 74 255
0.5908426 -0.27226594 1.733 74 77 74 255
0.5938217 -0.27146751 1.728 83 86 83 255
0.59712029 -0.27082655 1.7240001 93 97 97 255
0.60109574 -0.27050015 1.7220001 83 87 87 255
0.60506064 -0.27017412 1.72 86 89 86 255
0.60866058 -0.26969144 1.7170001 89 92 89 255
0.61295909 -0.26952323 1.7160001 87 90 86 255
0.61653274 -0.26904133 1.7130001 58 59 53 255
0.62045342 -0.2687169 1.7110001 18 20 12 255
0.62326777 -0.26792175 1.7060001 22 24 14 255
0.62679154 -0.26744109 1.7030001 22 25 13 255
0.63029975 -0.26696092 1.7 21 24 12 255
0.63453931 -0.26679525 1.6990001 20 25 13 255
0.63952649 -0.26694405 1.7 20 23 11 255
0.63921523 -0.26489499 1.687 23 26 14 255
0.64188719 -0.26410264 1.682 21 24 12 255
0.64530146 -0.26362476 1.6790001 20 23 11 255
0.64947456 -0.26346141 1.6780001 20 23 11 255
0.65208393 -0.26267052 1.6730001 21 26 14 255
0.65427476 -0.26172313 1.6670001 20 25 13 255
0.65801471 -0.26140425 1.6650001 20 23 11 255
0.66293877 -0.26155692 1.6660001 24 27 15 255
0.66626674 -0.26108202 1.6630001 24 27 15 255
0.66917622 -0.26045072 1.659 23 26 12 255
0.67409563 -0.26060489 1.6600001 24 27 13 255
0.67902178 -0.26075959 1.6610001 24 27 13 255
0.68025094 -0.25950193 1.6530001 24 27 13 255
0.68102366 -0.25808784 1.6440001 26 29 17 255
0.67674512 -0.25479046 1.623 27 29 19 255
0.68326581 -0.25557533 1.628 27 29 19 255
0.67883235 -0.25227913 1.6070001 29 31 21 255
0.67641163 -0.24976839 1.5910001 28 31 19 255
0.67989558 -0.24945608 1.5890001 31 34 20 255
0.68121713 -0.24835935 1.582 32 36 19 255
0.69030243 -0.25008911 1.5930001 28 32 15 255
0.69421673 -0.24993555 1.5920001 31 35 18 255
0.6985662 -0.24993964 1.5920001 30 33 19 255
0.69850218 -0.24837431 1.582 33 36 24 255
0.70682663 -0.24979267 1.5910001 28 35 24 255
0.71386135 -0.25074071 1.5970001 24 30 22 255
0.71868217 -0.25090438 1.598 97 104 100 255
0.72215331 -0.25059772 1.5960001 149 156 153 255
0.72561586 -0.25029171 1.5940001 173 179 182 255
0.72815371 -0.24967231 1.59 180 185 191 255
0.7302112 -0.24889652 1.585 182 187 193 255
0.72992659 -0.24733622 1.575 184 189 195 255
0.73052192 -0.24609062 1.567 187 192 198 255
0.73060691 -0.24468856 1.5580001 186 191 197 255
0.73253179 -0.24391532 1.5530001 188 193 199 255
0.73585516 -0.24361399 1.5510001 188 193 199 255
0.73821586 -0.24299921 1.5470001 189 192 198 255
0.73959744 -0.24207094 1.5410001 189 195 198 255
0.73901796 -0.24051496 1.531 189 195 198 255
0.73838639 -0.23895954 1.521 193 196 202 255
0.73867899 -0.23771895 1.5130001 195 198 204 255
0.74089426 -0.23710746 1.5090001 194 197 203 255
0.74259692 -0.23633955 1.5040001 196 199 205 255
1.0970513 -0.25178736 1.575 211 212 218 255
1.1159438 -0.25510716 1.595 212 213 219 255
1.1053145 -0.24872966 1.552 211 212 218 255
-0.75068921 -0.28764153 1.8010001 167 167 165 255
-0.73418838 -0.28317004 1.7730001 249 249 247 255
-0.72360098 -0.28093517 1.7590001 231 235 228 255
-0.7159518 -0.27981886 1.7520001 227 233 226 255
-0.70834213 -0.27870309 1.7450001 213 219 212 255
-0.70278794 -0.2783865 1.743 202 208 201 255
-0.69564408 -0.27743161 1.7370001 194 200 192 255
-0.69052285 -0.27727574 1.7360001 170 175 164 255
-0.68461818 -0.27680102 1.733 185 190 178 255
-0.68030024 -0.27696571 1.7340001 179 184 172 255
-0.67519879 -0.27681145 1.733 178 183 169 255
-0.67087758 -0.27697718 1.7340001 164 169 155 255
-0.66539937 -0.27666414 1.7320001 174 179 165 255
-0.65993291 -0.27635163 1.7300001 173 178 164 255
-0.65447819 -0.27603957 1.728 181 189 174 255
-0.64978731 -0.27604741 1.728 170 178 161 255
-0.6454705 -0.27621549 1.7290001 165 173 156 255
-0.64114898 -0.276384 1.7300001 161 167 150 255
-0.63645488 -0.27639323 1.7300001 153 159 142 255
-0.63176131 -0.2764028 1.7300001 161 167 150 255
-0.62706846 -0.27641284 1.7300001 164 170 152 255
-0.62273586 -0.27658302 1.7310001 144 150 132 255
-0.6176843 -0.27643412 1.7300001 147 153 135 255
-0.61299306 -0.2764453 1.7300001 153 158 137 255
-0.60865372 -0.27661666 1.7310001 155 160 138 255
-0.60500735 -0.27710807 1.7340001 144 149 127 255
-0.60065252 -0.27728018 1.7350001 145 148 126 255
-0.59663618 -0.27761251 1.7370001 144 147 125 255
-0.59158689 -0.2774657 1.7360001 167 168 146 255
-0.58755744 -0.27779871 1.738 142 145 123 255
-0.58318216 -0.27797228 1.7390001 138 141 119 255
-0.57913411 -0.27830598 1.7410001 156 159 137 255
-0.57441556 -0.27832028 1.7410001 152 155 133 255
-0.57002437 -0.27849478 1.7420001 150 155 133 255
-0.56595236 -0.27882946 1.7440001 142 148 123 255
-0.56154764 -0.27900451 1.7450001 147 152 130 255
-0.55681854 -0.27901998 1.7450001 155 161 136 255
-0.55145657 -0.27871591 1.743 159 165 140 255
-0.54704642 -0.27889174 1.7440001 154 160 135 255
-0.54294175 -0.27922779 1.7460001 152 158 133 255
-0.53975081 -0.2800439 1.751 152 158 133 255
-0.53500509 -0.28006062 1.751 156 162 137 255
-0.53025907 -0.28007755 1.751 158 163 141 255
-0.52491271 -0.27977476 1.7490001 151 156 134 255
-0.5201717 -0.27979204 1.7490001 149 154 132 255
-0.51513571 -0.27964956 1.748 152 158 133 255
-0.51039696 -0.2796672 1.748 149 154 132 255
-0.50565779 -0.27968502 1.748 162 167 145 255
-0.50063187 -0.27954301 1.7470001 179 184 162 255
-0.49561098 -0.27940112 1.7460001 149 155 130 255
-0.49087623 -0.27941936 1.7460001 165 170 148 255
-0.4861412 -0.27943778 1.7460001 134 140 115 255
-0.48140568 -0.27945632 1.7460001 144 150 125 255
-0.47666973 -0.27947494 1.7460001 157 161 135 255
-0.47193339 -0.27949372 1.7460001 146 150 124 255
-0.46773168 -0.27983275 1.748 138 144 118 255
-0.46325389 -0.2800118 1.7490001 147 151 123 255
-0.45903215 -0.2803511 1.751 148 155 126 255
-0.45428026 -0.28037027 1.751 144 150 125 255
-0.45029798 -0.28086993 1.7540001 150 156 131 255
-0.4457908 -0.28104943 1.7550001 165 171 146 255
-0.44077507 -0.28090867 1.7540001 158 164 139 255
-0.43551555 -0.28060776 1.7520001 148 152 126 255
-0.43051219 -0.28046706 1.751 152 156 128 255
-0.42551365 -0.28032637 1.7500001 144 148 120 255
-0.42100078 -0.28050604 1.751 132 136 108 255
-0.41671959 -0.280846 1.7530001 142 146 120 255
-0.41266185 -0.28134623 1.756 147 153 127 255
-0.40835482 -0.28168628 1.7580001 139 145 119 255
-0.40380672 -0.28186613 1.7590001 167 173 147 255
-0.39857197 -0.28156522 1.7570001 161 167 141 255
-0.39334735 -0.28126425 1.7550001 147 151 125 255
-0.3885757 -0.28128377 1.7550001 149 153 127 255
-0.38380343 -0.28130329 1.7550001 151 155 129 255
-0.37903041 -0.28132272 1.7550001 151 155 129 255
-0.37383011 -0.28102148 1.7530001 137 141 115 255
-0.36906105 -0.28104079 1.7530001 151 157 132 255
-0.36408344 -0.2808997 1.7520001 154 160 135 255
-0.35870036 -0.28043786 1.7490001 179 185 160 255
-0.3529281 -0.27965516 1.7440001 126 132 107 255
-0.3477813 -0.27935338 1.7420001 125 132 110 255
-0.34284148 -0.27921182 1.7410001 151 158 136 255
-0.338489 -0.2795513 1.743 146 153 132 255
-0.33355042 -0.27940956 1.7420001 154 161 140 255
-0.3286165 -0.27926761 1.7410001 157 164 143 255
-0.32387331 -0.27928603 1.7410001 144 151 129 255
-0.31931269 -0.27946475 1.7420001 126 133 111 255
-0.31492639 -0.27980375 1.7440001 143 150 128 255
-0.30946139 -0.27918002 1.7400001 145 152 131 255
-0.30366707 -0.27823511 1.7340001 171 178 157 255
-0.2980772 -0.27745044 1.7290001 135 141 123 255
-0.29302278 -0.27714694 1.7270001 147 153 135 255
-0.28814548 -0.27700371 1.7260001 146 152 134 255
-0.28310868 -0.27669981 1.7240001 142 148 130 255
-0.27840501 -0.27671677 1.7240001 158 164 146 255
-0.27370059 -0.27673352 1.7240001 143 149 131 255
-0.26883939 -0.27658954 1.723 142 148 130 255
-0.26367632 -0.27612433 1.72 160 166 148 255
-0.25852889 -0.27565885 1.7170001 171 177 159 255
-0.25339714 -0.2751931 1.7140001 147 153 135 255
-0.24842611 -0.27488771 1.7120001 144 150 132 255
-0.24318057 -0.27426088 1.7080001 163 169 151 255
-0.23809579 -0.27379438 1.705 164 170 152 255
-0.23288982 -0.27316704 1.7010001 176 185 166 255
-0.2283759 -0.2733424 1.702 161 170 151 255
-0.22346151 -0.27303573 1.7 198 207 188 255
-0.2186861 -0.27288947 1.6990001 177 183 165 255
-0.21366349 -0.27242166 1.6960001 125 131 113 255
-0.20914963 -0.27259609 1.697 152 157 136 255
-0.20462966 -0.27277032 1.6980001 139 144 123 255
-0.20022132 -0.27310497 1.7 140 147 126 255
-0.19580144 -0.27343938 1.702 164 170 152 255
-0.19137 -0.27377361 1.7040001 165 171 153 255
-0.18747485 -0.27491096 1.7110001 158 166 149 255
-0.18322024 -0.2755661 1.715 122 130 113 255
-0.1789432 -0.27622107 1.7190001 169 177 160 255
-0.17383276 -0.27559024 1.715 171 179 162 255
-0.16874367 -0.27495912 1.7110001 166 174 157 255
-0.16348413 -0.27400619 1.705 168 176 159 255
-0.15835004 -0.27321365 1.7 167 176 157 255
-0.15342362 -0.27274221 1.697 170 178 161 255
-0.14842546 -0.27210975 1.6930001 169 178 159 255
-0.14344868 -0.27147692 1.6890001 167 176 157 255
-0.13841116 -0.27068305 1.6840001 171 180 161 255
-0.13363889 -0.27037102 1.682 172 181 162 255
-0.12887712 -0.27005869 1.6800001 166 175 156 255
-0.12419983 -0.26990682 1.6790001 175 181 164 255
-0.11959882 -0.2699154 1.6790001 196 198 180 255
-0.11520286 -0.27040589 1.682 15 11 0 255
-0.1108558 -0.27105698 1.6860001 57 47 30 255
-0.10610837 -0.2707431 1.6840001 84 64 46 255
-0.10125098 -0.27010736 1.6800001 92 68 50 255
-0.096357644 -0.26931047 1.6750001 96 70 52 255
-0.09160094 -0.2688348 1.6720001 104 76 58 255
-0.086964451 -0.26868039 1.6710001 114 85 70 255
-0.082185216 -0.26804328 1.6670001 123 94 79 255
-0.077427633 -0.26740584 1.6630001 120 91 77 255
-0.072735526 -0.26692882 1.6600001 120 91 77 255
-0.068182819 -0.26693386 1.6600001 117 88 74 255
-0.063553207 -0.266617 1.6580001 114 85 71 255
-0.058934331 -0.26629981 1.6560001 111 84 70 255
-0.054293364 -0.26582146 1.6530001 97 70 56 255
-0.049728863 -0.2656644 1.6520001 113 85 74 255
-0.045169663 -0.26550701 1.651 113 85 74 255
-0.040640399 -0.26551011 1.651 106 79 65 255
-0.036089111 -0.2653521 1.6500001 86 59 45 255
-0.031619694 -0.26583701 1.6530001 83 56 42 255
-0.027084546 -0.26583916 1.6530001 83 54 39 255
-0.022549292 -0.26584095 1.6530001 87 58 43 255
-0.018013954 -0.26584241 1.6530001 91 61 46 255
-0.013494858 -0.26616523 1.6550001 92 60 45 255
-0.0089539168 -0.26616603 1.6550001 87 55 38 255
-0.0044156094 -0.26632735 1.6560001 91 59 42 255
0.00012820278 -0.26648834 1.6570001 90 60 43 255
0.004674681 -0.26648813 1.6570001 84 55 40 255
0.0092600957 -0.26761341 1.664 81 54 39 255
0.013908816 -0.26922083 1.674 79 52 37 255
0.018612361 -0.27082792 1.6840001 81 55 37 255
0.023274135 -0.27130884 1.687 76 50 32 255
0.027902663 -0.27130699 1.687 63 37 19 255
0.032569662 -0.27162644 1.6890001 61 35 17 255
0.037313592 -0.27242804 1.6940001 76 50 32 255
0.042258207 -0.27435493 1.7060001 84 57 42 255
0.047433592 -0.27724639 1.7240001 80 53 38 255
0.052677304 -0.27997661 1.7410001 85 66 54 255
0.057684086 -0.28109831 1.748 83 67 57 255
0.062550344 -0.28141561 1.7500001 68 63 56 255
0.067350373 -0.2814109 1.7500001 69 64 58 255
0.072150156 -0.28140587 1.7500001 67 66 60 255
0.076949686 -0.28140053 1.7500001 65 67 59 255
0.081795633 -0.28155562 1.751 65 67 59 255
0.086547866 -0.28138882 1.7500001 74 76 68 255
0.091398694 -0.28154323 1.751 74 76 68 255
0.096254677 -0.28169736 1.7520001 75 76 70 255
0.10117348 -0.28201187 1.7540001 75 76 70 255
0.10610287 -0.28232604 1.756 75 76 70 255
0.11085337 -0.2821576 1.7550001 77 76 70 255
0.11553209 -0.28182805 1.7530001 77 76 70 255
0.12013078 -0.28133744 1.7500001 78 77 71 255
0.12499816 -0.28148958 1.751 79 80 74 255
0.1299447 -0.28180215 1.7530001 79 80 74 255
0.13482487 -0.2819536 1.7540001 80 81 75 255
0.13955085 -0.28178328 1.7530001 83 84 78 255
0.14435321 -0.28177342 1.7530001 83 87 80 255
0.14924017 -0.28192395 1.7540001 87 91 84 255
0.15404424 -0.28191346 1.7540001 81 85 78 255
0.15875727 -0.28174195 1.7530001 85 86 80 255
0.16383743 -0.282213 1.756 88 89 83 255
0.16893353 -0.28268376 1.7590001 86 87 81 255
0.1738479 -0.28283277 1.7600001 79 83 76 255
0.17846265 -0.28249943 1.7580001 81 82 76 255
0.18306583 -0.28216577 1.756 82 86 79 255
0.18765748 -0.28183192 1.7540001 82 86 79 255
0.19212784 -0.28133714 1.751 83 87 80 255
0.19658118 -0.28084216 1.748 82 86 79 255
0.20113264 -0.28050756 1.7460001 86 90 83 255
0.20567253 -0.2801728 1.7440001 86 90 83 255
0.21068351 -0.28048036 1.7460001 86 89 85 255
0.21595158 -0.28110892 1.7500001 86 90 83 255
0.2208624 -0.28125525 1.751 66 67 61 255
0.22552031 -0.28108013 1.7500001 65 66 60 255
0.22990884 -0.28058353 1.7470001 75 76 70 255
0.23454899 -0.28040802 1.7460001 76 77 71 255
0.23890878 -0.27991104 1.743 84 85 79 255
0.24325149 -0.27941397 1.7400001 87 88 82 255
0.24800467 -0.27939841 1.7400001 87 88 82 255
0.25261191 -0.27922207 1.7390001 85 86 80 255
0.25750893 -0.2793667 1.7400001 83 87 80 255
0.26301354 -0.28015321 1.7450001 89 90 84 255
0.26839128 -0.28077897 1.7490001 87 88 82 255
0.27379012 -0.28140447 1.7530001 44 46 38 255
0.27825657 -0.28106654 1.751 40 41 35 255
0.28303462 -0.28104952 1.751 43 44 38 255
0.28682569 -0.28006932 1.7450001 64 65 59 255
0.29075038 -0.27924961 1.7400001 84 88 81 255
0.29498667 -0.27875075 1.7370001 87 91 84 255
0.29989603 -0.27889368 1.738 84 88 81 255
0.30481011 -0.27903643 1.7390001 84 88 81 255
0.30990684 -0.27933943 1.7410001 84 88 81 255
0.31483305 -0.27948186 1.7420001 84 88 81 255
0.31994733 -0.27978456 1.7440001 82 86 79 255
0.3245132 -0.27960581 1.743 83 87 80 255
0.32926178 -0.27958742 1.743 81 85 78 255
0.33400959 -0.27956888 1.743 81 85 78 255
0.33933976 -0.28003138 1.7460001 85 86 82 255
0.34429127 -0.280173 1.7470001 86 87 83 255
0.34944731 -0.28047484 1.7490001 84 84 82 255
0.35420844 -0.28045586 1.7490001 84 84 82 255
0.35896879 -0.28043678 1.7490001 85 86 82 255
0.36393636 -0.28057796 1.7500001 87 88 84 255
0.36869794 -0.28055874 1.7500001 82 83 79 255
0.37345886 -0.28053948 1.7500001 83 84 80 255
0.37821898 -0.28052011 1.7500001 83 86 83 255
0.38275951 -0.28034046 1.7490001 85 85 83 255
0.38751549 -0.28032103 1.7490001 85 85 83 255
0.39227071 -0.28030157 1.7490001 85 88 84 255
0.39747927 -0.2806026 1.751 82 85 81 255
0.40246832 -0.28074333 1.7520001 80 83 79 255
0.40769449 -0.28104424 1.7540001 80 83 79 255
0.41269571 -0.28118488 1.7550001 82 83 77 255
0.41770175 -0.28132552 1.756 80 84 77 255
0.42247194 -0.28130591 1.756 77 81 74 255
0.42748484 -0.28144658 1.7570001 79 83 76 255
0.43324059 -0.28206769 1.761 79 83 76 255
0.43802243 -0.28204814 1.761 75 79 72 255
0.44330671 -0.28234896 1.7630001 75 79 72 255
0.44834697 -0.2824896 1.7640001 78 82 75 255
0.45467654 -0.28343093 1.7700001 74 78 71 255
0.45974013 -0.28357157 1.771 70 74 67 255
0.46428397 -0.2833921 1.7700001 71 74 70 255
0.46855688 -0.28305262 1.7680001 73 76 72 255
0.47362155 -0.2831935 1.7690001 73 77 70 255
0.47787991 -0.28285423 1.7670001 70 74 67 255
0.48240012 -0.28267521 1.766 73 77 70 255
0.48636258 -0.2821762 1.7630001 73 77 70 255
0.49030846 -0.28167737 1.7600001 77 81 74 255
0.49451891 -0.28133878 1.7580001 86 90 83 255
0.49871805 -0.28100032 1.756 86 89 85 255
0.50319278 -0.2808221 1.7550001 86 89 85 255
0.5076617 -0.28064406 1.7540001 86 89 86 255
0.51212496 -0.2804662 1.7530001 86 88 88 255
0.51628757 -0.28012851 1.751 88 90 90 255
0.52103418 -0.28011101 1.751 98 100 102 255
0.52487975 -0.27961382 1.748 98 100 102 255
0.52779984 -0.27863702 1.7420001 100 102 102 255
0.52977014 -0.27718067 1.733 96 98 98 255
0.53292519 -0.27636448 1.728 94 96 96 255
0.53823078 -0.2766681 1.7300001 95 97 97 255
0.54448861 -0.2774516 1.7350001 84 87 84 255
0.55108988 -0.27839518 1.7410001 68 71 68 255
0.55676591 -0.2788592 1.7440001 84 87 83 255
0.56181443 -0.27900365 1.7450001 50 54 47 255
0.56621885 -0.27882859 1.7440001 39 43 36 255
0.57029063 -0.27849394 1.7420001 45 49 42 255
0.57369143 -0.27783987 1.738 68 72 65 255
0.57806909 -0.27766579 1.7370001 81 85 78 255
0.58244145 -0.27749196 1.7360001 86 89 85 255
0.58714676 -0.27747831 1.7360001 80 83 79 255
0.59014761 -0.27666581 1.7310001 77 80 77 255
0.59346533 -0.27601358 1.7270001 78 81 78 255
0.59676158 -0.27536172 1.723 91 96 93 255
0.60073465 -0.27502987 1.7210001 89 93 93 255
0.60469717 -0.27469841 1.7190001 89 91 91 255
0.60829479 -0.27420753 1.7160001 90 92 92 255
0.61259103 -0.27403665 1.715 93 96 92 255
0.61580247 -0.27338681 1.7110001 77 78 72 255
0.62008065 -0.27321672 1.71 13 15 7 255
0.62252736 -0.27224821 1.7040001 20 22 12 255
0.62678224 -0.27207899 1.7030001 19 22 10 255
0.62992018 -0.27143097 1.6990001 20 23 11 255
0.63378394 -0.27110285 1.697 20 25 13 255
0.63801384 -0.27093497 1.6960001 22 25 13 255
0.63958675 -0.26964933 1.6880001 21 24 12 255
0.64188015 -0.26868367 1.682 21 24 12 255
0.64529502 -0.26819777 1.6790001 20 23 11 255
0.64946848 -0.26803178 1.6780001 20 23 11 255
0.65129882 -0.26690793 1.6710001 19 24 12 255
0.65309215 -0.26578456 1.664 23 28 16 255
0.65603417 -0.26514095 1.6600001 18 21 9 255
0.66094512 -0.26529646 1.6610001 24 26 16 255
0.6654619 -0.26529273 1.6610001 23 26 14 255
0.6675598 -0.26433128 1.6550001 22 25 13 255
0.67206275 -0.2643286 1.6550001 22 25 11 255
0.6765669 -0.26432648 1.6550001 24 27 13 255
0.68189561 -0.26464438 1.6570001 24 27 13 255
0.68019438 -0.26224771 1.6420001 25 28 14 255
0.68008065 -0.26049042 1.631 29 32 20 255
0.67587632 -0.25554025 1.6 29 32 20 255
0.68023944 -0.25554153 1.6 28 31 17 255
0.68075341 -0.25410601 1.5910001 30 34 17 255
0.68552595 -0.25426823 1.5920001 30 34 17 255
0.68510568 -0.25251445 1.5810001 28 32 15 255
0.68985999 -0.25267789 1.582 29 33 16 255
0.69549906 -0.25316137 1.585 30 34 17 255
0.69983196 -0.25316635 1.585 34 37 23 255
0.70860952 -0.2547693 1.595 24 31 19 255
0.71386778 -0.25509509 1.5970001 19 26 15 255
0.71958888 -0.25558132 1.6 123 130 126 255
0.72261375 -0.25510982 1.5970001 154 161 158 255
0.7269901 -0.25511822 1.5970001 175 181 184 255
0.72907889 -0.25432858 1.5920001 180 185 191 255
0.73206401 -0.25385907 1.5890001 182 187 193 255
0.73225451 -0.25243169 1.58 186 191 197 255
0.73193175 -0.25084513 1.5700001 187 192 198 255
0.73202574 -0.24941899 1.5610001 189 194 200 255
0.73348778 -0.24847278 1.5550001 187 192 198 255
0.73586857 -0.24784687 1.5510001 188 193 199 255
0.73822999 -0.24722163 1.5470001 188 194 197 255
0.74057215 -0.24659708 1.5430001 189 194 200 255
0.74192977 -0.2456536 1.5370001 191 196 202 255
0.74082989 -0.24391162 1.526 195 198 204 255
0.74016052 -0.24233006 1.516 194 197 203 255
0.73992997 -0.24090892 1.5070001 194 197 203 255
0.74212152 -0.24028775 1.503 195 198 204 255
1.1368796 -0.26545736 1.6320001 211 212 218 255
-0.73335946 -0.28767601 1.771 245 248 244 255
-0.7231884 -0.28556523 1.7580001 233 237 230 255
-0.714724 -0.28410473 1.7490001 227 233 226 255
-0.70833975 -0.28345704 1.7450001 219 225 218 255
-0.70278502 -0.28313476 1.743 202 208 201 255
-0.69684196 -0.28265065 1.7400001 198 204 196 255
-0.69131428 -0.2823295 1.738 184 190 182 255
-0.68500865 -0.28168401 1.7340001 185 190 179 255
-0.67990273 -0.28152639 1.733 189 194 183 255
-0.67480356 -0.28136927 1.7320001 191 196 185 255
-0.67087144 -0.28170004 1.7340001 184 189 178 255
-0.66577691 -0.28154394 1.733 179 186 174 255
-0.65992576 -0.28106338 1.7300001 177 184 172 255
-0.65409189 -0.28058329 1.7270001 166 174 159 255
-0.64902717 -0.28042859 1.7260001 163 171 154 255
-0.64546192 -0.28092423 1.7290001 165 173 156 255
-0.64076942 -0.28093293 1.7290001 164 170 153 255
-0.63644546 -0.28110453 1.7300001 147 153 136 255
-0.63102114 -0.28078911 1.728 177 183 166 255
-0.62597084 -0.28063658 1.7270001 149 153 135 255
-0.62164599 -0.28080943 1.728 152 158 140 255
-0.61731631 -0.28098276 1.7290001 158 164 146 255
-0.61227298 -0.2808314 1.728 155 159 141 255
-0.60758716 -0.28084296 1.728 167 172 151 255
-0.60359961 -0.28117993 1.7300001 147 152 131 255
-0.60029387 -0.28184238 1.7340001 149 151 131 255
-0.59627974 -0.28218013 1.7360001 147 150 128 255
-0.59157372 -0.28219318 1.7360001 156 159 137 255
-0.58686781 -0.28220657 1.7360001 146 148 128 255
-0.5824976 -0.28238285 1.7370001 165 168 146 255
-0.57778943 -0.28239685 1.7370001 176 181 160 255
-0.57374126 -0.28273636 1.7390001 148 153 132 255
-0.56935519 -0.2829136 1.7400001 143 148 126 255
-0.56528819 -0.28325373 1.7420001 151 157 132 255
-0.5605669 -0.28326896 1.7420001 158 161 137 255
-0.55584568 -0.28328446 1.7420001 157 161 135 255
-0.55049157 -0.28297496 1.7400001 159 165 139 255
-0.54608935 -0.28315359 1.7410001 159 165 139 255
-0.54168153 -0.2833325 1.7420001 156 162 136 255
-0.53788483 -0.28383696 1.7450001 157 163 138 255
-0.5334605 -0.28401634 1.7460001 155 161 136 255
-0.52903074 -0.28419602 1.7470001 156 162 137 255
-0.52369499 -0.28388783 1.7450001 152 157 135 255
-0.51866722 -0.28374249 1.7440001 150 156 131 255
-0.51393938 -0.28376007 1.7440001 150 156 131 255
-0.50921124 -0.28377777 1.7440001 147 152 130 255
-0.50448281 -0.28379565 1.7440001 150 155 133 255
-0.49918094 -0.28348824 1.7420001 179 184 162 255
-0.49388969 -0.28318098 1.7400001 146 151 129 255
-0.48945221 -0.28336206 1.7410001 171 176 154 255
-0.4847306 -0.28338057 1.7410001 137 142 120 255
-0.48028418 -0.28356192 1.7420001 146 149 125 255
-0.47501305 -0.2832551 1.7400001 152 155 131 255
-0.47029284 -0.28327391 1.7400001 151 154 130 255
-0.46610731 -0.28361848 1.7420001 148 151 127 255
-0.46164563 -0.28380036 1.743 151 154 130 255
-0.45744011 -0.28414521 1.7450001 151 157 132 255
-0.45270437 -0.28416443 1.7450001 146 151 129 255
-0.44848159 -0.28450951 1.7470001 154 161 139 255
-0.44373935 -0.28452891 1.7470001 169 176 154 255
-0.43849394 -0.28422263 1.7450001 153 160 138 255
-0.43325892 -0.28391638 1.743 145 151 126 255
-0.42827994 -0.28377298 1.7420001 155 161 135 255
-0.42379212 -0.28395543 1.743 142 146 120 255
-0.4192982 -0.28413793 1.7440001 136 142 116 255
-0.4152737 -0.28464636 1.7470001 148 154 128 255
-0.41076222 -0.28482899 1.748 146 152 127 255
-0.40554783 -0.28452274 1.7460001 176 182 157 255
-0.39988458 -0.28389052 1.7420001 166 171 149 255
-0.3944692 -0.28342119 1.7390001 153 158 136 255
-0.38929361 -0.28311473 1.7370001 149 154 132 255
-0.38457093 -0.28313422 1.7370001 149 152 130 255
-0.38006628 -0.2833167 1.738 145 148 124 255
-0.37555552 -0.28349918 1.7390001 145 148 124 255
-0.37103856 -0.2836816 1.7400001 134 137 113 255
-0.36609438 -0.28353789 1.7390001 148 154 129 255
-0.36115494 -0.28339413 1.738 155 160 138 255
-0.35601512 -0.28308719 1.7360001 176 182 157 255
-0.35027841 -0.28229088 1.7310001 123 128 106 255
-0.34556633 -0.28230986 1.7310001 127 134 113 255
-0.34085351 -0.28232875 1.7310001 154 161 140 255
-0.33613992 -0.28234753 1.7310001 165 171 153 255
-0.33123419 -0.28220311 1.7300001 167 176 157 255
-0.32633311 -0.28205854 1.7290001 161 170 151 255
-0.32180873 -0.28224012 1.7300001 141 150 131 255
-0.31727815 -0.28242159 1.7310001 137 143 125 255
-0.31238028 -0.28227666 1.7300001 139 146 125 255
-0.30659789 -0.28131568 1.7240001 171 178 157 255
-0.30084741 -0.28035441 1.7180001 148 155 134 255
-0.29599085 -0.28020892 1.7170001 132 139 118 255
-0.29147837 -0.28038964 1.7180001 145 154 135 255
-0.28662583 -0.28024378 1.7170001 154 163 144 255
-0.28161374 -0.2799345 1.715 161 169 152 255
-0.27645034 -0.2794618 1.7120001 150 158 141 255
-0.27177885 -0.27947861 1.7120001 144 150 133 255
-0.26695058 -0.27933195 1.7110001 144 152 135 255
-0.26228037 -0.27934843 1.7110001 145 153 136 255
-0.2573083 -0.27903813 1.7090001 174 182 165 255
-0.25234643 -0.27872759 1.7070001 141 147 129 255
-0.24739471 -0.27841675 1.705 156 162 144 255
-0.24216855 -0.27777916 1.7010001 163 169 151 255
-0.23696348 -0.27714124 1.697 160 166 148 255
-0.23191653 -0.2766664 1.6940001 162 168 150 255
-0.22715364 -0.27651796 1.6930001 143 149 131 255
-0.22252694 -0.27653256 1.6930001 184 190 172 255
-0.21764217 -0.27622026 1.6910001 200 206 188 255
-0.21289365 -0.27607107 1.6900001 120 126 108 255
-0.20814995 -0.27592164 1.6890001 154 159 138 255
-0.20377257 -0.27626204 1.6910001 138 143 122 255
-0.19903031 -0.27611205 1.6900001 140 144 126 255
-0.19440795 -0.27612525 1.6900001 158 162 144 255
-0.18967266 -0.27597478 1.6890001 176 182 164 255
-0.18527095 -0.27631426 1.6910001 158 164 147 255
-0.18064402 -0.27632669 1.6910001 139 145 128 255
-0.17612059 -0.27650225 1.692 176 182 164 255
-0.17128707 -0.2761873 1.6900001 175 181 163 255
-0.16646394 -0.27587205 1.6880001 176 180 162 255
-0.16126768 -0.27490273 1.682 176 182 164 255
-0.15647632 -0.27458686 1.6800001 173 178 157 255
-0.15169537 -0.27427068 1.6780001 169 175 157 255
-0.1471002 -0.27428108 1.6780001 168 175 154 255
-0.14233468 -0.27396429 1.6760001 176 182 164 255
-0.13749744 -0.27348369 1.6730001 170 177 156 255
-0.1329145 -0.27349323 1.6730001 170 179 160 255
-0.12817767 -0.27317548 1.6710001 171 180 161 255
-0.12359934 -0.27318442 1.6710001 179 185 168 255
-0.11909176 -0.27335647 1.6720001 93 91 73 255
-0.1146468 -0.2736918 1.674 16 10 0 255
-0.1102562 -0.27419031 1.677 55 45 28 255
-0.10553376 -0.273871 1.6750001 79 59 41 255
-0.10076163 -0.27338788 1.6720001 91 68 48 255
-0.096120656 -0.27323148 1.6710001 94 68 49 255
-0.091484807 -0.27307469 1.6700001 96 70 51 255
-0.086854115 -0.2729176 1.669 112 84 65 255
-0.082080707 -0.27226964 1.6650001 124 96 78 255
-0.077375486 -0.27178481 1.6620001 120 91 76 255
-0.072730266 -0.27146322 1.6600001 115 86 71 255
-0.068177894 -0.27146834 1.6600001 115 86 71 255
-0.063548602 -0.27114603 1.6580001 119 90 75 255
-0.058930054 -0.27082345 1.6560001 96 67 52 255
-0.054256573 -0.2701734 1.6520001 106 77 62 255
-0.049695145 -0.27001366 1.651 118 89 74 255
-0.045139018 -0.26985359 1.6500001 106 77 62 255
-0.040637434 -0.27002025 1.651 101 74 59 255
-0.03606461 -0.26969597 1.649 90 63 48 255
-0.031598262 -0.27018911 1.6520001 86 59 44 255
-0.027082566 -0.27035484 1.6530001 86 59 44 255
-0.022588564 -0.27084732 1.6560001 84 57 42 255
-0.018067122 -0.27117592 1.6580001 85 58 43 255
-0.013550945 -0.27183127 1.6620001 88 59 44 255
-0.0089965407 -0.27199569 1.6630001 87 60 45 255
-0.0044366154 -0.2721597 1.664 86 59 44 255
0.00012881232 -0.27232346 1.6650001 86 59 44 255
0.0046940851 -0.2721597 1.664 86 60 42 255
0.0092816772 -0.27281344 1.6680001 77 51 33 255
0.013899492 -0.27363038 1.6730001 63 36 21 255
0.018610999 -0.2754283 1.6840001 60 34 16 255
0.023258638 -0.27575386 1.6860001 70 44 26 255
0.027917167 -0.27607912 1.6880001 77 51 33 255
0.032567281 -0.27624044 1.6890001 86 60 42 255
0.037420996 -0.27787337 1.6990001 94 67 52 255
0.042453274 -0.28032371 1.7140001 90 63 48 255
0.04773277 -0.28375494 1.7350001 85 62 48 255
0.052885253 -0.28587735 1.748 85 69 60 255
0.057811886 -0.28652748 1.7520001 79 69 62 255
0.062617287 -0.28652307 1.7520001 72 69 63 255
0.067383975 -0.28635481 1.751 70 71 65 255
0.072186165 -0.28634974 1.751 71 73 65 255
0.076988094 -0.28634432 1.751 73 75 67 255
0.081836455 -0.28650209 1.7520001 74 76 68 255
0.086640544 -0.28649598 1.7520001 73 75 67 255
0.091444321 -0.28648955 1.7520001 72 73 67 255
0.096247777 -0.28648278 1.7520001 75 76 70 255
0.10110855 -0.28663918 1.7530001 76 77 71 255
0.10603489 -0.28695878 1.7550001 80 79 73 255
0.11078231 -0.28678748 1.7540001 77 78 72 255
0.1155239 -0.28661591 1.7530001 80 81 75 255
0.12012227 -0.28611702 1.7500001 75 76 70 255
0.12506069 -0.28643525 1.7520001 76 77 71 255
0.13000965 -0.28675315 1.7540001 72 73 67 255
0.13481541 -0.28674379 1.7540001 72 73 67 255
0.13962066 -0.2867341 1.7540001 75 79 72 255
0.1445078 -0.28688759 1.7550001 77 81 74 255
0.14939994 -0.28704074 1.756 75 79 72 255
0.15412138 -0.28686666 1.7550001 77 81 74 255
0.1589274 -0.28685576 1.7550001 76 80 73 255
0.16391945 -0.28717142 1.7570001 72 76 69 255
0.16901796 -0.28765026 1.7600001 73 77 70 255
0.17383601 -0.28763843 1.7600001 78 82 75 255
0.17845048 -0.28729948 1.7580001 77 81 74 255
0.18305339 -0.28696024 1.756 79 83 76 255
0.18775178 -0.28678423 1.7550001 82 86 79 255
0.19233434 -0.28644451 1.7530001 84 88 81 255
0.19690533 -0.28610456 1.751 85 89 82 255
0.20146479 -0.28576437 1.7490001 86 90 83 255
0.20601262 -0.28542393 1.7470001 86 90 83 255
0.2109109 -0.28557345 1.748 87 90 86 255
0.21581393 -0.28572261 1.7490001 84 88 81 255
0.22072183 -0.2858716 1.7500001 66 70 63 255
0.22511902 -0.28536689 1.7470001 65 69 62 255
0.22963074 -0.28502533 1.7450001 73 77 70 255
0.23426518 -0.2848469 1.7440001 76 77 71 255
0.23903053 -0.28483161 1.7440001 86 87 81 255
0.24379513 -0.28481606 1.7440001 86 87 81 255
0.24841651 -0.28463703 1.743 84 85 79 255
0.25303173 -0.28445777 1.7420001 74 75 69 255
0.25778872 -0.28444162 1.7420001 79 80 74 255
0.26329857 -0.28524166 1.7470001 84 85 79 255
0.2685281 -0.28571483 1.7500001 87 89 81 255
0.27361709 -0.28602454 1.7520001 45 47 39 255
0.27792177 -0.28551781 1.7490001 44 46 38 255
0.28237092 -0.28517413 1.7470001 48 49 43 255
0.28664404 -0.28466713 1.7440001 73 74 68 255
0.29056582 -0.28383353 1.7390001 84 88 81 255
0.29479927 -0.28332636 1.7360001 85 89 82 255
0.29936072 -0.28314546 1.7350001 84 88 81 255
0.30461693 -0.28361714 1.738 83 87 80 255
0.30953282 -0.28376234 1.7390001 82 86 79 255
0.31445342 -0.28390729 1.7400001 85 89 82 255
0.31919521 -0.28388897 1.7400001 83 87 80 255
0.32375008 -0.28370738 1.7390001 83 87 80 255
0.32867658 -0.28385198 1.7400001 84 88 81 255
0.3336077 -0.2839964 1.7410001 81 85 78 255
0.33873788 -0.28430381 1.743 85 86 80 255
0.34368116 -0.28444797 1.7440001 84 85 79 255
0.34842929 -0.28442895 1.7440001 84 85 81 255
0.35337925 -0.28457293 1.7450001 83 84 80 255
0.3581287 -0.28455374 1.7450001 84 85 81 255
0.36329323 -0.28486055 1.7470001 84 85 81 255
0.36804661 -0.28484121 1.7470001 80 83 79 255
0.3730126 -0.28498477 1.748 83 84 80 255
0.37755117 -0.28480226 1.7470001 85 86 82 255
0.38230234 -0.28478274 1.7470001 83 84 80 255
0.38727435 -0.28492615 1.748 86 87 83 255
0.39202687 -0.28490651 1.748 82 85 81 255
0.39723271 -0.28521287 1.7500001 80 83 79 255
0.40221897 -0.28535613 1.751 80 83 79 255
0.40720999 -0.28549936 1.7520001 77 80 76 255
0.41197065 -0.28547966 1.7520001 82 86 79 255
0.41649276 -0.28529701 1.751 77 81 74 255
0.42221174 -0.28592899 1.7550001 77 81 74 255
0.42722189 -0.28607219 1.756 79 83 76 255
0.43297493 -0.28670409 1.7600001 78 82 75 255
0.43700796 -0.2861957 1.7570001 75 79 72 255
0.44228134 -0.28650182 1.7590001 76 80 73 255
0.44705662 -0.28648221 1.7590001 78 82 75 255
0.4528589 -0.28711405 1.7630001 76 80 73 255
0.45790359 -0.2872574 1.7640001 77 81 74 255
0.46321535 -0.28756362 1.766 74 77 73 255
0.46800756 -0.28754419 1.766 72 75 71 255
0.47306687 -0.28768769 1.7670001 69 73 66 255
0.47759038 -0.28750569 1.766 74 78 71 255
0.48210794 -0.28732377 1.7650001 73 77 70 255
0.48606789 -0.28681645 1.7620001 73 77 70 255
0.49056828 -0.28663483 1.761 73 77 70 255
0.4945004 -0.28612792 1.7580001 80 84 77 255
0.49841571 -0.28562117 1.7550001 86 89 85 255
0.50260121 -0.28527737 1.7530001 84 87 83 255
0.50735426 -0.28525922 1.7530001 86 89 86 255
0.51210713 -0.28524122 1.7530001 90 92 92 255
0.51597506 -0.28473529 1.7500001 96 98 98 255
0.51982653 -0.28422964 1.7470001 99 101 103 255
0.52276069 -0.28323612 1.7410001 97 99 101 255
0.52535909 -0.28208026 1.7340001 100 102 102 255
0.52761376 -0.28076208 1.7260001 95 97 97 255
0.53105849 -0.28009492 1.7220001 91 94 91 255
0.53603685 -0.28024128 1.723 88 91 88 255
0.54164821 -0.28071311 1.7260001 82 85 82 255
0.54917496 -0.28216094 1.7350001 78 81 78 255
0.55643106 -0.28344616 1.743 79 80 76 255
0.56179905 -0.28375593 1.7450001 57 58 52 255
0.5665285 -0.28374067 1.7450001 38 39 33 255
0.57060325 -0.28340054 1.743 39 43 35 255
0.57433718 -0.2828981 1.7400001 69 73 65 255
0.57805496 -0.28239608 1.7370001 75 79 72 255
0.58209211 -0.2820569 1.7350001 82 86 79 255
0.58611852 -0.28171811 1.733 82 85 81 255
0.58911175 -0.28089201 1.728 79 84 80 255
0.59310895 -0.280554 1.7260001 78 83 80 255
0.59640288 -0.27989122 1.7220001 88 93 90 255
0.60002446 -0.27939141 1.7190001 90 95 92 255
0.60363024 -0.27889201 1.7160001 86 90 90 255
0.60757458 -0.27855551 1.7140001 91 94 91 255
0.61222291 -0.27854446 1.7140001 93 96 92 255
0.61579198 -0.27804628 1.7110001 108 109 103 255
0.62043327 -0.27803603 1.7110001 12 14 6 255
0.62288308 -0.27705118 1.705 18 20 10 255
0.626405 -0.27655432 1.702 20 23 11 255
0.62991142 -0.27605793 1.6990001 19 24 10 255
0.63340217 -0.27556199 1.6960001 21 26 12 255
0.63687736 -0.27506652 1.6930001 22 25 13 255
0.63920045 -0.27408412 1.687 21 24 12 255
0.64187324 -0.27326468 1.682 18 21 9 255
0.64528853 -0.27277067 1.6790001 20 23 11 255
0.64984953 -0.27276459 1.6790001 16 19 7 255
0.65246266 -0.27194664 1.674 18 23 9 255
0.65465724 -0.27096683 1.6680001 20 25 13 255
0.656425 -0.26982513 1.6610001 26 29 17 255
0.66094118 -0.26982102 1.6610001 24 27 15 255
0.66345543 -0.26900527 1.6560001 23 26 14 255
0.6659435 -0.26819006 1.651 24 27 15 255
0.67043608 -0.26818758 1.651 23 24 10 255
0.6753388 -0.26834813 1.6520001 25 28 14 255
0.67983681 -0.26834676 1.6520001 24 27 13 255
0.68060797 -0.26688406 1.6430001 25 28 14 255
0.67299211 -0.26217318 1.6140001 28 31 19 255
0.6740334 -0.26087403 1.6060001 30 33 21 255
0.67207563 -0.25843847 1.5910001 30 33 19 255
0.68024111 -0.25990194 1.6 27 30 16 255
0.69016904 -0.26201582 1.613 29 33 16 255
0.6881125 -0.25958198 1.598 31 35 17 255
0.68554246 -0.25698629 1.582 29 33 16 255
0.68768376 -0.25617805 1.577 31 35 18 255
0.69330984 -0.25667003 1.58 33 37 20 255
0.70336968 -0.25878718 1.5930001 32 37 23 255
0.71083701 -0.25993034 1.6 24 31 19 255
0.71476865 -0.2597746 1.5990001 47 56 45 255
0.71914673 -0.25978202 1.5990001 134 142 135 255
0.72262192 -0.25946513 1.5970001 162 169 166 255
0.72699904 -0.25947395 1.5970001 178 184 186 255
0.72863054 -0.25850853 1.5910001 180 186 189 255
0.73069221 -0.25770631 1.5860001 184 189 195 255
0.73226547 -0.25674224 1.58 184 189 195 255
0.73240972 -0.25529137 1.5710001 186 191 197 255
0.7339139 -0.25432858 1.5650001 187 192 198 255
0.73350102 -0.25271645 1.5550001 188 193 199 255
0.73635679 -0.25224257 1.552 189 194 200 255
0.73729014 -0.25111932 1.5450001 187 193 196 255
0.73962754 -0.25048435 1.5410001 190 195 201 255
0.74049771 -0.24936241 1.534 189 194 200 255
0.74084657 -0.24807855 1.526 194 197 203 255
0.74017799 -0.2464702 1.516 193 196 202 255
0.7409302 -0.24535023 1.5090001 196 199 205 255
0.74164677 -0.2442309 1.5020001 195 198 204 255
1.1397943 -0.27067846 1.636 213 214 220 255
1.0903033 -0.25789794 1.5580001 212 213 219 255
1.0958716 -0.2581906 1.559 213 214 220 255
-0.73791409 -0.29431823 1.7820001 239 242 238 255
-0.72524416 -0.29118082 1.7630001 235 239 232 255
-0.71594828 -0.28936526 1.7520001 231 235 228 255
-0.70833749 -0.28821096 1.7450001 218 224 217 255
-0.70278221 -0.28788307 1.743 205 211 204 255
-0.69723904 -0.28755572 1.7410001 198 204 196 255
-0.69170815 -0.287229 1.7390001 193 199 191 255
-0.68618923 -0.28690276 1.7370001 193 200 189 255
-0.68107474 -0.28674227 1.7360001 195 200 189 255
-0.67557722 -0.28641713 1.7340001 187 192 181 255
-0.6708653 -0.28642279 1.7340001 189 194 183 255
-0.6653862 -0.28609872 1.7320001 181 188 177 255
-0.65953726 -0.28560984 1.7290001 180 187 175 255
-0.65370566 -0.28512147 1.7260001 169 177 162 255
-0.6486432 -0.28496391 1.725 164 172 155 255
-0.6447069 -0.28530246 1.7270001 170 176 159 255
-0.64076054 -0.28564146 1.7290001 168 174 157 255
-0.63606822 -0.28565052 1.7290001 167 173 156 255
-0.63101143 -0.2854948 1.728 168 174 157 255
-0.62596071 -0.2853395 1.7270001 154 158 140 255
-0.62127566 -0.28534982 1.7270001 160 166 148 255
-0.61694825 -0.2855258 1.728 166 170 152 255
-0.61190736 -0.28537169 1.7270001 176 180 162 255
-0.60757542 -0.28554845 1.728 151 155 137 255
-0.60288966 -0.28556034 1.728 155 159 141 255
-0.59924281 -0.28606844 1.7310001 163 165 145 255
-0.59489304 -0.28624633 1.7320001 161 163 143 255
-0.59053814 -0.28642458 1.733 153 155 135 255
-0.58584017 -0.28643796 1.733 152 154 134 255
-0.58147764 -0.28661695 1.7340001 164 169 148 255
-0.57644475 -0.28646564 1.733 172 177 156 255
-0.57207716 -0.28664529 1.7340001 188 192 174 255
-0.56770438 -0.28682527 1.7350001 169 174 152 255
-0.56332612 -0.28700551 1.7360001 161 167 142 255
-0.55829906 -0.28685543 1.7350001 155 161 136 255
-0.55359644 -0.28687087 1.7350001 156 162 137 255
-0.54857749 -0.28672129 1.7340001 159 165 140 255
-0.5441913 -0.28690267 1.7350001 163 169 143 255
-0.54011041 -0.28724965 1.7370001 162 168 143 255
-0.53571039 -0.28743154 1.738 160 166 141 255
-0.53099942 -0.28744829 1.738 161 167 141 255
-0.52598548 -0.28729993 1.7370001 162 168 142 255
-0.52127683 -0.28731707 1.7370001 155 161 136 255
-0.51656801 -0.28733447 1.7370001 151 157 132 255
-0.51215357 -0.28751746 1.738 155 158 134 255
-0.50773352 -0.28770068 1.7390001 146 151 129 255
-0.5030185 -0.28771862 1.7390001 149 154 132 255
-0.4974435 -0.28724036 1.7360001 169 174 153 255
-0.49216831 -0.2869277 1.7340001 148 153 131 255
-0.48774701 -0.28711158 1.7350001 163 168 146 255
-0.48331991 -0.28729558 1.7360001 140 145 123 255
-0.47888699 -0.28747979 1.7370001 144 147 123 255
-0.47390226 -0.28733307 1.7360001 152 155 131 255
-0.4691928 -0.287352 1.7360001 153 156 132 255
-0.46448284 -0.28737101 1.7360001 151 154 130 255
-0.4597725 -0.28739017 1.7360001 157 160 136 255
-0.45532382 -0.28757495 1.7370001 143 148 126 255
-0.45086908 -0.28775981 1.738 142 147 126 255
-0.44640848 -0.28794479 1.7390001 158 165 144 255
-0.44143391 -0.2877987 1.738 165 172 151 255
-0.43646425 -0.28765264 1.7370001 160 167 146 255
-0.43149942 -0.28750655 1.7360001 148 155 133 255
-0.42703113 -0.28769183 1.7370001 156 162 137 255
-0.42231369 -0.28771144 1.7370001 143 149 124 255
-0.41807649 -0.28806242 1.7390001 142 148 123 255
-0.4133524 -0.28808215 1.7390001 145 151 126 255
-0.40815774 -0.28777057 1.7370001 168 174 149 255
-0.40227646 -0.28696185 1.7320001 176 181 159 255
-0.39665124 -0.28631869 1.728 159 164 142 255
-0.39127401 -0.2858412 1.725 137 142 120 255
-0.38636059 -0.28569502 1.7240001 146 151 129 255
-0.38189471 -0.2858803 1.725 149 154 132 255
-0.37742269 -0.28606552 1.7260001 140 145 123 255
-0.37316051 -0.2864165 1.728 161 164 140 255
-0.36846033 -0.28643593 1.728 146 149 127 255
-0.36396989 -0.28662109 1.7290001 147 152 130 255
-0.35905769 -0.28647465 1.728 175 180 158 255
-0.35394523 -0.28616235 1.7260001 169 174 152 255
-0.34843823 -0.28551832 1.7220001 132 137 115 255
-0.34375075 -0.28553733 1.7220001 145 152 131 255
-0.33866867 -0.28522465 1.72 166 172 154 255
-0.33379102 -0.28507763 1.7190001 171 177 159 255
-0.32853511 -0.28459883 1.7160001 164 173 154 255
-0.32386097 -0.28461739 1.7160001 160 169 150 255
-0.31955817 -0.28496763 1.7180001 159 168 149 255
-0.31487712 -0.28498599 1.7180001 161 168 147 255
-0.3096537 -0.28450656 1.715 169 176 155 255
-0.3039124 -0.28352925 1.7090001 140 147 126 255
-0.29872835 -0.2830494 1.7060001 146 153 132 255
-0.29424942 -0.28323302 1.7070001 129 138 119 255
-0.28993398 -0.28358248 1.7090001 147 155 138 255
-0.28510609 -0.28343394 1.7080001 165 173 156 255
-0.27995458 -0.28295338 1.705 165 173 156 255
-0.27498013 -0.28263849 1.7030001 153 161 144 255
-0.27017462 -0.28248939 1.702 153 159 142 255
-0.2655299 -0.28250608 1.702 145 151 134 255
-0.2608844 -0.28252259 1.702 145 151 133 255
-0.25608766 -0.28237292 1.7010001 175 181 163 255
-0.25129569 -0.28222302 1.7 137 143 125 255
-0.2465084 -0.2820729 1.6990001 174 180 162 255
-0.24158359 -0.28175655 1.697 158 164 146 255
-0.23652934 -0.28127387 1.6940001 145 151 133 255
-0.23149079 -0.28079095 1.6910001 140 146 128 255
-0.22660214 -0.2804738 1.6890001 148 154 136 255
-0.22185521 -0.28032249 1.6880001 177 183 165 255
-0.21711306 -0.28017092 1.687 188 194 176 255
-0.21250163 -0.28018516 1.687 154 160 142 255
-0.2077664 -0.28003314 1.6860001 141 145 127 255
-0.20327696 -0.280213 1.687 140 144 126 255
-0.19831039 -0.27972823 1.6840001 158 162 144 255
-0.19358966 -0.27957535 1.6830001 146 150 132 255
-0.1887615 -0.27925611 1.6810001 179 185 168 255
-0.18416277 -0.27926883 1.6810001 157 162 148 255
-0.17945665 -0.27911517 1.6800001 180 186 169 255
-0.17475544 -0.27896121 1.6790001 167 173 155 255
-0.17016046 -0.27897316 1.6790001 183 187 169 255
-0.16536771 -0.27865246 1.677 177 182 161 255
-0.16048951 -0.27816534 1.674 172 177 156 255
-0.15581347 -0.27801022 1.6730001 171 176 154 255
-0.15123279 -0.27802104 1.6730001 172 179 158 255
-0.14665157 -0.2780315 1.6730001 162 167 145 255
-0.14190006 -0.27770934 1.6710001 173 180 159 255
-0.13715899 -0.27738681 1.669 162 169 147 255
-0.13250789 -0.2772302 1.6680001 172 178 160 255
-0.12793846 -0.27723947 1.6680001 172 178 160 255
-0.12329467 -0.27708226 1.6670001 177 183 165 255
-0.11879838 -0.27725717 1.6680001 116 114 96 255
-0.11436465 -0.27759799 1.6700001 30 24 7 255
-0.10991959 -0.27793851 1.6720001 56 46 29 255
-0.10533715 -0.27794629 1.6720001 77 57 39 255
-0.10063384 -0.2776213 1.6700001 90 67 47 255
-0.096056186 -0.27762845 1.6700001 95 69 50 255
-0.091313854 -0.27713653 1.6670001 98 72 53 255
-0.086743742 -0.277143 1.6670001 106 78 59 255
-0.081976146 -0.27648416 1.6630001 108 80 62 255
-0.077276744 -0.2759912 1.6600001 113 84 69 255
-0.072637342 -0.27566418 1.6580001 115 86 71 255
-0.068049699 -0.2755031 1.6570001 115 86 71 255
-0.063428968 -0.27517539 1.6550001 122 93 78 255
-0.058818981 -0.27484736 1.6530001 89 60 45 255
-0.054219756 -0.274519 1.651 107 78 63 255
-0.049721587 -0.27468908 1.6520001 106 77 62 255
-0.04516305 -0.27452633 1.651 99 70 55 255
-0.040659055 -0.27469578 1.6520001 96 69 54 255
-0.036127556 -0.27469862 1.6520001 95 68 53 255
-0.031653307 -0.27520001 1.6550001 90 63 48 255
-0.027129715 -0.27536845 1.6560001 88 61 46 255
-0.022627814 -0.27586916 1.659 84 58 40 255
-0.018098475 -0.27620324 1.6610001 60 33 18 255
-0.013582555 -0.27703589 1.6660001 57 30 15 255
-0.0090175131 -0.27720299 1.6670001 62 36 18 255
-0.0044469517 -0.27736977 1.6680001 59 32 17 255
0.00012895749 -0.27720362 1.6670001 58 32 14 255
0.0047050212 -0.27736977 1.6680001 66 40 22 255
0.0092809899 -0.27736923 1.6680001 77 51 33 255
0.013898464 -0.27819982 1.6730001 75 49 31 255
0.018565422 -0.27936262 1.6800001 77 51 33 255
0.023243126 -0.28019249 1.6850001 83 57 39 255
0.027931642 -0.28085575 1.6890001 86 60 42 255
0.032719124 -0.28218377 1.697 92 66 48 255
0.037660494 -0.28434283 1.71 96 69 54 255
0.042846419 -0.28766552 1.7300001 85 61 45 255
0.0481419 -0.29098773 1.7500001 108 87 75 255
0.053335156 -0.2931456 1.7630001 96 84 75 255
0.058203585 -0.29330772 1.7640001 79 71 64 255
0.062934339 -0.29280448 1.761 77 72 66 255
0.067686886 -0.29246709 1.7590001 73 75 67 255
0.072428226 -0.29212943 1.7570001 71 73 65 255
0.077202298 -0.29195765 1.756 74 76 66 255
0.08197061 -0.29178557 1.7550001 76 78 68 255
0.08673314 -0.29161313 1.7540001 73 75 67 255
0.091437683 -0.29127413 1.7520001 75 76 70 255
0.096240796 -0.29126725 1.7520001 77 78 72 255
0.10121659 -0.29175884 1.7550001 81 82 76 255
0.10608764 -0.29191753 1.756 77 78 72 255
0.11090063 -0.29190966 1.756 76 77 71 255
0.11558147 -0.29156902 1.7540001 83 84 78 255
0.1203882 -0.29156053 1.7540001 82 83 77 255
0.12519452 -0.29155168 1.7540001 82 83 77 255
0.13014862 -0.29187497 1.756 82 83 77 255
0.13495953 -0.2918655 1.756 82 86 79 255
0.13984956 -0.2920219 1.7570001 83 87 80 255
0.14466226 -0.2920118 1.7570001 82 86 79 255
0.14955957 -0.29216757 1.7580001 82 86 79 255
0.15428618 -0.29199061 1.7570001 85 89 82 255
0.15918793 -0.29214576 1.7580001 86 90 83 255
0.16428117 -0.29263297 1.761 86 90 83 255
0.16939034 -0.29311982 1.7640001 88 92 85 255
0.17402151 -0.29277551 1.7620001 81 85 78 255
0.17864119 -0.29243097 1.7600001 83 87 80 255
0.18335356 -0.2922523 1.7590001 85 86 80 255
0.18816683 -0.29223949 1.7590001 84 85 79 255
0.19265038 -0.29172805 1.756 79 80 74 255
0.19711691 -0.29121637 1.7530001 78 79 73 255
0.20168155 -0.29087055 1.751 80 84 77 255
0.20635255 -0.29069063 1.7500001 84 88 81 255
0.21101744 -0.29051051 1.7490001 84 88 81 255
0.21604633 -0.29082835 1.751 86 90 83 255
0.22070721 -0.29064769 1.7500001 67 68 62 255
0.22523303 -0.29030073 1.748 75 76 70 255
0.22961569 -0.2897875 1.7450001 78 79 73 255
0.23438424 -0.28977224 1.7450001 88 89 83 255
0.2395632 -0.29025495 1.748 89 90 84 255
0.24475786 -0.2907373 1.751 84 85 79 255
0.24925566 -0.2903893 1.7490001 80 79 73 255
0.25359657 -0.28987509 1.7460001 76 77 71 255
0.25792038 -0.28936067 1.743 77 78 72 255
0.26358342 -0.29034019 1.7490001 80 81 75 255
0.26881817 -0.29082137 1.7520001 76 77 71 255
0.27375624 -0.29097036 1.7530001 42 44 36 255
0.27790457 -0.29028925 1.7490001 43 45 37 255
0.28219193 -0.28977403 1.7460001 58 59 53 255
0.28629786 -0.28909272 1.7420001 72 76 69 255
0.29054824 -0.28857723 1.7390001 82 86 79 255
0.29495138 -0.28822762 1.7370001 84 88 81 255
0.29968792 -0.28820974 1.7370001 83 87 80 255
0.30442366 -0.28819171 1.7370001 87 91 84 255
0.3093366 -0.28833941 1.738 84 88 81 255
0.31407362 -0.28832105 1.738 82 86 79 255
0.3189933 -0.28846848 1.7390001 83 87 80 255
0.32373151 -0.28844988 1.7390001 83 87 80 255
0.32884669 -0.28876284 1.7410001 83 87 80 255
