ply
format ascii 1.0
comment PCL generated
element vertex 980
property float x
property float y
property float z
property uchar red
property uchar green
property uchar blue
property uchar alpha
element camera 0
property float view_px
property float view_py
property float view_pz
property float x_axisx
property float x_axisy
property float x_axisz
property float y_axisx
property float y_axisy
property float y_axisz
property float z_axisx
property float z_axisy
property float z_axisz
property float focal
property float scalex
property float scaley
property float centerx
property float centery
property int viewportx
property int viewporty
property float k1
property float k2
end_header
-0.71272683 0.01480718 1.605 174 178 160 255
-0.70526701 0.01474266 1.598 172 178 160 255
-0.69872409 0.014696625 1.5930001 168 175 154 255
-0.69264591 0.01465985 1.5890001 151 158 137 255
-0.68702424 0.014632335 1.5860001 155 162 140 255
-0.68185085 0.014614082 1.5840001 136 143 122 255
-0.67711747 0.014605085 1.5830001 145 151 133 255
-0.67281592 0.014605347 1.5830001 140 146 128 255
-0.6685158 0.014605644 1.5830001 146 153 132 255
-0.66463649 0.014615198 1.5840001 144 151 130 255
-0.66158664 0.014643236 1.5870001 146 153 131 255
-0.65893584 0.014680533 1.5910001 146 151 129 255
-0.65667599 0.014727092 1.5960001 143 148 126 255
-0.65398121 0.014764453 1.6 137 143 118 255
-0.65004778 0.014774163 1.6010001 134 140 115 255
-0.64610982 0.014783902 1.6020001 132 138 113 255
-0.64176673 0.014784441 1.6020001 137 143 118 255
-0.63822031 0.014803465 1.6040001 136 142 117 255
-0.6342687 0.014813287 1.605 148 156 131 255
-0.63070488 0.014832368 1.6070001 129 137 112 255
-0.62713099 0.014851475 1.6090001 130 136 110 255
-0.62393397 0.014879839 1.6120001 125 131 105 255
-0.61995268 0.014889769 1.613 127 131 103 255
-0.6159665 0.014899725 1.6140001 129 133 105 255
-0.61197549 0.014909706 1.6150001 129 133 107 255
-0.6079796 0.014919709 1.6160001 133 139 113 255
-0.60472572 0.014948201 1.6190001 132 138 112 255
-0.60145605 0.014976721 1.6220001 125 131 105 255
-0.59817058 0.015005266 1.6250001 126 132 106 255
-0.59377289 0.015006131 1.6250001 128 134 108 255
-0.58973831 0.01501625 1.626 128 134 108 255
-0.5860585 0.015035626 1.628 129 135 109 255
-0.58236814 0.015055025 1.6300001 127 135 110 255
-0.57831252 0.015065208 1.631 131 139 114 255
-0.57425165 0.015075413 1.6320001 131 139 114 255
-0.57053477 0.015094874 1.6340001 128 136 111 255
-0.56646049 0.015105116 1.6350001 126 134 109 255
-0.56203723 0.015106138 1.6350001 129 135 109 255
-0.55829602 0.015125656 1.6370001 132 138 112 255
-0.55488229 0.015154432 1.6400001 130 137 108 255
-0.5514524 0.01518323 1.6430001 127 134 105 255
-0.548006 0.015212044 1.646 125 132 103 255
-0.54454333 0.015240879 1.649 126 133 104 255
-0.54106426 0.015269731 1.6520001 127 134 105 255
-0.53691912 0.015280114 1.6530001 128 136 110 255
-0.53180206 0.015262777 1.651 131 139 114 255
-0.52701509 0.015254696 1.6500001 131 139 114 255
-0.52223313 0.015246625 1.649 133 140 118 255
-0.51777029 0.015247811 1.649 149 158 137 255
-0.51361847 0.015258256 1.6500001 149 158 139 255
-0.50884366 0.015250217 1.649 152 161 142 255
-0.5046857 0.015260684 1.6500001 155 164 145 255
-0.49991554 0.015252664 1.649 156 165 146 255
-0.49515042 0.015244653 1.6480001 153 162 141 255
-0.48979476 0.015218144 1.6450001 134 141 119 255
-0.48563492 0.015228646 1.646 136 144 119 255
-0.48176163 0.01524841 1.6480001 133 141 115 255
-0.47758734 0.015258934 1.649 127 134 103 255
-0.47312015 0.01526021 1.649 133 140 109 255
-0.46865243 0.015261493 1.649 133 140 109 255
-0.46418414 0.015262782 1.649 132 139 108 255
-0.46055159 0.015291844 1.6520001 130 139 110 255
-0.45635 0.015302404 1.6530001 127 136 107 255
-0.45241573 0.015322229 1.6550001 124 133 104 255
-0.4473874 0.015305021 1.6530001 129 137 111 255
-0.44263712 0.015297077 1.6520001 127 135 109 255
-0.43762639 0.015279871 1.6500001 150 158 133 255
-0.43210068 0.015244144 1.646 175 185 162 255
-0.42581668 0.015180627 1.6390001 168 180 157 255
-0.41931278 0.015107836 1.631 159 171 148 255
-0.41437784 0.015090616 1.6290001 144 154 129 255
-0.4097046 0.015082657 1.628 135 145 120 255
-0.40553403 0.015093231 1.6290001 125 135 109 255
-0.40111098 0.015094538 1.6290001 124 132 107 255
-0.39644361 0.015086578 1.628 133 140 118 255
-0.39202169 0.015087884 1.628 129 138 119 255
-0.38736093 0.01507992 1.6270001 155 164 145 255
-0.38294011 0.015081221 1.6270001 170 181 162 255
-0.37805316 0.015063982 1.6250001 182 193 174 255
-0.37386608 0.015074547 1.626 144 154 129 255
-0.36944547 0.015075841 1.626 115 124 95 255
-0.36569756 0.01510495 1.6290001 113 122 91 255
-0.36171061 0.015124783 1.631 114 120 85 255
-0.35793105 0.015153893 1.6340001 112 118 82 255
-0.35391796 0.015173726 1.636 110 116 81 255
-0.34989312 0.015193559 1.6380001 106 111 79 255
-0.34480205 0.015167007 1.6350001 114 121 92 255
-0.33910191 0.015112611 1.6290001 129 137 112 255
-0.33322817 0.015048924 1.6220001 149 159 136 255
-0.32901338 0.015059448 1.623 163 172 151 255
-0.3249923 0.015079249 1.6250001 121 130 109 255
-0.32115665 0.015108322 1.628 106 113 92 255
-0.31633109 0.01509099 1.626 34 41 20 255
-0.31151551 0.015073646 1.6240001 41 45 27 255
-0.30652088 0.015047009 1.6210001 21 25 8 255
-0.30191442 0.015038925 1.6200001 26 27 13 255
-0.29767981 0.015049398 1.6210001 26 27 13 255
-0.29307705 0.015041294 1.6200001 26 24 13 255
-0.28847888 0.015033179 1.6190001 26 25 11 255
-0.28353432 0.015006478 1.6160001 24 25 13 255
-0.27912349 0.015007625 1.6160001 28 29 17 255
-0.27488178 0.01501805 1.6170001 17 19 11 255
-0.2706337 0.015028464 1.618 65 69 62 255
-0.26605028 0.01502029 1.6170001 92 95 91 255
-0.26033881 0.014947076 1.6090001 120 125 122 255
-0.2546702 0.014873837 1.6010001 81 88 85 255
-0.24951349 0.014828451 1.5960001 72 79 76 255
-0.24484408 0.014810919 1.5940001 104 111 108 255
-0.24063736 0.014821248 1.595 96 103 100 255
-0.23612809 0.014812981 1.5940001 80 87 84 255
-0.2316235 0.014804699 1.5930001 74 81 77 255
-0.22712357 0.014796403 1.5920001 71 78 74 255
-0.22276822 0.014797384 1.5920001 76 82 75 255
-0.21827489 0.014789057 1.5910001 113 121 114 255
-0.21365182 0.014771419 1.5890001 69 77 69 255
-0.20890719 0.014744465 1.5860001 61 69 61 255
-0.20443618 0.014736088 1.585 74 80 72 255
-0.19996989 0.014727696 1.5840001 70 78 70 255
-0.19563186 0.014728585 1.5840001 55 63 56 255
-0.19117235 0.01472016 1.5830001 108 114 107 255
-0.18659955 0.014702418 1.5810001 74 82 75 255
-0.18203701 0.014684656 1.5790001 75 83 76 255
-0.17748472 0.014666876 1.577 75 83 76 255
-0.17272313 0.014630476 1.5730001 85 93 86 255
-0.16808984 0.014603358 1.5700001 83 91 84 255
-0.16388966 0.014613426 1.5710001 84 90 83 255
-0.15978491 0.014632781 1.5730001 77 83 76 255
-0.15527323 0.01461491 1.5710001 81 85 78 255
-0.15000315 0.014522589 1.5610001 79 78 72 255
-0.14404052 0.014355813 1.5430001 79 74 67 255
-0.13790426 0.014161091 1.5220001 79 71 62 255
-0.13197055 0.013975639 1.5020001 90 78 68 255
-0.020550476 0.0139949 1.503 78 56 40 255
-0.016515486 0.014078794 1.5120001 74 54 38 255
-0.012430918 0.014162669 1.521 73 53 37 255
-0.0082751056 0.014209277 1.526 75 57 41 255
-0.0040944265 0.014265176 1.5320001 81 63 47 255
0.00011911603 0.014302433 1.536 82 64 48 255
0.0043744533 0.014404846 1.5470001 84 66 50 255
0.0087125851 0.014544486 1.562 74 58 42 255
0.013308072 0.014879644 1.598 75 60 45 255
0.028845774 0.016201545 1.7400001 92 85 74 255
0.033881858 0.016322434 1.7530001 77 74 67 255
0.038989287 0.016443299 1.766 66 68 60 255
0.044192873 0.016573448 1.7800001 62 66 58 255
0.054436162 0.016712623 1.7950001 66 72 64 255
0.059503555 0.016749585 1.7990001 64 70 62 255
0.064592689 0.016786523 1.8030001 60 66 58 255
0.069742113 0.016832743 1.8080001 60 66 59 255
0.074753433 0.0168417 1.8090001 58 64 57 255
0.079681776 0.016832011 1.8080001 57 63 56 255
0.084604286 0.016822299 1.807 53 59 52 255
0.089620076 0.016831184 1.8080001 56 62 55 255
0.094693288 0.016849354 1.8100001 64 70 63 255
0.099942289 0.016895425 1.8150001 72 78 71 255
0.10521834 0.016941469 1.8200001 70 76 69 255
0.11040031 0.016968874 1.8230001 70 75 71 255
0.11528176 0.016949713 1.8210001 72 77 73 255
0.12008566 0.01692122 1.8180001 69 75 68 255
0.12494139 0.016902015 1.8160001 71 77 70 255
0.12964253 0.016864175 1.812 74 80 73 255
0.13446973 0.016844928 1.8100001 74 80 73 255
0.13936247 0.016834969 1.8090001 70 76 69 255
0.14440866 0.016843596 1.8100001 73 77 70 255
0.14978987 0.016889427 1.8150001 70 76 69 255
0.15519793 0.016935229 1.8200001 73 79 72 255
0.16054478 0.016971704 1.8240001 76 82 75 255
0.16545914 0.016961629 1.8230001 74 80 73 255
0.17046085 0.016960841 1.8230001 73 79 72 255
0.17555813 0.016969336 1.8240001 74 80 73 255
0.18637741 0.017042071 1.8320001 71 77 70 255
0.19108751 0.017013289 1.8290001 70 76 69 255
0.19556601 0.016965888 1.8240001 68 74 67 255
0.20023626 0.016937073 1.8210001 68 74 67 255
0.20500198 0.016917543 1.8190001 62 68 61 255
0.20998681 0.016916595 1.8190001 61 67 60 255
0.21485266 0.016906328 1.8180001 60 66 59 255
0.21983317 0.016905343 1.8180001 66 72 65 255
0.22493652 0.016913639 1.8190001 69 77 70 255
0.23092927 0.016987002 1.8270001 74 81 77 255
0.2370941 0.017069632 1.8360001 77 84 80 255
0.24370298 0.017180124 1.848 68 75 72 255
0.64728439 0.017117929 1.853 11 14 11 255
0.65124166 0.017089102 1.8500001 21 25 18 255
0.65589213 0.017078768 1.8490001 15 19 11 255
0.66053742 0.017068461 1.848 14 19 8 255
0.66301662 0.017002761 1.8410001 21 26 15 255
0.66654676 0.016964795 1.8370001 19 21 11 255
0.66969007 0.016917624 1.8320001 19 21 11 255
0.67391133 0.016898183 1.83 19 21 11 255
0.67775124 0.016869534 1.8270001 18 20 10 255
0.68269628 0.016868612 1.8270001 15 17 9 255
0.68613648 0.016830787 1.8230001 16 18 8 255
0.68879718 0.016774522 1.817 19 21 11 255
0.69142604 0.016718294 1.8110001 17 19 9 255
0.69440758 0.016671328 1.8060001 20 22 12 255
0.69736266 0.016624391 1.8010001 21 21 11 255
0.70029134 0.016577492 1.7960001 18 20 10 255
0.70554948 0.016585998 1.7970001 17 19 9 255
0.70725572 0.01651147 1.789 18 21 9 255
0.71170592 0.016501583 1.7880001 17 22 10 255
0.72216296 0.016630154 1.802 8 17 6 255
0.73067945 0.016712604 1.8110001 56 65 58 255
0.73721492 0.016748941 1.8150001 142 152 149 255
0.74131984 0.016729942 1.8130001 146 158 159 255
0.74253392 0.016646385 1.8040001 151 162 167 255
0.74079996 0.016498273 1.7880001 158 167 172 255
0.6750952 0.014744024 1.598 6 9 6 255
0.67050737 0.014549973 1.577 30 34 27 255
0.66965801 0.014439 1.5650001 29 33 25 255
0.67262018 0.014411096 1.562 28 33 21 255
0.67080081 0.014281742 1.5480001 28 35 24 255
0.67065096 0.014189325 1.5380001 26 31 19 255
0.66825432 0.014050816 1.5230001 27 32 20 255
0.67019254 0.014004599 1.5180001 22 27 15 255
0.67032826 0.013921516 1.5090001 20 25 13 255
0.67399216 0.013912272 1.508 28 35 23 255
-0.9426567 0.010365372 1.5870001 52 54 46 255
-0.97300178 0.010748583 1.646 44 46 38 255
-0.98713374 0.010955422 1.6780001 44 46 38 255
-0.98411274 0.010972939 1.6810001 61 62 56 255
-1.0265234 0.011499565 1.7620001 29 30 24 255
-1.0116652 0.011386582 1.7450001 43 45 37 255
-0.99517965 0.011254124 1.725 41 43 35 255
-0.97594339 0.01108915 1.7 25 27 17 255
-0.98027647 0.011191686 1.7160001 31 33 23 255
-0.96917778 0.011118177 1.705 23 26 14 255
-0.96889383 0.011168623 1.7130001 23 24 12 255
-0.96688235 0.011199548 1.7180001 23 22 8 255
-0.95980889 0.011171854 1.7140001 25 22 8 255
-0.96000665 0.011228939 1.723 33 25 8 255
-0.95517027 0.011227414 1.723 38 30 13 255
-0.95254582 0.011252001 1.7270001 66 54 37 255
-0.94551414 0.011224513 1.723 39 25 8 255
-0.94069386 0.011223136 1.723 49 33 17 255
-0.93533587 0.011215296 1.7220001 84 64 48 255
-0.93160939 0.011227038 1.7240001 91 65 46 255
-0.92733932 0.011232313 1.725 102 76 57 255
-0.92360318 0.011244144 1.7270001 111 86 64 255
-0.9198606 0.01125602 1.7290001 105 80 57 255
-0.91505313 0.011254918 1.7290001 99 74 51 255
-0.90972352 0.01124735 1.728 97 72 49 255
-0.90492779 0.011246338 1.728 93 69 43 255
-0.90013635 0.011245367 1.728 93 69 41 255
-0.89586711 0.011250948 1.7290001 95 71 43 255
-0.89108121 0.011250062 1.7290001 92 68 40 255
-0.88783711 0.011268736 1.7320001 90 68 42 255
-0.88203102 0.01125492 1.7300001 92 70 44 255
-0.87776101 0.01126066 1.7310001 89 66 43 255
-0.87298512 0.011259936 1.7310001 86 63 40 255
-0.86871433 0.011265756 1.7320001 84 65 36 255
-0.86344379 0.011258604 1.7310001 82 63 34 255
-0.86016667 0.011277507 1.7340001 76 59 30 255
-0.85687619 0.011296446 1.7370001 73 56 27 255
-0.85210097 0.01129591 1.7370001 71 55 31 255
-0.84635329 0.011282405 1.7350001 68 52 28 255
-0.84158975 0.011281942 1.7350001 65 49 25 255
-0.83827621 0.011301021 1.738 64 50 26 255
-0.83542877 0.011326637 1.7420001 60 47 23 255
-0.83208555 0.011345785 1.7450001 57 44 20 255
-0.83015084 0.011384469 1.751 55 42 18 255
-0.82677191 0.01140368 1.7540001 59 46 23 255
-0.82384789 0.011429426 1.7580001 60 47 24 255
-0.81857502 0.011422696 1.7570001 61 47 23 255
-0.81423646 0.011429002 1.7580001 67 53 29 255
-0.80851364 0.011415836 1.756 73 57 33 255
-0.80280405 0.011402702 1.7540001 77 59 35 255
-0.79392284 0.011344094 1.7450001 81 65 42 255
-0.78554511 0.011292015 1.7370001 72 59 36 255
-0.75909752 0.011044932 1.6990001 168 160 143 255
-0.73981506 0.01083042 1.6660001 169 166 150 255
-0.7273342 0.010713447 1.6480001 155 156 142 255
-0.71758485 0.010635504 1.636 156 159 145 255
-0.7083385 0.010564089 1.6250001 154 160 143 255
-0.69915342 0.010492694 1.6140001 153 159 141 255
-0.69175166 0.010447329 1.6070001 215 221 203 255
-0.68567258 0.010421489 1.603 216 224 207 255
-0.67919159 0.010389169 1.598 170 175 161 255
-0.67358375 0.010369875 1.595 159 164 150 255
-0.66883272 0.010363607 1.5940001 130 138 121 255
-0.66575575 0.010383367 1.5970001 142 150 133 255
-0.66307789 0.01040965 1.6010001 136 145 126 255
-0.66037935 0.010435957 1.605 133 140 119 255
-0.65684283 0.010449283 1.6070001 128 135 113 255
-0.65207833 0.01044312 1.6060001 135 142 121 255
-0.6477235 0.010443482 1.6060001 136 143 122 255
-0.64336962 0.010443863 1.6060001 134 140 122 255
-0.63901663 0.010444263 1.6060001 140 146 128 255
-0.63545477 0.01045769 1.608 132 138 120 255
-0.63149035 0.010464631 1.6090001 126 133 112 255
-0.62791109 0.010478097 1.6110001 133 138 116 255
-0.62432158 0.01049158 1.613 128 134 109 255
-0.62033761 0.010498578 1.6140001 126 130 104 255
-0.61673045 0.010512099 1.6160001 130 134 108 255
-0.61273402 0.010519133 1.6170001 135 141 116 255
-0.60948515 0.010539195 1.6200001 134 140 115 255
-0.60622042 0.010559274 1.623 129 137 112 255
-0.60293996 0.010579371 1.626 126 134 109 255
-0.59927559 0.01059298 1.628 127 135 110 255
-0.59450448 0.010587084 1.6270001 129 137 112 255
-0.59010178 0.010587708 1.6270001 126 134 108 255
-0.58641922 0.010601363 1.6290001 129 137 112 255
-0.58236897 0.010608525 1.6300001 129 137 112 255
-0.57831335 0.010615702 1.631 135 143 118 255
-0.57460445 0.010629402 1.6330001 133 139 114 255
-0.5708847 0.010643115 1.6350001 125 131 106 255
-0.56715429 0.010656844 1.6370001 132 138 113 255
-0.5630694 0.010664076 1.6380001 134 140 115 255
-0.55966109 0.010684339 1.641 140 144 118 255
-0.55589819 0.010698109 1.6430001 133 137 111 255
-0.55246013 0.010718402 1.646 132 136 110 255
-0.54900569 0.010738709 1.649 129 133 107 255
-0.54520464 0.010752515 1.651 128 132 106 255
-0.5413928 0.010766335 1.6530001 126 132 106 255
-0.53756982 0.010780166 1.6550001 129 135 109 255
-0.5330916 0.01078098 1.6550001 131 137 111 255
-0.52829367 0.010775287 1.654 134 142 117 255
-0.52350092 0.010769602 1.6530001 141 148 126 255
-0.5187133 0.010763926 1.6520001 143 152 131 255
-0.5139308 0.010758255 1.651 151 160 141 255
-0.50946182 0.010759108 1.651 154 165 146 255
-0.50499254 0.010759967 1.651 155 166 147 255
-0.50052297 0.010760835 1.651 151 162 143 255
-0.49545193 0.010748671 1.649 148 157 138 255
-0.49039128 0.010736512 1.6470001 142 151 132 255
-0.48563603 0.010730876 1.646 133 140 119 255
-0.48176271 0.010744804 1.6480001 136 143 121 255
-0.47758842 0.010752219 1.649 127 133 107 255
-0.47340816 0.01075964 1.6500001 129 135 109 255
-0.46922195 0.010767065 1.651 130 136 110 255
-0.46531123 0.010781021 1.6530001 127 135 109 255
-0.46138909 0.01079498 1.6550001 129 137 111 255
-0.45745543 0.010808945 1.6570001 132 141 112 255
-0.45323697 0.010816392 1.6580001 130 139 110 255
-0.44847107 0.010810793 1.6570001 124 133 104 255
-0.44344202 0.010798673 1.6550001 131 139 113 255
-0.43895364 0.010799603 1.6550001 131 141 118 255
-0.43393946 0.010787483 1.6530001 147 156 135 255
-0.42815602 0.010755783 1.6480001 179 190 171 255
-0.42162773 0.010704495 1.6400001 162 173 154 255
-0.41615954 0.010679311 1.636 159 170 151 255
-0.41071239 0.010654124 1.6320001 149 160 141 255
-0.40603304 0.010648519 1.631 127 138 117 255
-0.40160453 0.010649441 1.631 126 136 113 255
-0.39717525 0.010650363 1.631 130 137 115 255
-0.39274523 0.010651286 1.631 133 142 121 255
-0.38807631 0.010645676 1.6300001 141 150 129 255
-0.38388267 0.010653126 1.631 173 182 163 255
-0.37921754 0.010647514 1.6300001 175 184 165 255
-0.37501684 0.010654962 1.631 168 178 153 255
-0.37035546 0.010649344 1.6300001 118 126 100 255
-0.36637214 0.010663323 1.6320001 112 121 90 255
-0.36259884 0.010683836 1.6350001 116 122 87 255
-0.35858929 0.010697815 1.6370001 112 116 80 255
-0.35456803 0.010711792 1.6390001 110 114 79 255
-0.35053501 0.010725768 1.641 110 115 83 255
-0.34606841 0.010726671 1.641 102 109 78 255
-0.34118465 0.010714495 1.6390001 92 100 74 255
-0.33548912 0.01067616 1.6330001 164 171 149 255
-0.33063617 0.010663968 1.631 133 140 118 255
-0.32639334 0.010671386 1.6320001 134 144 121 255
-0.32253861 0.010691877 1.6350001 119 126 105 255
-0.31808305 0.010692747 1.6350001 89 96 74 255
-0.31381837 0.010700151 1.636 40 46 28 255
-0.30898014 0.010687931 1.6340001 22 26 9 255
-0.30452454 0.010688781 1.6340001 24 25 11 255
-0.29970086 0.010676543 1.6320001 27 28 14 255
-0.29542994 0.010683923 1.6330001 27 26 12 255
-0.29043993 0.010665126 1.6300001 29 28 14 255
-0.28546533 0.010646318 1.6270001 30 29 15 255
-0.28085175 0.010640589 1.626 29 30 18 255
-0.27658269 0.010647937 1.6270001 30 30 20 255
-0.27247459 0.010661826 1.6290001 19 21 13 255
-0.2678611 0.010656072 1.628 103 107 100 255
-0.26244316 0.010617579 1.6220001 87 92 88 255
-0.25657994 0.010559431 1.613 110 117 113 255
-0.25092143 0.010507815 1.605 91 98 95 255
-0.2460738 0.010488918 1.6020001 107 114 111 255
-0.2413926 0.010476558 1.6 101 108 105 255
-0.23701778 0.010477282 1.6 86 93 90 255
-0.23278756 0.010484546 1.6010001 75 82 78 255
-0.2284084 0.010485252 1.6010001 71 78 74 255
-0.22402844 0.010485951 1.6010001 81 89 82 255
-0.21951047 0.010480086 1.6 92 100 93 255
-0.21472827 0.010461111 1.5970001 117 125 118 255
-0.20996176 0.010442122 1.5940001 65 73 65 255
-0.20533985 0.010429671 1.5920001 63 69 62 255
-0.20072812 0.010417207 1.59 69 75 68 255
-0.19625014 0.010411285 1.5890001 61 69 62 255
-0.19165614 0.010398797 1.5870001 104 110 103 255
-0.18730843 0.010399402 1.5870001 93 101 94 255
-0.18284473 0.010393444 1.5860001 74 82 75 255
-0.17861089 0.010400579 1.5870001 74 82 75 255
-0.17415126 0.010394595 1.5860001 87 93 86 255
-0.16969647 0.010388598 1.585 88 93 89 255
-0.1652465 0.010382589 1.5840001 82 87 83 255
-0.1610045 0.010389676 1.585 83 88 84 255
-0.15665756 0.010390198 1.585 84 89 85 255
-0.15211783 0.010377595 1.5830001 81 84 80 255
-0.14730839 0.010345311 1.5780001 83 82 76 255
-0.14207277 0.010280229 1.5680001 84 81 75 255
-0.13601279 0.010149562 1.5480001 79 73 66 255
-0.12921087 0.0099533023 1.5180001 94 82 73 255
-0.012275686 0.0098550897 1.5020001 73 53 37 255
-0.0081992215 0.0099207377 1.5120001 78 58 42 255
-0.0040596998 0.0099666882 1.5190001 84 64 48 255
0.00011857369 0.010032309 1.529 87 67 51 255
0.0043716449 0.010143845 1.5460001 85 67 51 255
0.0087795574 0.010327539 1.5740001 75 59 43 255
0.029691378 0.011751072 1.7910001 64 59 49 255
0.034751758 0.011796887 1.7980001 63 58 51 255
0.03991672 0.011862368 1.8080001 73 77 69 255
0.045111675 0.011921269 1.817 75 79 71 255
0.050218049 0.011947349 1.8210001 68 72 64 255
0.055255212 0.011953726 1.8220001 65 71 63 255
0.060231481 0.011946966 1.8210001 61 67 59 255
0.065166168 0.011933627 1.8190001 61 67 60 255
0.070128143 0.011926832 1.8180001 59 65 58 255
0.075001687 0.0119069 1.8150001 60 66 59 255
0.07990247 0.011893512 1.8130001 54 60 53 255
0.084698282 0.011866989 1.8090001 56 61 57 255
0.089769155 0.011879808 1.8110001 83 89 82 255
0.095112219 0.011925409 1.8180001 81 86 82 255
0.10071362 0.011997228 1.8290001 76 81 77 255
0.1062016 0.01204935 1.8370001 77 82 78 255
0.11143028 0.012068654 1.84 78 83 79 255
0.11635844 0.012055148 1.8380001 80 85 81 255
0.12127514 0.012041627 1.8360001 85 90 86 255
0.12624913 0.012034648 1.835 84 89 85 255
0.13121711 0.012027655 1.8340001 79 84 80 255
0.13640192 0.01204032 1.8360001 76 81 77 255
0.14152011 0.012046408 1.8370001 77 82 78 255
0.14688255 0.012072154 1.8410001 76 81 77 255
0.15243141 0.012110996 1.8470001 80 86 79 255
0.15792733 0.012143263 1.8520001 78 84 77 255
0.16327401 0.012162397 1.8550001 78 84 77 255
0.16809192 0.012142178 1.8520001 72 78 71 255
0.1733602 0.012154724 1.8540001 71 77 70 255
0.17863879 0.012167254 1.8560001 71 77 70 255
0.18402663 0.012186324 1.8590001 69 75 68 255
0.18902324 0.012179157 1.858 69 75 68 255
0.19359571 0.012145758 1.853 66 74 67 255
0.19814004 0.012112348 1.848 67 73 66 255
0.20265613 0.012078926 1.8430001 68 73 69 255
0.20748217 0.012065156 1.8410001 65 73 66 255
0.21252733 0.012064481 1.8410001 65 70 66 255
0.21721713 0.012044134 1.8380001 74 79 75 255
0.22188966 0.012023773 1.835 76 82 75 255
0.22629762 0.0119903 1.83 77 85 78 255
0.23181492 0.012015782 1.8340001 72 79 75 255
0.23761155 0.012054351 1.84 71 78 74 255
0.65229863 0.012061364 1.853 10 14 7 255
0.65731198 0.012060591 1.853 22 26 19 255
0.66196805 0.012053325 1.8520001 18 20 10 255
0.66517836 0.012020043 1.8470001 16 18 8 255
0.66799897 0.011980273 1.8410001 21 23 13 255
0.67042202 0.011934018 1.8340001 20 22 12 255
0.6746487 0.011920318 1.8320001 21 23 13 255
0.67849398 0.011900129 1.8290001 20 22 12 255
0.68269712 0.011886466 1.8270001 20 22 12 255
0.6857608 0.011853307 1.8220001 19 21 11 255
0.68803972 0.011807154 1.8150001 18 20 10 255
0.69066322 0.011767533 1.8090001 17 19 9 255
0.69402373 0.011740942 1.8050001 19 21 11 255
0.69697607 0.011707869 1.8000001 17 17 7 255
0.70146167 0.011700836 1.7990001 17 17 7 255
0.7071206 0.011713335 1.8010001 18 20 10 255
0.70883763 0.011660817 1.7930001 17 20 8 255
0.71130842 0.01162133 1.7870001 17 22 10 255
0.72216344 0.011718431 1.802 16 23 12 255
0.73189038 0.011796039 1.8140001 11 20 13 255
0.73721534 0.011802134 1.8150001 133 143 140 255
0.74050248 0.011775742 1.8110001 152 161 163 255
0.74335742 0.011742871 1.8060001 152 161 166 255
0.74660081 0.011716528 1.802 160 169 174 255
0.74607038 0.011631694 1.789 163 172 177 255
0.68143243 0.01048689 1.613 23 28 25 255
0.67178315 0.010272133 1.58 32 35 31 255
0.67136985 0.010200437 1.5690001 30 34 27 255
0.67132849 0.010135265 1.559 29 34 22 255
0.67123425 0.010070118 1.549 27 32 21 255
0.67108715 0.010004998 1.539 27 32 20 255
0.6713258 0.0099464031 1.5300001 25 30 18 255
0.67284161 0.009907335 1.524 22 27 15 255
0.6729936 0.0098487893 1.5150001 29 34 22 255
0.67399216 0.00980327 1.508 30 35 24 255
-0.94978279 0.0060662813 1.5990001 37 39 31 255
-0.98127586 0.0062964484 1.6600001 41 43 35 255
-0.98301423 0.0063369437 1.6710001 21 23 15 255
-0.98938 0.0064077876 1.6900001 61 63 55 255
-0.99739242 0.0064900122 1.7120001 36 38 30 255
-1.0151422 0.0066366717 1.751 22 24 16 255
-0.96979392 0.006370252 1.6810001 34 36 26 255
-0.96388626 0.0063615995 1.6790001 42 44 34 255
-0.97799009 0.006485573 1.7120001 34 36 26 255
-0.97542924 0.0064996933 1.7160001 27 28 16 255
-0.96889257 0.00648733 1.7130001 24 25 11 255
-0.97025788 0.0065280125 1.7240001 27 24 10 255
-0.9620474 0.0065043503 1.7180001 28 24 8 255
-0.96279138 0.0065412926 1.728 33 23 6 255
-0.95683223 0.0065328348 1.7260001 55 45 28 255
-0.95419937 0.0065471148 1.7300001 70 56 39 255
-0.94606179 0.0065235789 1.7240001 41 25 9 255
-0.94123894 0.0065227794 1.7240001 69 51 35 255
-0.9364211 0.0065220068 1.7240001 95 73 57 255
-0.9316085 0.0065212622 1.7240001 103 77 59 255
-0.9273383 0.0065243263 1.725 110 84 66 255
-0.92467183 0.0065387636 1.7290001 123 97 79 255
-0.92145586 0.0065494417 1.7320001 113 87 68 255
-0.91716927 0.0065525812 1.733 99 74 52 255
-0.91182864 0.0065481854 1.7320001 97 72 50 255
-0.90649813 0.0065438147 1.7310001 94 70 44 255
-0.90065658 0.0065356912 1.7290001 94 70 42 255
-0.89483011 0.0065275924 1.7270001 93 69 41 255
-0.89004982 0.0065270793 1.7270001 93 69 41 255
-0.88681126 0.0065379264 1.7300001 92 68 40 255
-0.88254023 0.0065412386 1.7310001 91 69 41 255
-0.87877464 0.0065483521 1.733 89 67 41 255
-0.87348896 0.0065441527 1.7320001 86 64 38 255
-0.87021852 0.0065550893 1.7350001 83 64 35 255
-0.86493975 0.0065509346 1.7340001 81 62 33 255
-0.86115825 0.0065581361 1.7360001 81 64 35 255
-0.85687578 0.0065615815 1.7370001 78 61 32 255
-0.8525911 0.0065650474 1.738 73 57 33 255
-0.84732848 0.0065609803 1.7370001 73 57 33 255
-0.84255946 0.0065607117 1.7370001 68 52 28 255
-0.83827591 0.00656424 1.738 63 49 26 255
-0.83542848 0.0065791197 1.7420001 57 44 21 255
-0.83208525 0.0065902411 1.7450001 59 46 23 255
-0.83062464 0.0066164881 1.7520001 52 41 18 255
-0.8281858 0.0066352002 1.7570001 54 43 22 255
-0.82572222 0.006653931 1.7620001 56 45 22 255
-0.82043839 0.0066500213 1.761 59 46 23 255
-0.81608903 0.0066536847 1.7620001 64 50 26 255
-0.81173658 0.0066573662 1.7630001 68 54 30 255
-0.80738091 0.0066610649 1.7640001 70 54 30 255
-0.80302215 0.0066647818 1.7650001 76 60 36 255
-0.79820788 0.0066647413 1.7650001 75 61 38 255
-0.79249668 0.0066571645 1.7630001 74 60 40 255
-0.78411776 0.0066269501 1.7550001 68 56 39 255
-0.77178776 0.0065627671 1.738 56 48 32 255
-0.75646293 0.0064721685 1.7140001 76 72 61 255
-0.74741119 0.0064344485 1.7040001 147 150 138 255
-0.73841572 0.0063967453 1.6940001 143 148 136 255
-0.72860986 0.0063515031 1.682 142 147 133 255
-0.71585757 0.0062798406 1.6630001 132 140 125 255
-0.7062043 0.0062346244 1.651 122 130 115 255
-0.69406766 0.0061667636 1.6330001 194 201 189 255
-0.68414164 0.0061177956 1.6200001 197 204 192 255
-0.67806399 0.0061028264 1.6160001 192 199 187 255
-0.67367667 0.0061029764 1.6160001 190 198 183 255
-0.6692906 0.0061031394 1.6160001 185 193 176 255
-0.66408277 0.006095761 1.6140001 172 181 162 255
-0.65929544 0.0060921703 1.613 151 157 139 255
-0.65451479 0.006088593 1.6120001 148 154 136 255
-0.65054703 0.006092581 1.613 151 157 139 255
-0.64657474 0.0060965805 1.6140001 148 154 137 255
-0.64180219 0.0060930364 1.613 137 143 126 255
-0.63743103 0.0060932813 1.613 208 214 197 255
-0.63345313 0.0060973144 1.6140001 125 131 113 255
-0.62908071 0.0060975803 1.6140001 137 142 121 255
-0.62509608 0.0061016353 1.6150001 127 132 110 255
-0.62110668 0.0061057005 1.6160001 135 138 116 255
-0.6178757 0.0061173332 1.6190001 140 143 119 255
-0.61425012 0.0061251987 1.6210001 137 143 118 255
-0.61061424 0.006133073 1.623 129 136 114 255
-0.60734141 0.0061447374 1.626 132 139 117 255
-0.6040529 0.006156412 1.6290001 125 135 112 255
-0.60038036 0.0061643175 1.631 122 132 109 255
-0.59633195 0.006168453 1.6320001 123 133 110 255
-0.59191573 0.0061688172 1.6320001 129 137 112 255
-0.5874998 0.0061691897 1.6320001 129 136 114 255
-0.58272666 0.006165789 1.631 130 137 115 255
-0.57902306 0.0061737392 1.6330001 132 139 117 255
-0.57530868 0.0061816974 1.6350001 136 142 117 255
-0.57193285 0.0061934451 1.6380001 130 136 111 255
-0.56854063 0.0062052007 1.641 131 137 112 255
-0.56444484 0.0062094019 1.6420001 129 135 109 255
-0.56136692 0.0062249568 1.646 134 138 112 255
-0.55759054 0.006232956 1.6480001 133 137 111 255
-0.5541389 0.0062447446 1.651 131 135 109 255
-0.55000514 0.0062489766 1.6520001 130 134 108 255
-0.54586577 0.0062532141 1.6530001 129 133 107 255
-0.54237598 0.0062650251 1.6560001 131 137 111 255
-0.53822005 0.0062692766 1.6570001 130 136 111 255
-0.53438067 0.0062773172 1.659 129 137 112 255
-0.52957195 0.0062740124 1.6580001 133 140 118 255
-0.52508509 0.0062744962 1.6580001 144 151 129 255
-0.51997 0.0062674158 1.6560001 152 161 142 255
-0.51486528 0.0062603382 1.654 158 169 150 255
-0.51007968 0.0062570488 1.6530001 152 163 144 255
-0.50591093 0.0062613352 1.654 156 167 148 255
-0.50143307 0.0062618391 1.654 155 164 145 255
-0.49665448 0.0062585622 1.6530001 153 162 143 255
-0.4912852 0.0062477142 1.6500001 149 156 135 255
-0.48652184 0.006244441 1.649 149 156 134 255
-0.48234811 0.0062487456 1.6500001 147 153 128 255
-0.4781684 0.006253053 1.651 130 137 108 255
-0.47398272 0.0062573641 1.6520001 132 139 110 255
-0.47035953 0.0062692547 1.6550001 126 133 104 255
-0.46643794 0.006277361 1.6570001 127 133 107 255
-0.46250495 0.0062854709 1.659 126 134 108 255
-0.45828438 0.006289795 1.6600001 127 135 109 255
-0.4543311 0.0062979111 1.6620001 132 140 114 255
-0.44955444 0.0062946612 1.6610001 128 137 108 255
-0.44478247 0.0062914123 1.6600001 129 138 109 255
-0.4402805 0.0062919538 1.6600001 132 140 114 255
-0.43577781 0.0062924968 1.6600001 134 144 121 255
-0.43049496 0.0062816679 1.6570001 170 179 158 255
-0.42445645 0.0062594633 1.651 182 193 174 255
-0.41844967 0.0062372559 1.6450001 163 174 155 255
-0.4127264 0.0062188366 1.6400001 163 174 155 255
-0.40752748 0.0062079988 1.6370001 132 143 124 255
-0.40234399 0.0061971596 1.6340001 129 138 117 255
-0.39790657 0.0061976961 1.6340001 124 133 114 255
-0.39346838 0.006198233 1.6340001 131 140 121 255
-0.38902935 0.0061987694 1.6340001 134 143 124 255
-0.38506022 0.0062068915 1.636 154 162 145 255
-0.38038146 0.0062036333 1.6350001 171 182 163 255
-0.37593728 0.0062041674 1.6350001 180 189 168 255
-0.37103781 0.0061971098 1.6330001 156 163 141 255
-0.36682183 0.0062014358 1.6340001 120 128 102 255
-0.3630431 0.0062133521 1.6370001 115 120 89 255
-0.35924718 0.0062252684 1.6400001 115 121 86 255
-0.35543409 0.0062371846 1.6430001 110 116 81 255
-0.35139018 0.0062453039 1.6450001 102 108 73 255
-0.34712362 0.0062496266 1.646 108 113 82 255
-0.34264249 0.0062501491 1.646 105 112 81 255
-0.33754423 0.0062392778 1.6430001 149 156 127 255
-0.33246142 0.0062284013 1.6400001 138 146 120 255
-0.32819399 0.0062327129 1.641 129 137 111 255
-0.32431474 0.006244618 1.6440001 128 136 110 255
-0.32022372 0.0062527237 1.646 120 128 102 255
-0.31612092 0.0062608276 1.6480001 100 107 85 255
-0.31162813 0.0062613306 1.6480001 68 73 52 255
-0.30732074 0.0062656295 1.649 17 21 3 255
-0.30245614 0.0062585254 1.6470001 24 26 9 255
-0.29814428 0.006262817 1.6480001 25 26 12 255
-0.29293513 0.0062481021 1.6440001 29 28 14 255
-0.28827327 0.0062447833 1.6430001 31 30 16 255
-0.28361601 0.0062414594 1.6420001 32 31 17 255
-0.27913329 0.0062419325 1.6420001 33 34 20 255
-0.27448237 0.0062385984 1.641 33 36 24 255
-0.26950708 0.0062276558 1.6380001 19 21 11 255
-0.2645472 0.0062167062 1.6350001 79 85 77 255
-0.25864846 0.0061829346 1.626 108 116 109 255
-0.25279808 0.0061491542 1.6170001 85 92 88 255
-0.2474568 0.0061267712 1.6110001 99 106 103 255
-0.24260013 0.0061157909 1.608 100 107 104 255
-0.23820342 0.0061162137 1.608 100 107 104 255
-0.23366055 0.0061128289 1.6070001 73 80 76 255
-0.22926497 0.0061132405 1.6070001 76 81 77 255
-0.22514841 0.006121255 1.6090001 71 76 72 255
-0.22102013 0.0061292648 1.6110001 89 97 90 255
-0.2163423 0.0061220508 1.6090001 101 109 102 255
-0.21127945 0.0061034132 1.6040001 108 115 111 255
-0.20637219 0.006088573 1.6 81 88 84 255
-0.20186482 0.006085142 1.5990001 96 102 95 255
-0.19723868 0.0060778973 1.5970001 80 85 81 255
-0.19274352 0.0060744514 1.5960001 64 69 65 255
-0.18813507 0.0060671926 1.5940001 98 103 99 255
-0.18376748 0.0060675396 1.5940001 80 85 81 255
-0.1795117 0.0060716853 1.595 79 84 80 255
-0.17503017 0.006068212 1.5940001 87 92 88 255
-0.17044637 0.0060609239 1.5920001 91 96 92 255
-0.16597718 0.0060574347 1.5910001 90 95 92 255
-0.161716 0.0060615535 1.5920001 86 91 88 255
-0.15754752 0.0060694725 1.5940001 86 91 88 255
-0.15317528 0.0060697696 1.5940001 79 86 83 255
-0.14870904 0.0060662506 1.5930001 77 84 81 255
-0.14406651 0.0060551083 1.59 80 86 79 255
-0.13917625 0.0060325316 1.5840001 77 81 74 255
-0.1334672 0.0059718601 1.5680001 73 72 66 255
-0.12644503 0.0058464259 1.5350001 92 87 81 255
-0.11976278 0.0057285922 1.5040001 103 93 86 255
-0.012283891 0.005728194 1.503 75 57 41 255
-0.0081992438 0.0057625156 1.5120001 80 62 46 255
-0.0040704017 0.0058044512 1.5230001 87 67 51 255
0.00011903932 0.0058501898 1.5350001 90 70 54 255
0.0044225557 0.0059607103 1.5640001 83 65 49 255
0.019896289 0.0068448316 1.7960001 80 65 52 255
0.025015138 0.0068943305 1.8090001 73 64 51 255
0.030089336 0.0069171409 1.8150001 73 69 59 255
0.035215735 0.0069437535 1.8220001 80 80 72 255
0.040314231 0.0069589205 1.8260001 73 77 69 255
0.045434561 0.0069740782 1.83 67 71 63 255
0.050438803 0.0069701709 1.8290001 66 70 63 255
0.055437323 0.0069662528 1.8280001 66 70 63 255
0.060330879 0.0069508934 1.8240001 63 69 62 255
0.065237992 0.0069393343 1.8210001 63 69 62 255
0.070166908 0.0069315764 1.8190001 56 61 57 255
0.13669944 0.0070089218 1.84 74 79 76 255
0.14182864 0.0070124585 1.8410001 77 82 79 255
0.14736165 0.0070350296 1.8470001 75 80 77 255
0.15300952 0.0070613991 1.8540001 69 74 70 255
0.15852468 0.0070801405 1.8590001 73 78 74 255
0.16397856 0.0070950617 1.863 72 77 73 255
0.16918151 0.0070985486 1.8640001 73 78 74 255
0.17438923 0.0071020266 1.8650001 72 77 73 255
0.17960174 0.0071054948 1.8660001 75 80 76 255
0.18442306 0.0070937229 1.863 76 81 77 255
0.18932894 0.0070857527 1.8610001 76 81 77 255
0.19380517 0.0070625446 1.8550001 72 79 75 255
0.19846219 0.007046944 1.8510001 75 82 78 255
0.20298655 0.007027531 1.8460001 75 82 79 255
0.20759542 0.0070119188 1.8420001 76 83 80 255
0.21241242 0.0070039122 1.84 81 88 85 255
0.21733585 0.0069997059 1.8390001 73 80 77 255
0.65837675 0.0070167906 1.8560001 10 13 10 255
0.66268349 0.0070087882 1.8540001 23 24 18 255
0.66661948 0.0069970163 1.8510001 18 20 12 255
0.66836244 0.0069625755 1.8420001 19 24 13 255
0.67042261 0.0069319275 1.8340001 17 22 11 255
0.6739127 0.0069164103 1.83 36 41 30 255
0.67997831 0.0069273589 1.8330001 31 36 25 255
0.68381858 0.0069156424 1.83 20 25 14 255
0.68651408 0.006892602 1.8240001 21 23 13 255
0.68841934 0.0068620159 1.8160001 18 20 10 255
0.6906637 0.0068352227 1.8090001 18 20 10 255
0.6936397 0.0068159997 1.8040001 18 20 10 255
0.6962021 0.0067930105 1.7980001 21 21 11 255
0.70029235 0.0067851474 1.7960001 19 19 9 255
0.70358723 0.00676974 1.7920001 19 22 10 255
0.70804739 0.0067656795 1.7910001 15 18 6 255
0.71170682 0.0067540761 1.7880001 19 24 12 255
0.72336608 0.0068180324 1.8050001 16 23 12 255
0.73269761 0.0068593333 1.8160001 4 12 5 255
0.73721576 0.0068553193 1.8150001 135 143 140 255
0.74050277 0.0068399888 1.8110001 152 162 161 255
0.74335772 0.0068208952 1.8060001 156 165 170 255
0.74701536 0.0068093697 1.8030001 161 170 175 255
0.74773878 0.0067714239 1.7930001 164 173 178 255
0.67974275 0.0060762474 1.6090001 80 84 84 255
0.67135823 0.0059628347 1.5790001 31 34 31 255
0.67136997 0.0059249653 1.5690001 27 31 24 255
0.67175919 0.0058908858 1.5600001 25 30 19 255
0.6716677 0.0058530453 1.5500001 27 32 21 255
0.67239535 0.0058227717 1.5420001 26 31 19 255
0.67308098 0.0057925121 1.534 27 32 20 255
0.67416608 0.005766043 1.5270001 26 31 19 255
0.67343783 0.0057244846 1.516 29 34 22 255
0.67443913 0.0056980443 1.5090001 32 37 26 255
0.6745047 0.0056640664 1.5000001 29 36 25 255
-0.98304862 0.001756078 1.6630001 36 38 28 255
-0.99713212 0.0017895221 1.6950001 32 32 22 255
-0.9952336 0.0017944623 1.7 27 27 17 255
-0.99389601 0.0018004653 1.7060001 55 56 44 255
-0.98963255 0.0018011992 1.7070001 21 21 11 255
-0.9877007 0.0018234906 1.7290001 39 37 26 255
-0.98452342 0.0018263644 1.7320001 35 32 18 255
-0.97850734 0.0018239744 1.7300001 33 30 16 255
-0.97363394 0.0018237019 1.7300001 31 25 9 255
-0.96372682 0.0018139515 1.7210001 33 23 6 255
-0.96111923 0.0018179127 1.725 50 36 17 255
-0.95572299 0.0018166122 1.7240001 67 53 36 255
-0.95475024 0.0018237483 1.7310001 77 61 45 255
-0.94880515 0.0018214101 1.7290001 41 23 7 255
-0.94396812 0.0018211866 1.7290001 78 60 44 255
-0.93859333 0.0018199179 1.728 93 71 55 255
-0.93376946 0.0018197101 1.728 115 88 73 255
-0.92895067 0.00181951 1.728 118 91 76 255
-0.92681056 0.0018245815 1.733 125 98 83 255
-0.92198741 0.0018243957 1.733 131 104 89 255
-0.91769797 0.0018252698 1.7340001 111 83 65 255
-0.91077536 0.0018208884 1.7300001 103 75 56 255
-0.90545046 0.0018196719 1.7290001 101 74 51 255
-0.89961445 0.0018174105 1.7270001 97 71 45 255
-0.89431155 0.0018162081 1.7260001 96 70 42 255
-0.88953412 0.0018160653 1.7260001 91 67 39 255
-0.88732356 0.0018211895 1.7310001 93 69 41 255
-0.88355958 0.0018231636 1.733 95 71 43 255
-0.87978858 0.0018251439 1.7350001 95 71 43 255
-0.87601024 0.0018271303 1.7370001 90 66 40 255
-0.87172288 0.0018280708 1.738 89 67 39 255
-0.86743355 0.0018290179 1.7390001 93 71 43 255
-0.86314231 0.0018299709 1.7400001 88 69 40 255
-0.85786217 0.0018288264 1.7390001 81 64 35 255
-0.85210037 0.0018266365 1.7370001 78 60 34 255
-0.84732831 0.0018265558 1.7370001 78 60 34 255
-0.84401459 0.0018296358 1.7400001 69 53 27 255
-0.84068745 0.0018327208 1.743 66 50 26 255
-0.83734673 0.0018358117 1.7460001 65 51 28 255
-0.83351564 0.0018378564 1.748 61 47 27 255
-0.83062452 0.001842009 1.7520001 54 43 22 255
-0.82771432 0.0018461673 1.756 53 43 24 255
-0.82525343 0.0018513817 1.761 53 43 24 255
-0.82183605 0.001854499 1.7640001 51 42 21 255
-0.81840473 0.001857621 1.7670001 56 45 24 255
-0.81311768 0.0018565431 1.766 60 47 24 255
-0.80921173 0.0018586246 1.7680001 68 53 33 255
-0.80529702 0.0018607106 1.7700001 71 56 36 255
-0.80227804 0.001864904 1.774 73 59 40 255
-0.7974413 0.0018648972 1.774 74 60 43 255
-0.79081964 0.0018606907 1.7700001 60 50 41 255
-0.72721976 0.0017988106 1.7110001 112 119 108 255
-0.71454799 0.0017788716 1.692 98 105 94 255
-0.70156127 0.0017578844 1.6720001 167 172 161 255
-0.69243634 0.0017463622 1.6610001 195 202 191 255
-0.68212974 0.001731689 1.6470001 193 200 188 255
-0.6735462 0.0017212242 1.6370001 188 196 181 255
-0.66583544 0.0017128651 1.6290001 197 205 190 255
-0.66019928 0.0017097667 1.626 203 211 196 255
-0.65538698 0.0017087744 1.6250001 192 199 187 255
-0.65178281 0.0017109398 1.6270001 194 203 192 255
-0.64617914 0.0017078504 1.6240001 193 202 191 255
-0.64217341 0.0017089708 1.6250001 201 210 199 255
-0.63620055 0.0017048356 1.6210001 208 215 203 255
-0.63141954 0.0017038584 1.6200001 157 165 148 255
-0.62664449 0.0017028839 1.6190001 140 146 128 255
-0.62341297 0.0017061195 1.6220001 141 147 129 255
-0.61978412 0.0017083065 1.6240001 137 141 123 255
-0.61652392 0.0017115482 1.6270001 127 133 115 255
-0.61249554 0.0017126889 1.628 129 137 120 255
-0.60883576 0.0017148844 1.6300001 139 147 130 255
-0.6047948 0.0017160305 1.631 143 152 133 255
-0.60111684 0.0017182317 1.6330001 124 133 114 255
-0.59742838 0.0017204352 1.6350001 125 134 113 255
-0.59300405 0.0017205366 1.6350001 136 143 121 255
-0.58857995 0.0017206408 1.6350001 133 140 118 255
-0.5841561 0.0017207467 1.6350001 135 140 118 255
-0.58008707 0.0017219078 1.636 136 141 119 255
-0.57671636 0.001725176 1.6390001 132 138 113 255
-0.57332969 0.0017284467 1.6420001 129 135 110 255
-0.5699268 0.0017317199 1.6450001 133 139 113 255
-0.56616396 0.0017339429 1.6470001 127 133 107 255
-0.56273139 0.0017372207 1.6500001 132 136 110 255
-0.55860585 0.001738395 1.651 129 133 107 255
-0.55514616 0.0017416773 1.654 130 134 108 255
-0.55100423 0.0017428555 1.6550001 129 132 108 255
-0.54718703 0.0017450888 1.6570001 132 135 111 255
-0.5433588 0.0017473239 1.659 134 137 113 255
-0.53951967 0.0017495611 1.6610001 134 140 115 255
-0.53534728 0.0017507466 1.6620001 130 136 111 255
-0.53053045 0.0017498265 1.6610001 133 141 116 255
-0.52603549 0.0017499616 1.6610001 146 153 131 255
-0.52091223 0.0017479906 1.659 154 163 142 255
-0.51579952 0.0017460205 1.6570001 159 168 149 255
-0.51100576 0.0017451053 1.6560001 160 169 150 255
-0.50621706 0.0017441909 1.6550001 158 169 150 255
-0.50143343 0.0017432775 1.654 153 162 143 255
-0.49665478 0.0017423648 1.6530001 142 151 132 255
-0.49188104 0.0017414533 1.6520001 155 164 145 255
-0.48711225 0.0017405425 1.651 144 153 134 255
-0.4829331 0.0017417407 1.6520001 145 152 131 255
-0.47874796 0.0017429403 1.6530001 123 131 106 255
-0.47513071 0.0017462496 1.6560001 125 131 105 255
-0.47121245 0.0017485056 1.6580001 126 132 106 255
-0.46756423 0.0017518175 1.6610001 129 136 107 255
-0.46334162 0.0017530208 1.6620001 129 136 107 255
-0.45883688 0.0017531702 1.6620001 125 133 107 255
-0.45433149 0.0017533201 1.6620001 124 132 106 255
-0.45009613 0.0017545254 1.6630001 123 132 103 255
-0.44558671 0.0017546761 1.6630001 127 135 109 255
-0.44134179 0.0017558823 1.664 128 136 110 255
-0.4368282 0.001756034 1.664 134 142 117 255
-0.43231392 0.0017561857 1.664 144 154 131 255
-0.4270277 0.0017531713 1.6610001 176 187 166 255
-0.42150256 0.0017491007 1.6570001 165 176 157 255
-0.41549504 0.0017429183 1.651 150 161 142 255
-0.40976834 0.0017377906 1.646 169 180 161 255
-0.40382174 0.0017316062 1.6400001 139 148 127 255
-0.39888096 0.0017296445 1.6380001 134 143 122 255
-0.39419109 0.0017287381 1.6370001 133 142 121 255
-0.38974395 0.0017288877 1.6370001 138 148 125 255
-0.38506058 0.0017279808 1.636 139 148 129 255
-0.38084713 0.001729186 1.6370001 159 168 149 255
-0.37616757 0.0017282785 1.636 182 192 169 255
-0.37171975 0.0017284268 1.636 184 194 169 255
-0.36727113 0.0017285749 1.636 125 133 107 255
-0.36326522 0.001730836 1.6380001 125 132 101 255
-0.35946655 0.0017341533 1.641 116 121 89 255
-0.35543445 0.0017364142 1.6430001 112 118 83 255
-0.35181776 0.0017407886 1.6470001 107 113 78 255
-0.34775659 0.0017430491 1.649 105 110 78 255
-0.34368369 0.0017453091 1.651 100 107 76 255
-0.33898267 0.0017443975 1.6500001 93 100 69 255
-0.33428618 0.0017434845 1.649 146 153 122 255
-0.32979429 0.0017436283 1.649 118 125 94 255
-0.3254987 0.0017448284 1.6500001 117 124 95 255
-0.32119676 0.0017460281 1.651 103 110 81 255
-0.31708038 0.0017482848 1.6530001 101 107 81 255
-0.31276304 0.0017494828 1.654 95 101 76 255
-0.30881205 0.0017527958 1.6570001 112 117 95 255
-0.3044765 0.0017539922 1.6580001 20 24 6 255
-0.30013463 0.0017551879 1.659 25 27 10 255
-0.29507366 0.0017521506 1.6560001 27 28 14 255
-0.29037905 0.0017512275 1.6550001 32 31 17 255
-0.28620717 0.0017534778 1.6570001 30 28 17 255
-0.28168353 0.0017536108 1.6570001 28 29 15 255
-0.27699172 0.001752684 1.6560001 32 33 19 255
-0.27148178 0.0017464631 1.6500001 31 34 22 255
-0.26681274 0.001745533 1.649 20 25 14 255
-0.26087573 0.0017361321 1.6400001 52 58 50 255
-0.25498709 0.0017267286 1.631 95 102 98 255
-0.24930036 0.0017183811 1.623 94 101 98 255
-0.24441086 0.0017153251 1.6200001 102 109 106 255
-0.23953694 0.0017122671 1.6170001 101 108 105 255
-0.23467863 0.001709207 1.6140001 66 73 69 255
-0.23026387 0.001709322 1.6140001 69 74 70 255
-0.22612818 0.001711554 1.6160001 68 74 67 255
-0.22225516 0.0017159028 1.6200001 67 73 66 255
-0.21795605 0.0017170728 1.6210001 73 79 72 255
-0.21325552 0.001715063 1.6190001 109 114 110 255
-0.20792025 0.0017077544 1.6120001 94 99 95 255
-0.2031275 0.001704681 1.6090001 101 106 102 255
-0.19822694 0.0017005455 1.605 87 92 89 255
-0.19383064 0.0017006465 1.605 60 65 62 255
-0.18919754 0.0016986261 1.603 121 126 122 255
-0.18480527 0.0016987233 1.603 81 86 83 255
-0.18041229 0.0016988183 1.603 82 87 84 255
-0.17612845 0.0016999715 1.6040001 82 87 83 255
-0.17162427 0.0016990028 1.603 89 94 91 255
-0.16712493 0.0016980321 1.6020001 86 91 88 255
-0.16273199 0.0016981192 1.6020001 86 91 88 255
-0.15843725 0.0016992645 1.603 88 93 90 255
-0.15404031 0.0016993476 1.603 90 95 92 255
-0.14954939 0.0016983686 1.6020001 82 89 85 255
-0.14497277 0.0016963271 1.6 80 87 83 255
-0.14049439 0.0016953438 1.5990001 80 86 79 255
-0.1358507 0.0016922372 1.5960001 78 82 75 255
-0.13072866 0.0016827665 1.5870001 78 79 73 255
-0.12358514 0.0016457224 1.552 107 102 96 255
-0.11640262 0.0016054922 1.5140001 101 91 84 255
-0.012332945 0.0016010794 1.5090001 73 55 39 255
-0.0082372138 0.0016116954 1.5190001 68 50 34 255
-0.0040837699 0.0016212481 1.5280001 59 39 23 255
0.00011958232 0.0016361036 1.5420001 56 36 20 255
0.0044847713 0.0016827876 1.5860001 59 41 25 255
0.020106798 0.0019257411 1.8150001 102 89 76 255
0.02525025 0.0019373996 1.8260001 86 79 68 255
0.030338043 0.0019416278 1.83 77 74 67 255
0.035486367 0.0019479753 1.8360001 71 72 66 255
0.040535063 0.0019479538 1.8360001 67 71 64 255
0.045608416 0.0019489907 1.8370001 67 71 64 255
0.050604332 0.0019468417 1.835 71 75 68 255
0.055589028 0.00194469 1.8330001 62 66 59 255
0.66411352 0.0019554349 1.858 18 19 15 255
0.66697985 0.0019490005 1.8520001 18 19 13 255
0.66872555 0.0019394119 1.8430001 15 19 11 255
0.67005724 0.001928775 1.8330001 26 31 20 255
0.67059863 0.0019160379 1.8210001 29 34 23 255
0.67701083 0.0019201384 1.825 28 33 22 255
0.68232417 0.0019210855 1.8260001 21 26 15 255
0.68726707 0.0019209833 1.8260001 21 23 13 255
0.68917775 0.0019124681 1.8180001 19 21 11 255
0.69104558 0.0019039568 1.8100001 18 21 9 255
0.69287086 0.0018954494 1.802 17 20 8 255
0.69620228 0.0018911532 1.7980001 17 20 8 255
0.70068246 0.001890016 1.7970001 16 19 7 255
0.70437276 0.0018867784 1.794 19 22 10 255
0.7064662 0.0018793378 1.7870001 16 19 7 255
0.71290112 0.0018834688 1.7910001 19 24 12 255
0.72496933 0.0019023255 1.8090001 17 24 13 255
0.73390818 0.0019127717 1.8190001 5 13 5 255
0.73843443 0.0019116544 1.8180001 115 123 120 255
0.74172962 0.001907386 1.8140001 156 166 165 255
0.74376947 0.0018999676 1.807 152 163 168 255
0.7457726 0.0018925533 1.8000001 159 168 173 255
0.74732178 0.0018840919 1.7920001 165 174 179 255
0.68565732 0.001706327 1.623 188 194 197 255
0.67220861 0.0016621372 1.5810001 18 22 22 255
0.67136997 0.0016494918 1.5690001 31 35 28 255
0.67218989 0.0016410556 1.5610001 31 36 25 255
0.67123437 0.0016284181 1.549 29 36 24 255
0.6706512 0.0016168363 1.5380001 28 33 19 255
0.67044836 0.0016063097 1.5280001 28 33 19 255
0.67195868 0.0015999922 1.5220001 27 32 20 255
0.67254943 0.0015915759 1.5140001 30 35 23 255
0.6717574 0.0015800101 1.503 29 34 22 255
-1.0075278 -0.0028920646 1.7210001 27 28 16 255
-1.0014697 -0.0028881738 1.7190001 33 34 22 255
-1.0105035 -0.0029279746 1.743 29 27 16 255
-0.99833065 -0.002920256 1.7390001 42 38 27 255
-0.99284208 -0.0029180993 1.738 43 40 26 255
-0.99020785 -0.0029243506 1.7420001 44 40 26 255
-0.98359787 -0.0029188644 1.7390001 42 36 20 255
-0.97588521 -0.0029100371 1.7340001 42 30 13 255
-0.96428692 -0.00288948 1.7220001 45 31 14 255
-0.96167642 -0.0028957855 1.7260001 77 62 43 255
-0.95627731 -0.0028937147 1.725 84 69 50 255
