ply
format ascii 1.0
comment PCL generated
element vertex 990
property float x
property float y
property float z
property uchar red
property uchar green
property uchar blue
property uchar alpha
element camera 0
property float view_px
property float view_py
property float view_pz
property float x_axisx
property float x_axisy
property float x_axisz
property float y_axisx
property float y_axisy
property float y_axisz
property float z_axisx
property float z_axisy
property float z_axisz
property float focal
property float scalex
property float scaley
property float centerx
property float centery
property int viewportx
property int viewporty
property float k1
property float k2
end_header
-0.83045197 0.055629008 1.7930001 100 91 70 255
-0.82187015 0.055379961 1.7850001 195 190 170 255
-0.81333435 0.055131067 1.7770001 186 184 166 255
-0.80074978 0.054603104 1.7600001 197 199 181 255
-0.78826016 0.054075297 1.743 205 209 191 255
-0.77721405 0.053640716 1.7290001 208 212 194 255
-0.76848018 0.053361394 1.72 210 216 198 255
-0.75935322 0.053051174 1.71 205 211 193 255
-0.75248939 0.05289622 1.705 178 184 166 255
-0.74609321 0.05277241 1.7010001 203 209 192 255
-0.74059236 0.052710779 1.6990001 209 214 200 255
-0.73380452 0.052556194 1.6940001 200 208 193 255
-0.72747594 0.052432757 1.6900001 201 209 194 255
-0.7211706 0.052309435 1.6860001 192 200 185 255
-0.71531355 0.052217253 1.6830001 204 212 197 255
-0.70862949 0.052063122 1.6780001 204 209 195 255
-0.70281327 0.05197116 1.6750001 199 204 190 255
-0.69743145 0.05191033 1.6730001 196 202 185 255
-0.6912334 0.051787548 1.669 208 214 197 255
-0.68546975 0.051695902 1.6660001 189 195 178 255
-0.68094963 0.051697437 1.6660001 193 202 183 255
-0.67643064 0.051699083 1.6660001 185 194 175 255
-0.67070264 0.051607724 1.6630001 183 192 171 255
-0.66539246 0.05154749 1.6610001 177 184 163 255
-0.66009414 0.051487349 1.659 191 196 175 255
-0.65520257 0.051458336 1.6580001 167 172 151 255
-0.64992481 0.05139837 1.6560001 171 178 156 255
-0.64543819 0.051400568 1.6560001 172 177 155 255
-0.64056516 0.051371809 1.6550001 172 179 157 255
-0.63608265 0.051374182 1.6550001 160 167 145 255
-0.63198233 0.051407684 1.6560001 150 157 135 255
-0.62749821 0.051410221 1.6560001 185 192 170 255
-0.62226218 0.051350746 1.654 199 206 184 255
-0.61741108 0.051322393 1.6530001 152 159 137 255
-0.61256576 0.051294111 1.6520001 168 176 151 255
-0.60846239 0.051328 1.6530001 176 182 157 255
-0.6047194 0.051393025 1.6550001 157 163 138 255
-0.60024059 0.051396016 1.6550001 189 194 172 255
-0.59540206 0.051368017 1.654 192 197 175 255
-0.59021181 0.051309027 1.6520001 162 169 148 255
-0.58503264 0.051250089 1.6500001 165 172 151 255
-0.58056825 0.051253337 1.6500001 170 177 156 255
-0.57610393 0.051256649 1.6500001 165 172 150 255
-0.57198608 0.051291082 1.651 154 161 139 255
-0.56751919 0.051294509 1.651 169 177 152 255
-0.5630523 0.051297992 1.651 172 180 155 255
-0.55858546 0.051301535 1.651 142 152 129 255
-0.55378294 0.051274054 1.6500001 159 169 146 255
-0.5496515 0.05130877 1.651 172 180 155 255
-0.54485416 0.051281393 1.6500001 165 173 148 255
-0.5403896 0.051285129 1.6500001 157 165 140 255
-0.53592485 0.051288914 1.6500001 161 169 144 255
-0.53145987 0.051292744 1.6500001 148 156 130 255
-0.5266754 0.051265538 1.649 142 150 124 255
-0.52221256 0.051269442 1.649 171 179 153 255
-0.51806366 0.051304493 1.6500001 159 166 137 255
-0.51359755 0.051308487 1.6500001 147 154 125 255
-0.50913113 0.051312514 1.6500001 145 152 123 255
-0.50466442 0.051316574 1.6500001 142 149 120 255
-0.50019729 0.051320672 1.6500001 148 155 126 255
-0.49572974 0.0513248 1.6500001 147 153 127 255
-0.49096397 0.051297847 1.649 148 155 126 255
-0.48649824 0.051302031 1.649 144 148 120 255
-0.4823243 0.051337354 1.6500001 143 148 117 255
-0.47814444 0.051372707 1.651 135 140 109 255
-0.47367167 0.051376965 1.651 138 143 112 255
-0.4691985 0.051381253 1.651 149 154 123 255
-0.46500614 0.05141668 1.6520001 147 154 123 255
-0.46108657 0.051483259 1.654 150 157 125 255
-0.45632735 0.051456477 1.6530001 130 136 101 255
-0.45211959 0.051491965 1.654 135 141 106 255
-0.44790584 0.051527478 1.6550001 134 139 107 255
-0.44395384 0.051594142 1.6570001 134 137 105 255
-0.43972522 0.051629692 1.6580001 133 136 105 255
-0.4354904 0.051665254 1.659 134 137 106 255
-0.43098959 0.051669683 1.659 134 137 106 255
-0.42725942 0.051767562 1.6620001 136 140 105 255
-0.42427516 0.051958911 1.6680001 133 137 101 255
-0.42226428 0.052274916 1.6780001 129 133 95 255
-0.41970047 0.052528657 1.6860001 124 127 87 255
-0.41586131 0.052626655 1.6890001 117 120 80 255
-0.41078752 0.052568853 1.687 114 117 75 255
-0.40572378 0.05251104 1.6850001 104 107 67 255
-0.40114626 0.052515555 1.6850001 110 112 74 255
-0.39680323 0.052551221 1.6860001 114 116 80 255
-0.39222127 0.052555718 1.6860001 125 126 92 255
-0.38740858 0.052529033 1.6850001 125 128 96 255
-0.38237327 0.052471157 1.6830001 130 133 101 255
-0.37757248 0.052444443 1.682 130 133 101 255
-0.37299794 0.052448887 1.682 131 136 104 255
-0.36864156 0.052484501 1.6830001 132 139 108 255
-0.3634136 0.052395355 1.6800001 132 139 108 255
-0.35734671 0.052181415 1.6730001 170 179 150 255
-0.35110611 0.051936228 1.6650001 159 166 135 255
-0.34574082 0.051815767 1.6610001 127 134 103 255
-0.34080732 0.051757656 1.659 126 133 102 255
-0.33710003 0.051886719 1.6630001 122 128 102 255
-0.33317003 0.051984571 1.6660001 117 120 96 255
-0.32922277 0.052082419 1.669 5 7 0 255
-0.32409111 0.051993009 1.6660001 19 19 1 255
-0.3193585 0.051965974 1.6650001 27 24 8 255
-0.31444135 0.051907692 1.6630001 38 35 19 255
-0.30972052 0.051880579 1.6620001 39 36 20 255
-0.3050043 0.051853448 1.6610001 35 34 20 255
-0.30047351 0.05185749 1.6610001 43 44 32 255
-0.29558545 0.051799048 1.659 65 70 59 255
-0.2901811 0.051646892 1.654 104 109 98 255
-0.28514856 0.051557131 1.651 75 79 71 255
-0.28064153 0.051561013 1.651 65 69 61 255
-0.27613354 0.05156485 1.651 86 90 82 255
-0.27162474 0.051568657 1.651 97 101 94 255
-0.26662961 0.05147871 1.6480001 100 106 99 255
-0.26212725 0.051482424 1.6480001 95 103 96 255
-0.25699866 0.051361129 1.6440001 94 102 95 255
-0.25219834 0.051302265 1.6420001 85 93 85 255
-0.24740806 0.051243354 1.6400001 60 68 60 255
-0.24292412 0.051246874 1.6400001 80 88 81 255
-0.23843935 0.05125035 1.6400001 78 84 77 255
-0.23395377 0.051253784 1.6400001 81 87 80 255
-0.22946736 0.051257171 1.6400001 114 120 113 255
-0.22484297 0.051229246 1.6390001 99 105 98 255
-0.22008879 0.05117001 1.6370001 83 89 81 255
-0.21547648 0.051141974 1.636 60 67 56 255
-0.21099786 0.051145155 1.636 36 43 31 255
-0.20639223 0.051117014 1.6350001 80 85 73 255
-0.20154431 0.051026285 1.6320001 66 71 59 255
-0.19671209 0.050935484 1.6290001 75 80 68 255
-0.19224961 0.050938435 1.6290001 76 78 68 255
-0.18801695 0.051003858 1.631 78 81 69 255
-0.18377267 0.051069252 1.6330001 75 80 68 255
-0.17951669 0.051134586 1.6350001 78 83 71 255
-0.17535609 0.051231146 1.6380001 75 80 68 255
-0.17107408 0.051296376 1.6400001 71 76 64 255
-0.16688199 0.051392835 1.6430001 71 76 64 255
-0.16267282 0.051489234 1.646 73 76 64 255
-0.15892698 0.051742006 1.654 72 75 61 255
-0.15550998 0.052119877 1.6660001 69 72 58 255
-0.15166414 0.052372567 1.674 57 59 42 255
-0.14724666 0.052437503 1.6760001 26 30 13 255
-0.14230692 0.052314635 1.6720001 33 35 18 255
-0.1375533 0.052254274 1.6700001 46 50 33 255
-0.13288975 0.052225135 1.669 56 62 45 255
-0.12846173 0.052289806 1.6710001 61 67 50 255
-0.1239481 0.052323114 1.6720001 63 69 52 255
-0.11942846 0.052356359 1.6730001 71 77 60 255
-0.11476558 0.052326944 1.6720001 68 73 59 255
-0.11017356 0.052328758 1.6720001 68 71 57 255
-0.10558112 0.052330494 1.6720001 69 74 62 255
-0.10104863 0.052363466 1.6730001 74 77 65 255
-0.096394904 0.052333765 1.6720001 70 73 61 255
-0.091746286 0.052304 1.6710001 69 72 60 255
-0.087050587 0.052242842 1.669 72 75 63 255
-0.082513765 0.052275527 1.6700001 76 79 65 255
-0.077971086 0.052308146 1.6710001 75 78 64 255
-0.073334761 0.052278079 1.6700001 78 81 67 255
-0.06866245 0.05221663 1.6680001 73 78 64 255
-0.064000838 0.052155107 1.6660001 69 74 62 255
-0.059421275 0.052156128 1.6660001 74 79 67 255
-0.054841459 0.052157063 1.6660001 69 76 64 255
-0.050261408 0.052157927 1.6660001 67 74 63 255
-0.045653716 0.052127406 1.6650001 74 81 70 255
-0.041051324 0.052096814 1.664 72 79 68 255
-0.0364981 0.052128762 1.6650001 82 86 78 255
-0.031900875 0.052098017 1.664 87 91 84 255
-0.027325433 0.052098509 1.664 83 87 80 255
-0.022722524 0.0520363 1.6620001 80 84 77 255
-0.018174207 0.052099258 1.664 80 84 76 255
-0.013598465 0.052099518 1.664 78 82 74 255
-0.0090226661 0.052099705 1.664 77 81 73 255
-0.0044468269 0.052099817 1.664 76 80 72 255
0.0001291088 0.052131165 1.6650001 75 79 71 255
0.0047077169 0.052131128 1.6650001 80 85 73 255
0.009286304 0.052131008 1.6650001 81 86 74 255
0.013856523 0.052099507 1.664 80 85 73 255
0.018443337 0.05213055 1.6650001 81 86 74 255
0.023021743 0.052130207 1.6650001 79 84 72 255
0.027633201 0.052192412 1.6670001 80 85 74 255
0.032197561 0.052160606 1.6660001 84 89 78 255
0.036800429 0.052191343 1.6670001 82 89 78 255
0.041334167 0.052128088 1.6650001 80 85 74 255
0.045939449 0.052158672 1.6660001 81 85 77 255
0.050519709 0.052157875 1.6660001 80 84 76 255
0.05513281 0.052188311 1.6670001 78 80 72 255
0.059715372 0.052187376 1.6670001 78 80 72 255
0.064374804 0.052248958 1.669 79 80 74 255
0.068962313 0.052247867 1.669 78 79 73 255
0.073593609 0.052278008 1.6700001 76 77 71 255
0.078230083 0.052308075 1.6710001 75 77 69 255
0.082822144 0.052306756 1.6710001 71 75 67 255
0.087466173 0.052336674 1.6720001 72 76 68 255
0.092005201 0.05230391 1.6710001 75 81 73 255
0.096538357 0.052271079 1.6700001 82 88 80 255
0.10106561 0.052238178 1.669 82 88 81 255
0.10558692 0.052205212 1.6680001 80 86 78 255
0.11016838 0.052203473 1.6680001 80 86 78 255
0.11468055 0.052170359 1.6670001 79 84 73 255
0.11925832 0.052168485 1.6670001 77 82 71 255
0.12383557 0.052166533 1.6670001 73 78 67 255
0.12864344 0.052258398 1.6700001 73 78 67 255
0.13322788 0.052256305 1.6700001 72 77 66 255
0.13772927 0.052222859 1.669 70 75 64 255
0.14196883 0.052095488 1.6650001 72 77 66 255
0.14636187 0.052030638 1.6630001 81 85 77 255
0.15092488 0.052028295 1.6630001 88 92 84 255
0.15567422 0.052088454 1.6650001 85 89 82 255
0.16014524 0.052054692 1.664 83 87 80 255
0.16451113 0.051989589 1.6620001 76 82 75 255
0.16896716 0.051955726 1.6610001 83 89 82 255
0.1735215 0.05195307 1.6610001 85 91 84 255
0.1786112 0.052106738 1.6660001 87 93 86 255
0.18328781 0.052135222 1.6670001 70 76 69 255
0.18774387 0.052101109 1.6660001 71 77 70 255
0.19173196 0.051941846 1.6610001 85 89 82 255
0.19616462 0.051907629 1.6600001 80 86 79 255
0.20047015 0.051842082 1.6580001 71 77 70 255
0.20488763 0.051807765 1.6570001 84 88 81 255
0.20955163 0.051835913 1.6580001 72 76 69 255
0.21460773 0.051957797 1.6620001 94 98 91 255
0.21928936 0.051985826 1.6630001 71 75 68 255
0.2235719 0.051920027 1.6610001 77 83 76 255
0.22784266 0.051854182 1.659 87 93 86 255
0.23252189 0.051882066 1.6600001 93 99 92 255
0.23720577 0.051909894 1.6610001 82 88 80 255
0.24174874 0.051906411 1.6610001 76 82 74 255
0.24614258 0.051871631 1.6600001 76 82 74 255
0.25053015 0.051836818 1.659 73 79 71 255
0.25491139 0.051801965 1.6580001 66 72 65 255
0.25897333 0.051704589 1.6550001 91 97 90 255
0.26381409 0.051763371 1.6570001 87 93 86 255
0.26882687 0.051853344 1.6600001 93 99 92 255
0.27352577 0.051880796 1.6610001 64 70 62 255
0.27739224 0.051752031 1.6570001 74 80 72 255
0.28123599 0.051623255 1.6530001 79 85 77 255
0.28592134 0.051650595 1.654 94 101 90 255
0.29026011 0.051615447 1.6530001 90 96 88 255
0.29459244 0.051580261 1.6520001 78 84 77 255
0.29873747 0.051513836 1.6500001 84 88 81 255
0.30360574 0.051572248 1.6520001 93 97 90 255
0.30829757 0.051599417 1.6530001 78 82 75 255
0.31242618 0.051532894 1.651 78 82 75 255
0.31635112 0.051435158 1.6480001 79 83 76 255
0.32025877 0.051337395 1.6450001 95 99 92 255
0.32474139 0.051333249 1.6450001 85 89 82 255
0.32922313 0.051329073 1.6450001 87 91 84 255
0.33390683 0.05135607 1.646 86 90 83 255
0.33777279 0.051258251 1.6430001 74 78 71 255
0.34224638 0.051254012 1.6430001 89 93 86 255
0.34650812 0.051218554 1.6420001 93 97 90 255
0.3516185 0.05130785 1.6450001 85 91 84 255
0.35566202 0.051241167 1.6430001 79 85 77 255
0.3599129 0.051205669 1.6420001 83 89 81 255
0.36304796 0.051014245 1.636 88 94 86 255
0.36817122 0.051103462 1.6390001 88 94 86 255
0.37285525 0.051130299 1.6400001 84 90 82 255
0.37777394 0.05118829 1.6420001 71 78 67 255
0.38153872 0.051090401 1.6390001 80 87 76 255
0.38599283 0.051086023 1.6390001 83 89 81 255
0.39044619 0.051081643 1.6390001 84 90 82 255
0.39489874 0.051077258 1.6390001 83 89 81 255
0.39910683 0.051041711 1.6380001 84 90 83 255
0.40380141 0.051068477 1.6390001 82 86 79 255
0.40850067 0.051095244 1.6400001 87 91 84 255
0.41295281 0.051090851 1.6400001 85 89 81 255
0.41791314 0.051148757 1.6420001 82 87 76 255
0.42314085 0.051237803 1.6450001 81 86 75 255
0.42760432 0.051233403 1.6450001 80 85 73 255
0.43232962 0.051260155 1.646 80 85 73 255
0.43573293 0.051131207 1.6420001 79 84 72 255
0.43991795 0.051095702 1.641 79 84 73 255
0.44301388 0.050935682 1.636 78 83 72 255
0.44744951 0.050931353 1.636 79 86 75 255
0.451332 0.050864778 1.6340001 80 87 76 255
0.45603982 0.050891612 1.6350001 83 88 77 255
0.45990762 0.050825089 1.6330001 79 84 73 255
0.46461692 0.050851949 1.6340001 80 85 74 255
0.46846998 0.050785471 1.6320001 82 87 76 255
0.47260138 0.050750144 1.631 84 88 80 255
0.47643444 0.050683733 1.6290001 83 89 81 255
0.48055133 0.050648466 1.628 86 92 85 255
0.48525804 0.050675444 1.6290001 82 88 81 255
0.49057099 0.050764665 1.6320001 83 89 82 255
0.49711287 0.050978303 1.6390001 83 89 82 255
0.50369227 0.051191941 1.646 76 81 77 255
0.51061797 0.051436681 1.654 69 74 70 255
0.51789796 0.051712506 1.6630001 71 77 70 255
0.52554047 0.052019421 1.6730001 100 106 99 255
0.53260314 0.052264143 1.6810001 162 168 161 255
0.53619379 0.052166887 1.6780001 182 188 181 255
0.53912348 0.052007519 1.6730001 189 195 188 255
0.5417009 0.05181713 1.6670001 188 194 187 255
0.5452286 0.05172006 1.664 187 193 186 255
0.54774892 0.051529817 1.6580001 153 159 152 255
0.55023652 0.051339641 1.6520001 147 152 148 255
0.55269152 0.051149547 1.646 180 185 181 255
0.55511409 0.050959539 1.6400001 191 196 192 255
0.55784529 0.050800666 1.6350001 192 195 191 255
0.56364447 0.050921492 1.6390001 148 151 147 255
0.56877196 0.050980221 1.641 83 87 80 255
0.57321191 0.050976876 1.641 98 102 95 255
0.57765192 0.05097359 1.641 96 100 93 255
0.58280146 0.051032491 1.6430001 97 101 94 255
0.58796203 0.051091436 1.6450001 99 103 95 255
0.59349364 0.051181503 1.6480001 46 51 40 255
0.60230738 0.051551118 1.6600001 78 83 72 255
0.61301398 0.052076027 1.677 56 61 50 255
0.62344468 0.052569896 1.6930001 43 50 39 255
0.63284951 0.052970633 1.7060001 164 170 162 255
0.64195138 0.053340349 1.7180001 192 198 191 255
0.72634608 0.057419542 1.8500001 176 184 177 255
0.73017323 0.057324085 1.8470001 175 183 176 255
0.73438299 0.057259761 1.845 175 183 176 255
0.7405867 0.057350729 1.848 175 183 176 255
0.74236959 0.05710043 1.84 173 180 176 255
0.74248552 0.056726132 1.8280001 174 181 177 255
0.7417196 0.056289908 1.8140001 170 177 174 255
0.74376011 0.056071028 1.807 165 172 168 255
0.74452102 0.055759188 1.7970001 169 176 172 255
0.74314356 0.055292334 1.7820001 168 176 169 255
0.74294537 0.054918706 1.7700001 169 177 170 255
0.74395066 0.054638289 1.761 168 176 169 255
0.74490857 0.054358009 1.7520001 166 172 165 255
0.74282372 0.053860672 1.7360001 162 168 161 255
0.74108398 0.0533945 1.7210001 157 163 156 255
0.74186438 0.053114612 1.7120001 152 158 151 255
0.74390543 0.052927926 1.7060001 147 153 146 255
0.7437216 0.052586243 1.6950001 142 148 141 255
0.74127239 0.052089579 1.6790001 144 150 143 255
0.73918176 0.05162406 1.664 143 149 142 255
0.740587 0.051406879 1.6570001 142 148 141 255
0.74150622 0.051158793 1.649 144 150 143 255
0.74193138 0.050879817 1.6400001 146 152 145 255
0.74185431 0.050569944 1.6300001 144 152 145 255
0.74172473 0.050260205 1.6200001 147 155 148 255
0.74338502 0.050074693 1.6140001 149 157 150 255
0.74408793 0.049827255 1.6060001 160 167 163 255
0.74335134 0.049486879 1.595 164 171 167 255
0.7430256 0.04917765 1.585 177 184 180 255
0.742176 0.048837528 1.5740001 184 191 188 255
0.74458838 0.048714727 1.5700001 186 191 188 255
0.74555033 0.048498977 1.5630001 187 194 191 255
0.74647635 0.048283357 1.5560001 191 195 195 255
0.74398917 0.04785065 1.5420001 194 198 198 255
0.74385411 0.047573227 1.5330001 193 197 197 255
0.74269617 0.047233857 1.5220001 194 198 198 255
0.74491572 0.047111861 1.5180001 195 199 199 255
0.74366176 0.046772745 1.5070001 194 198 198 255
-0.93624473 0.046754673 1.6470001 24 27 13 255
-0.9674806 0.048783682 1.7190001 22 25 11 255
-0.95872301 0.048577946 1.7120001 21 22 8 255
-0.88192046 0.046266451 1.6320001 23 21 10 255
-0.88650763 0.046743203 1.649 24 22 11 255
-0.92897654 0.049232427 1.7370001 25 23 12 255
-0.87657803 0.04717771 1.6650001 22 23 11 255
-0.8997122 0.048675034 1.7180001 22 23 11 255
-0.91995186 0.050030626 1.766 22 23 11 255
-0.90832239 0.049658202 1.7530001 19 20 8 255
-0.89264601 0.049059413 1.7320001 20 21 9 255
-0.88580436 0.048942391 1.728 21 22 10 255
-0.88510704 0.049165424 1.7360001 21 22 8 255
-0.87574875 0.048907172 1.7270001 23 22 8 255
-0.87451327 0.049102202 1.7340001 24 23 9 255
-0.87223971 0.049240749 1.7390001 24 23 9 255
-0.8749302 0.049662586 1.7540001 23 22 8 255
-0.86265969 0.049235176 1.7390001 22 20 9 255
-0.85688823 0.049176019 1.7370001 22 20 9 255
-0.85456496 0.049315192 1.7420001 23 19 8 255
-0.86490077 0.050190523 1.7730001 23 20 6 255
-0.85663658 0.049990274 1.766 25 22 6 255
-0.85468423 0.050158173 1.7720001 33 29 12 255
-0.85509998 0.050467748 1.7830001 36 30 13 255
-0.85307401 0.050635923 1.789 41 35 18 255
-0.84959584 0.050719343 1.7920001 45 33 14 255
-0.84516132 0.050746299 1.7930001 43 29 10 255
-0.83978665 0.050716795 1.7920001 69 55 35 255
-0.83395422 0.050659139 1.7900001 54 43 22 255
-0.82674581 0.050516728 1.7850001 192 187 166 255
-0.81726509 0.050232962 1.7750001 180 177 156 255
-0.80829901 0.049977642 1.766 185 187 167 255
-0.79665452 0.04955266 1.751 200 205 184 255
-0.78599864 0.049184419 1.738 207 211 193 255
-0.77676427 0.048901215 1.728 207 211 193 255
-0.76803333 0.048646428 1.7190001 210 216 198 255
-0.75979733 0.048420068 1.7110001 204 210 192 255
-0.75248957 0.048250429 1.705 201 207 189 255
-0.74653214 0.048165802 1.702 186 192 175 255
-0.74059278 0.048081294 1.6990001 195 201 184 255
-0.73423827 0.047968592 1.6950001 207 215 200 255
-0.72790706 0.047856007 1.6910001 204 212 197 255
-0.72159904 0.047743518 1.687 196 202 185 255
-0.71531439 0.047631137 1.6830001 199 207 190 255
-0.7094751 0.047547162 1.6800001 203 208 194 255
-0.70365357 0.047463287 1.677 192 197 183 255
-0.69826639 0.047407806 1.6750001 184 190 173 255
-0.69206309 0.04729582 1.6710001 204 210 193 255
-0.68711692 0.047268834 1.6700001 191 197 180 255
-0.68217731 0.047241945 1.669 197 203 185 255
-0.67765027 0.04724345 1.669 189 198 179 255
-0.67151093 0.047131818 1.6650001 188 197 176 255
-0.66579485 0.04704858 1.6620001 183 190 169 255
-0.66009599 0.046965417 1.659 186 193 172 255
-0.65520453 0.046938956 1.6580001 165 170 149 255
-0.6499269 0.046884272 1.6560001 180 187 166 255
-0.64583004 0.046914592 1.6570001 185 190 168 255
-0.64095449 0.046888378 1.6560001 171 179 154 255
-0.6364693 0.046890546 1.6560001 161 169 144 255
-0.63198471 0.046892792 1.6560001 165 171 146 255
-0.62787956 0.046923432 1.6570001 189 196 174 255
-0.62301719 0.046897508 1.6560001 197 204 182 255
-0.61778712 0.046843331 1.654 162 169 147 255
-0.6136809 0.046874192 1.6550001 154 161 139 255
-0.60956949 0.046905123 1.6560001 167 172 150 255
-0.60545301 0.046936117 1.6570001 156 161 139 255
-0.6006062 0.046910528 1.6560001 168 173 151 255
-0.59576499 0.046884999 1.6550001 192 197 175 255
-0.59092933 0.046859521 1.654 159 166 145 255
-0.58609945 0.046834111 1.6530001 171 178 156 255
-0.58162695 0.046837088 1.6530001 184 191 169 255
-0.57715458 0.046840116 1.6530001 171 179 154 255
-0.57268226 0.046843201 1.6530001 159 167 142 255
-0.56786627 0.046817996 1.6520001 172 180 155 255
-0.56305569 0.046792842 1.651 166 173 151 255
-0.55858886 0.046796072 1.651 166 173 151 255
-0.55412203 0.046799365 1.651 139 146 124 255
-0.54998791 0.046831042 1.6520001 168 176 151 255
-0.5455181 0.04683442 1.6520001 168 176 151 255
-0.54072076 0.046809491 1.651 166 174 149 255
-0.53625327 0.046812952 1.651 159 167 142 255
-0.53114146 0.046759743 1.649 170 178 152 255
-0.52699852 0.046791639 1.6500001 148 156 130 255
-0.52221638 0.046766855 1.649 174 182 156 255
-0.51806742 0.046798833 1.6500001 171 179 153 255
-0.51329011 0.046774112 1.649 143 151 125 255
-0.50882643 0.046777792 1.649 142 151 122 255
-0.50436246 0.046781503 1.649 143 149 123 255
-0.50020123 0.046813618 1.6500001 145 151 125 255
-0.49603415 0.046845764 1.651 147 153 127 255
-0.49186119 0.046877939 1.6520001 148 154 128 255
-0.48709226 0.046853386 1.651 140 144 116 255
-0.48262066 0.046857238 1.651 139 143 115 255
-0.47814852 0.046861112 1.651 136 141 110 255
-0.47367576 0.046865001 1.651 136 141 110 255
-0.46948683 0.046897307 1.6520001 140 145 114 255
-0.46529177 0.046929635 1.6530001 146 151 119 255
-0.46109071 0.046961978 1.654 152 157 125 255
-0.45633152 0.046937551 1.6530001 148 153 121 255
-0.45212376 0.046969932 1.654 142 147 115 255
-0.44791004 0.04700233 1.6550001 137 142 111 255
-0.44395804 0.04706315 1.6570001 138 143 112 255
-0.43946424 0.047067177 1.6570001 138 143 112 255
-0.4349696 0.047071211 1.6570001 132 137 106 255
-0.43099385 0.047132067 1.659 130 135 104 255
-0.42726368 0.047221359 1.6620001 133 136 104 255
-0.42402506 0.047367495 1.6670001 130 134 99 255
-0.42151359 0.047598913 1.6750001 129 133 95 255
-0.41895801 0.047830373 1.6830001 123 127 89 255
-0.41512695 0.047919758 1.6860001 115 118 78 255
-0.41030484 0.047895458 1.6850001 113 116 74 255
-0.40548736 0.047871154 1.6840001 111 114 72 255
-0.40115055 0.047903694 1.6850001 108 111 71 255
-0.39657223 0.047907811 1.6850001 116 118 80 255
-0.39199296 0.047911916 1.6850001 122 124 88 255
-0.38741291 0.047916017 1.6850001 126 128 92 255
-0.38260478 0.047891665 1.6840001 128 130 94 255
-0.37780118 0.047867302 1.6830001 123 127 92 255
-0.3732239 0.047871359 1.6830001 123 128 96 255
-0.36820772 0.047818519 1.6810001 130 137 106 255
-0.36233622 0.047651853 1.6750001 175 182 151 255
-0.35606933 0.047428247 1.6670001 175 183 157 255
-0.35047764 0.047289941 1.6620001 150 157 128 255
-0.34512049 0.047180049 1.6580001 133 140 109 255
-0.3408114 0.047212418 1.659 130 137 106 255
-0.33690134 0.047301687 1.6620001 110 116 90 255
-0.33337405 0.047447879 1.6670001 84 89 67 255
-0.32883227 0.047451742 1.6670001 11 12 0 255
-0.32390058 0.047398653 1.6650001 20 19 5 255
-0.31878701 0.04731705 1.6620001 30 27 13 255
-0.31425622 0.047320832 1.6620001 39 36 20 255
-0.3095381 0.047296111 1.6610001 38 35 21 255
-0.30500817 0.047299832 1.6610001 26 24 13 255
-0.30029643 0.047275037 1.6600001 60 60 50 255
-0.29505476 0.047164779 1.6560001 87 91 83 255
-0.28983399 0.047054462 1.6520001 90 94 86 255
-0.28480688 0.046972584 1.649 70 74 66 255
-0.28030521 0.046976119 1.649 67 71 63 255
-0.27596998 0.04700812 1.6500001 85 89 81 255
-0.2712993 0.046983097 1.649 101 105 98 255
-0.26647142 0.046929542 1.6470001 98 104 97 255
-0.2616536 0.046875942 1.6450001 91 97 90 255
-0.25668949 0.046793792 1.6420001 93 101 93 255
-0.25220177 0.0467971 1.6420001 93 101 93 255
-0.24741143 0.046743356 1.6400001 57 65 57 255
-0.24277934 0.046718072 1.6390001 85 91 83 255
-0.2380065 0.046664234 1.6370001 74 80 73 255
-0.23381436 0.046724375 1.6390001 80 86 79 255
-0.22919075 0.046698961 1.6380001 115 121 114 255
-0.22470896 0.046701998 1.6380001 98 104 97 255
-0.21995746 0.046647966 1.636 86 92 85 255
-0.21534787 0.046622399 1.6350001 81 88 77 255
-0.21100089 0.046653811 1.636 37 44 33 255
-0.20626894 0.046599623 1.6340001 79 84 72 255
-0.20167072 0.046573903 1.6330001 65 70 58 255
-0.1968357 0.046491083 1.6300001 83 88 76 255
-0.19248843 0.046522301 1.631 81 86 74 255
-0.188135 0.04655347 1.6320001 76 81 69 255
-0.18377535 0.046584591 1.6330001 74 79 67 255
-0.17940952 0.04661566 1.6340001 78 81 69 255
-0.17525163 0.046703741 1.6370001 83 86 74 255
-0.17107663 0.046791777 1.6400001 76 79 67 255
-0.1667829 0.046851236 1.6420001 73 76 62 255
-0.16257642 0.046939176 1.6450001 73 76 62 255
-0.15873718 0.047141213 1.6520001 72 76 59 255
-0.15513892 0.047428817 1.6620001 69 73 56 255
-0.15139464 0.047687862 1.6710001 64 68 51 255
-0.14724888 0.047832709 1.6760001 41 45 28 255
-0.14264955 0.047834802 1.6760001 27 29 12 255
-0.13788487 0.04777975 1.674 40 42 25 255
-0.13321024 0.04775317 1.6730001 51 55 38 255
-0.12869434 0.047783624 1.674 58 62 45 255
-0.1241724 0.047814015 1.6750001 62 66 49 255
-0.11957307 0.0478158 1.6750001 68 72 55 255
-0.11511053 0.047874615 1.677 69 72 58 255
-0.11043885 0.047847729 1.6760001 64 67 53 255
-0.10577219 0.047820766 1.6750001 69 72 60 255
-0.10111059 0.047793742 1.674 71 74 62 255
-0.096396402 0.047738105 1.6720001 74 77 65 255
-0.091857515 0.047768053 1.6730001 70 73 61 255
-0.087156273 0.047712278 1.6710001 73 76 64 255
-0.082564466 0.04771354 1.6710001 71 74 60 255
-0.078018971 0.047743291 1.6720001 73 76 64 255
-0.073379822 0.047715865 1.6710001 73 78 64 255
-0.068787016 0.047716931 1.6710001 65 70 58 255
-0.064078666 0.047632255 1.6680001 75 80 68 255
-0.059493538 0.047633179 1.6680001 67 74 62 255
-0.054842319 0.04757693 1.6660001 65 72 61 255
-0.050292362 0.047606274 1.6670001 75 79 71 255
-0.045681853 0.047578435 1.6660001 74 80 72 255
-0.041101314 0.047579087 1.6660001 77 81 73 255
-0.036520597 0.047579672 1.6660001 80 84 76 255
-0.031939723 0.04758019 1.6660001 86 90 82 255
-0.027358707 0.047580637 1.6660001 81 85 77 255
-0.022777574 0.047581017 1.6660001 76 81 70 255
-0.018207261 0.047609888 1.6670001 77 82 71 255
-0.013623198 0.047610126 1.6670001 80 84 76 255
-0.009039076 0.047610298 1.6670001 79 83 75 255
-0.0044522425 0.04758184 1.6660001 75 79 71 255
0.00012926593 0.047610432 1.6670001 76 80 72 255
0.0047134459 0.047610395 1.6670001 79 84 73 255
0.0092976056 0.04761029 1.6670001 79 84 73 255
0.013881725 0.047610115 1.6670001 81 86 74 255
0.018476862 0.047638435 1.6680001 79 84 72 255
0.023091244 0.047695238 1.6700001 76 84 69 255
0.027716521 0.047751971 1.6720001 76 83 71 255
0.032294702 0.047722962 1.6710001 78 85 73 255
0.036911394 0.047750998 1.6720001 77 84 73 255
0.041483775 0.047721848 1.6710001 77 84 73 255
0.046133198 0.047778305 1.6730001 80 84 76 255
0.050732773 0.047777575 1.6730001 79 83 75 255
0.05539827 0.047833897 1.6750001 81 83 73 255
0.060038708 0.047861587 1.6760001 80 82 72 255
0.064645819 0.047860656 1.6760001 83 85 77 255
0.069211319 0.047831092 1.6750001 80 84 76 255
0.0738151 0.047830023 1.6750001 77 81 73 255
0.078418568 0.047828887 1.6750001 74 78 70 255
0.0830217 0.047827687 1.6750001 72 76 68 255
0.087676786 0.047854967 1.6760001 73 77 69 255
0.092226885 0.047825083 1.6750001 69 73 65 255
0.096771084 0.047795128 1.674 79 83 75 255
0.10130938 0.047765106 1.6730001 83 87 79 255
0.10590506 0.047763582 1.6730001 87 91 83 255
0.11043426 0.047733434 1.6720001 82 86 78 255
0.1150263 0.04773178 1.6720001 80 84 76 255
0.11954631 0.047701512 1.6710001 76 82 74 255
0.12420891 0.047728278 1.6720001 74 81 70 255
0.12879947 0.047726426 1.6720001 74 81 70 255
0.13346925 0.047753062 1.6730001 75 82 71 255
0.13797894 0.047722552 1.6720001 69 76 65 255
0.14239731 0.047663435 1.6700001 73 80 69 255
0.14671613 0.047575731 1.6670001 74 81 70 255
0.15129016 0.047573585 1.6670001 82 89 78 255
0.15586357 0.04757138 1.6670001 82 88 80 255
0.16043636 0.047569118 1.6670001 81 87 79 255
0.16481054 0.047509726 1.6650001 81 87 80 255
0.16927485 0.047478825 1.664 78 84 77 255
0.17394194 0.047504928 1.6650001 85 91 84 255
0.1790427 0.047645092 1.6700001 88 94 87 255
0.18373035 0.047671076 1.6710001 69 75 68 255
0.18819739 0.04763994 1.6700001 70 76 69 255
0.19231191 0.047523182 1.6660001 83 89 82 255
0.19699468 0.047549006 1.6670001 81 87 80 255
0.20119853 0.047460679 1.664 70 76 69 255
0.20575611 0.047457874 1.664 87 93 86 255
0.2101866 0.047426503 1.6630001 66 72 65 255
0.21525645 0.047537673 1.6670001 82 88 81 255
0.22008367 0.047591742 1.669 69 75 68 255
0.22465187 0.04758874 1.669 78 84 77 255
0.22908191 0.047557168 1.6680001 85 91 84 255
0.23406596 0.047639597 1.6710001 92 98 91 255
0.23877998 0.047664959 1.6720001 90 96 89 255
0.24320756 0.047633257 1.6710001 78 84 77 255
0.24733225 0.047544502 1.6680001 79 85 77 255
0.25189272 0.047541227 1.6680001 73 79 71 255
0.25629854 0.047509409 1.6670001 69 75 68 255
0.26069817 0.047477562 1.6660001 88 94 87 255
0.26556903 0.047531158 1.6680001 92 98 91 255
0.27093577 0.047670193 1.6730001 87 93 86 255
0.2756702 0.047695193 1.674 75 81 73 255
0.27940482 0.047549225 1.669 88 95 84 255
0.28311121 0.047403239 1.664 85 91 83 255
0.28782666 0.04742815 1.6650001 90 96 88 255
0.29219541 0.047396056 1.664 91 97 89 255
0.29709285 0.047449384 1.6660001 76 80 73 255
0.30145711 0.047417223 1.6650001 88 92 85 255
0.30581498 0.047385044 1.664 95 99 92 255
0.30998003 0.047324371 1.6620001 79 83 76 255
0.31394401 0.047235202 1.659 80 84 77 255
0.31789073 0.047146019 1.6560001 85 91 84 255
0.3220149 0.047085289 1.654 91 97 90 255
0.32652208 0.047081478 1.654 79 85 78 255
0.33142865 0.047134571 1.6560001 85 89 82 255
0.3357366 0.047102246 1.6550001 87 93 86 255
0.33962706 0.047012985 1.6520001 76 80 73 255
0.34412521 0.047009096 1.6520001 89 93 86 255
0.34904453 0.047062088 1.654 93 97 90 255
0.35354635 0.047058154 1.654 75 81 74 255
0.35718146 0.046940412 1.6500001 82 88 81 255
0.36101305 0.046851113 1.6470001 85 91 84 255
0.36482742 0.046761818 1.6440001 86 92 84 255
0.36997244 0.046843175 1.6470001 88 93 82 255
0.37490559 0.046896063 1.649 83 88 77 255
0.3796187 0.046920501 1.6500001 76 81 69 255
0.38363802 0.046859618 1.6480001 81 88 77 255
0.38788113 0.046827171 1.6470001 85 92 81 255
0.39211795 0.046794716 1.646 83 89 81 255
0.39586672 0.046705421 1.6430001 86 92 84 255
0.40032932 0.046701401 1.6430001 83 89 82 255
0.40454474 0.046668958 1.6420001 82 88 81 255
0.40999937 0.046778616 1.646 87 91 84 255
0.41446775 0.046774581 1.646 83 87 79 255
0.41944441 0.046827387 1.6480001 83 88 77 255
0.42417398 0.046851769 1.649 81 86 75 255
0.42838836 0.046819333 1.6480001 80 85 73 255
0.4325965 0.046786908 1.6470001 78 83 71 255
0.43626788 0.046697684 1.6440001 81 86 74 255
0.44019026 0.046636883 1.6420001 80 85 74 255
0.444372 0.046604507 1.641 81 86 75 255
0.44854763 0.046572145 1.6400001 80 87 76 255
0.45271716 0.046539795 1.6390001 82 87 76 255
0.45743856 0.046564251 1.6400001 82 87 76 255
0.46188316 0.046560336 1.6400001 78 83 72 255
0.46604276 0.046528038 1.6390001 83 88 77 255
0.46990934 0.046467382 1.6370001 85 89 81 255
0.47347471 0.046378374 1.6340001 85 91 83 255
0.4773159 0.046317786 1.6320001 77 83 75 255
0.4820312 0.046342354 1.6330001 77 83 76 255
0.48794305 0.046480455 1.6380001 75 81 74 255
0.49448267 0.046675302 1.6450001 100 106 99 255
0.50257623 0.047012005 1.6570001 117 123 116 255
0.51012242 0.047291942 1.6670001 148 154 147 255
0.51587009 0.047401667 1.6710001 182 188 181 255
0.57877916 0.047696363 1.6830001 185 188 184 255
0.58229274 0.047608152 1.6800001 186 189 185 255
0.58509159 0.047463343 1.6750001 84 88 81 255
0.58786345 0.0473186 1.6700001 91 95 88 255
0.58954418 0.04708894 1.6620001 90 94 87 255
0.59332639 0.04702935 1.6600001 52 56 49 255
0.59961885 0.047168132 1.6650001 47 51 43 255
0.61065555 0.047675215 1.6830001 56 60 52 255
0.6239832 0.04835226 1.7070001 148 154 146 255
0.72938526 0.053714447 1.8970001 178 185 181 255
0.73297447 0.053598713 1.8930001 176 183 179 255
0.73381329 0.05328488 1.8820001 177 185 178 255
0.73302299 0.052857924 1.8670001 177 185 178 255
0.73452401 0.052600954 1.858 173 181 174 255
0.73796743 0.052485649 1.8540001 176 184 177 255
0.74339402 0.052511994 1.8550001 173 180 176 255
0.74519581 0.052283671 1.8470001 173 180 176 255
0.74573672 0.05197053 1.8360001 170 177 173 255
0.74458349 0.051544297 1.8210001 169 176 172 255
0.74499655 0.05123141 1.8100001 167 174 170 255
0.7449367 0.050890338 1.7980001 169 176 172 255
0.74397892 0.050492782 1.784 168 175 171 255
0.7437861 0.050151959 1.7720001 169 177 170 255
0.74606413 0.049981069 1.766 167 175 168 255
0.74703538 0.049725391 1.7570001 163 170 166 255
0.74539191 0.049300022 1.7420001 162 169 165 255
0.74237651 0.048789881 1.7240001 156 163 159 255
0.74273157 0.048506264 1.7140001 152 159 155 255
0.7439059 0.048279367 1.7060001 148 156 149 255
0.74416077 0.047995988 1.6960001 143 151 144 255
0.741714 0.047542933 1.6800001 143 151 144 255
0.74051452 0.047174893 1.6670001 145 151 144 255
0.740587 0.046891879 1.6570001 144 150 143 255
0.74240535 0.046722174 1.651 147 153 146 255
0.74238348 0.046439394 1.641 147 153 146 255
0.74230903 0.046156731 1.631 145 153 146 255
0.74172425 0.045845885 1.6200001 150 158 151 255
0.74292374 0.045648355 1.613 156 164 157 255
0.74316055 0.045394346 1.6040001 164 172 165 255
0.74288434 0.045112155 1.5940001 173 181 174 255
0.74255574 0.04483008 1.5840001 180 187 183 255
0.74311793 0.04460473 1.5760001 183 190 187 255
0.74553549 0.044492707 1.572 186 191 188 255
0.74554878 0.04423929 1.5630001 190 195 192 255
0.74407607 0.043901078 1.5510001 192 196 196 255
0.74302256 0.043591283 1.5400001 192 196 196 255
0.74336702 0.043366522 1.5320001 193 198 195 255
0.74513412 0.043226801 1.5270001 193 200 199 255
0.7454043 0.043002278 1.5190001 194 201 200 255
0.74464643 0.042721249 1.5090001 195 199 199 255
0.74482876 0.042496961 1.501 195 199 199 255
-0.9424907 0.042534769 1.6580001 26 27 15 255
-0.98249835 0.04455455 1.7370001 24 25 11 255
-0.97985548 0.044650439 1.7410001 22 23 9 255
-0.93967646 0.043028444 1.6780001 23 24 10 255
-0.92014939 0.043404851 1.6940001 16 16 6 255
-0.9015556 0.042959563 1.677 23 21 11 255
-0.90811378 0.04349288 1.6980001 22 20 9 255
-0.92307228 0.044436041 1.7350001 21 19 8 255
-0.89500034 0.043531217 1.7 20 18 7 255
-0.9015826 0.044543855 1.7400001 20 21 9 255
-0.8859424 0.04400276 1.7190001 21 22 10 255
-0.87643623 0.043996252 1.7190001 16 17 5 255
-0.86458963 0.04363494 1.705 22 23 11 255
-0.86744976 0.044015966 1.72 22 23 11 255
-0.87875736 0.044832107 1.7520001 20 21 9 255
-0.86844289 0.044548035 1.7410001 21 22 10 255
-0.85819268 0.044264149 1.7300001 22 20 10 255
-0.84948617 0.044057194 1.7220001 20 18 8 255
-0.84916651 0.044285323 1.7310001 21 19 9 255
-0.85563016 0.04487174 1.7540001 22 20 9 255
-0.84596312 0.044614054 1.7440001 24 22 11 255
-0.84310669 0.044714656 1.748 27 24 10 255
-0.84214956 0.04491771 1.756 29 26 12 255
-0.8468737 0.045427833 1.7760001 30 27 11 255
-0.84437937 0.045554385 1.7810001 35 27 10 255
-0.84233183 0.045706648 1.7870001 46 36 19 255
-0.83791113 0.04573115 1.7880001 56 46 27 255
-0.83208978 0.045679059 1.7860001 141 132 111 255
-0.8248924 0.045550369 1.7810001 180 176 152 255
-0.81634355 0.045345079 1.7730001 178 177 153 255
-0.80646771 0.045063201 1.7620001 187 190 166 255
-0.79483432 0.04467915 1.7470001 198 201 179 255
-0.7850939 0.044397522 1.7360001 206 211 190 255
-0.77676415 0.044192735 1.728 201 205 187 255
-0.76892686 0.044013642 1.7210001 209 215 197 255
-0.76068556 0.043809086 1.7130001 204 210 192 255
-0.75337255 0.04365579 1.7070001 204 210 193 255
-0.74784833 0.043604888 1.705 204 209 195 255
-0.74102908 0.043477371 1.7 186 194 179 255
-0.73467195 0.043375533 1.6960001 182 188 171 255
-0.72790766 0.043248214 1.6910001 210 216 199 255
-0.7220276 0.043172143 1.6880001 199 205 187 255
-0.71659029 0.04312174 1.6860001 199 205 187 255
-0.71116537 0.043071438 1.6840001 200 206 189 255
-0.70533299 0.042995643 1.6810001 200 206 189 255
-0.69993514 0.042945519 1.6790001 184 190 173 255
-0.69372088 0.042844318 1.6750001 201 209 192 255
-0.68835264 0.042794365 1.6730001 192 198 180 255
-0.68340492 0.042770065 1.6720001 185 191 173 255
-0.67846376 0.042745858 1.6710001 190 197 176 255
-0.67312574 0.042696144 1.669 193 200 178 255
-0.66739893 0.042620931 1.6660001 190 197 175 255
-0.66129136 0.042520203 1.6620001 194 201 180 255
-0.65639192 0.042496305 1.6610001 168 174 156 255
-0.65149862 0.042472467 1.6600001 187 193 175 255
-0.6477809 0.04252547 1.6620001 178 184 166 255
-0.64211768 0.042450614 1.659 168 175 154 255
-0.63724005 0.042426992 1.6580001 164 171 149 255
-0.63313174 0.042454623 1.659 166 171 149 255
-0.62863964 0.042456727 1.659 171 178 156 255
-0.62377197 0.042433318 1.6580001 192 199 177 255
-0.61928362 0.042435553 1.6580001 160 167 145 255
-0.61553735 0.042489048 1.6600001 169 177 152 255
-0.61030817 0.042440217 1.6580001 163 168 146 255
-0.60582101 0.042442638 1.6580001 166 171 149 255
-0.60133415 0.042445119 1.6580001 168 174 149 255
-0.59720755 0.042473257 1.659 190 196 171 255
-0.592004 0.042424653 1.6570001 186 191 169 255
-0.58716595 0.04240169 1.6560001 159 167 142 255
-0.58268535 0.042404391 1.6560001 182 190 165 255
-0.57820505 0.04240714 1.6560001 178 186 161 255
-0.57337821 0.04238433 1.6550001 160 167 145 255
-0.56855673 0.042361561 1.654 177 184 162 255
-0.56408191 0.042364448 1.654 172 179 157 255
-0.55960697 0.042367384 1.654 166 173 151 255
-0.55479646 0.042344749 1.6530001 143 151 126 255
-0.55032408 0.042347763 1.6530001 151 159 134 255
-0.54552138 0.042325206 1.6520001 162 170 145 255
-0.54105151 0.042328306 1.6520001 166 174 149 255
-0.53658146 0.042331439 1.6520001 154 162 137 255
-0.531789 0.042308986 1.651 163 171 146 255
-0.52732128 0.042312194 1.651 155 163 138 255
-0.52253652 0.042289805 1.6500001 164 174 149 255
-0.51807088 0.042293075 1.6500001 178 186 160 255
-0.51391613 0.04232201 1.651 156 164 138 255
-0.50913858 0.04229971 1.6500001 137 145 119 255
-0.50497776 0.042328708 1.651 144 152 126 255
-0.50050795 0.042332094 1.651 150 156 130 255
-0.49633819 0.042361151 1.6520001 147 153 127 255
-0.49216256 0.042390242 1.6530001 144 150 124 255
-0.487391 0.042368062 1.6520001 162 166 138 255
-0.48262432 0.042345893 1.651 138 143 112 255
-0.47786263 0.042323753 1.6500001 137 142 111 255
-0.4731057 0.042301618 1.649 136 141 110 255
-0.46949053 0.042382121 1.6520001 138 143 112 255
-0.46557698 0.042436998 1.654 141 146 114 255
-0.46193084 0.042517554 1.6570001 145 150 118 255
-0.45661137 0.04244417 1.654 144 149 117 255
-0.4526743 0.042499106 1.6560001 145 150 118 255
-0.44818449 0.042502727 1.6560001 141 148 117 255
-0.44422984 0.042557698 1.6580001 136 143 112 255
-0.4397333 0.042561337 1.6580001 139 144 113 255
-0.43497342 0.042539317 1.6570001 135 140 109 255
-0.4309977 0.042594325 1.659 134 139 108 255
-0.42726749 0.042675022 1.6620001 137 140 109 255
-0.42402899 0.042807095 1.6670001 133 136 104 255
-0.42126587 0.04299055 1.674 130 134 98 255
-0.41846403 0.043174051 1.6810001 122 126 88 255
-0.41488466 0.043280516 1.6850001 118 121 81 255
-0.41055223 0.043309934 1.6860001 114 117 75 255
-0.40597281 0.043313663 1.6860001 110 113 71 255
-0.40115452 0.043291703 1.6850001 107 110 70 255
-0.39657611 0.043295421 1.6850001 107 110 70 255
-0.39199686 0.043299135 1.6850001 118 120 82 255
-0.3876467 0.043328539 1.6860001 121 123 85 255
-0.38283584 0.043306541 1.6850001 124 126 90 255
-0.37780505 0.043258823 1.6830001 124 128 93 255
-0.37278429 0.043211091 1.6810001 137 142 110 255
-0.3677735 0.043163333 1.6790001 166 173 142 255
-0.36169106 0.042987004 1.6720001 170 179 148 255
-0.35543227 0.042784918 1.664 173 182 153 255
-0.35027054 0.042711362 1.6610001 142 149 120 255
-0.34512421 0.042637765 1.6580001 132 139 108 255
-0.34081507 0.04266702 1.659 130 137 106 255
-0.33690506 0.042747702 1.6620001 118 124 99 255
-0.33337775 0.042879824 1.6670001 19 22 0 255
-0.32883593 0.042883314 1.6670001 18 20 2 255
-0.32370964 0.042809609 1.664 22 21 5 255
-0.31879064 0.042761602 1.6620001 31 28 14 255
-0.3140707 0.042739291 1.6610001 34 31 17 255
-0.30935526 0.042716946 1.6600001 37 34 20 255
-0.30464441 0.042694572 1.659 23 21 10 255
-0.30011901 0.042697906 1.659 65 65 55 255
-0.29488003 0.042598262 1.6550001 104 108 100 255
-0.2894865 0.042472828 1.6500001 88 92 84 255
-0.28481027 0.04245032 1.649 70 75 64 255
-0.28013861 0.042427778 1.6480001 66 70 62 255
-0.27563876 0.042430945 1.6480001 87 91 83 255
-0.27080902 0.042382583 1.646 107 111 104 255
-0.26615107 0.042359937 1.6450001 94 100 93 255
-0.26165682 0.042362995 1.6450001 88 94 87 255
-0.25684902 0.042314518 1.6430001 97 103 95 255
-0.25235853 0.04231751 1.6430001 88 94 86 255
-0.24741454 0.042243186 1.6400001 69 75 67 255
-0.24278237 0.042220335 1.6390001 87 93 85 255
-0.23786409 0.042145927 1.636 72 78 70 255
-0.23367469 0.042200282 1.6380001 84 90 83 255
-0.22919366 0.042203072 1.6380001 117 123 116 255
-0.224849 0.042231586 1.6390001 93 99 92 255
-0.22009474 0.042182766 1.6370001 89 95 88 255
-0.2152189 0.042108119 1.6340001 73 79 71 255
-0.21087466 0.042136513 1.6350001 48 55 44 255
-0.20627163 0.042113315 1.6340001 81 88 76 255
-0.20192035 0.042141624 1.6350001 61 68 56 255
-0.19707981 0.042066783 1.6320001 73 80 68 255
-0.19272704 0.042095002 1.6330001 78 83 72 255
-0.18825276 0.04209739 1.6330001 80 85 74 255
-0.18377779 0.04209974 1.6330001 78 83 72 255
-0.1794119 0.042127818 1.6340001 79 84 73 255
-0.17514689 0.042181637 1.636 82 84 74 255
-0.17097461 0.042261198 1.6390001 77 80 68 255
-0.16658202 0.042289149 1.6400001 74 77 63 255
-0.16238096 0.042368624 1.6430001 76 79 65 255
-0.15835498 0.042499632 1.6480001 73 76 62 255
-0.15476768 0.042759549 1.6580001 71 74 60 255
-0.15112489 0.04301944 1.6680001 64 68 51 255
-0.14733875 0.043253504 1.677 65 69 52 255
-0.14282171 0.043281194 1.6780001 28 30 13 255
-0.13813387 0.043257236 1.677 33 35 18 255
-0.1335306 0.043259025 1.677 51 53 36 255
-0.12900363 0.043286551 1.6780001 54 55 41 255
-0.12447066 0.043314017 1.6790001 58 61 47 255
-0.11993168 0.043341435 1.6800001 67 70 56 255
-0.11531807 0.043342996 1.6800001 64 65 51 255
-0.11076986 0.043370299 1.6810001 64 65 51 255
-0.10608942 0.043345943 1.6800001 65 68 56 255
-0.10135362 0.043295726 1.6780001 70 73 61 255
-0.096570715 0.043219641 1.6750001 71 74 62 255
-0.091913715 0.043195106 1.674 73 76 64 255
-0.087209657 0.043144699 1.6720001 73 76 64 255
-0.08266446 0.043171648 1.6730001 76 79 67 255
-0.078066744 0.043172736 1.6730001 74 77 65 255
-0.073512606 0.043199565 1.674 62 67 55 255
-0.068870328 0.043174721 1.6730001 72 77 65 255
-0.064233251 0.043149814 1.6720001 68 73 61 255
-0.059601396 0.043124847 1.6710001 64 69 57 255
-0.055007704 0.043125626 1.6710001 74 79 68 255
-0.050353423 0.04307472 1.669 72 77 66 255
-0.045737348 0.043049566 1.6680001 73 78 67 255
-0.041101906 0.042998545 1.6660001 78 82 74 255
-0.036543041 0.043024879 1.6670001 82 86 78 255
-0.031959351 0.043025345 1.6670001 85 89 81 255
-0.027391944 0.043051563 1.6680001 81 86 75 255
-0.022818916 0.043077715 1.669 77 82 71 255
-0.018251212 0.043129615 1.6710001 76 81 70 255
-0.013647912 0.043104023 1.6700001 77 82 71 255
-0.009060896 0.043129992 1.6710001 81 85 77 255
-0.004462996 0.043104272 1.6700001 78 82 74 255
0.00012957798 0.043130115 1.6710001 75 79 71 255
0.0047219968 0.043104265 1.6700001 76 81 70 255
0.0093200486 0.043129981 1.6710001 80 85 74 255
0.013923563 0.043155637 1.6720001 79 84 72 255
0.018532513 0.043181218 1.6730001 77 82 70 255
0.023146883 0.043206748 1.674 78 83 71 255
0.027783232 0.043258023 1.6760001 79 84 72 255
0.032372475 0.0432318 1.6750001 77 84 72 255
0.037000231 0.043257136 1.6760001 76 83 72 255
0.041583668 0.043230791 1.6750001 77 84 73 255
0.046299312 0.04333343 1.6790001 77 82 71 255
0.050945774 0.043358576 1.6800001 79 84 73 255
0.055663656 0.043435279 1.6830001 77 79 69 255
0.060254503 0.043408684 1.682 78 80 70 255
0.064878166 0.043407835 1.682 75 80 69 255
0.069460236 0.043381117 1.6810001 76 81 70 255
0.074036501 0.043354344 1.6800001 81 85 77 255
0.078606956 0.043327507 1.6790001 80 84 76 255
0.083270706 0.04335222 1.6800001 77 81 73 255
0.08788728 0.043351069 1.6800001 74 78 70 255
0.092503488 0.043349855 1.6800001 70 74 66 255
0.0970615 0.043322783 1.6790001 76 80 72 255
0.10167416 0.043321457 1.6790001 84 88 80 255
0.10634968 0.043345869 1.6800001 86 90 82 255
0.11096422 0.043344416 1.6800001 83 87 79 255
0.11557826 0.043342907 1.6800001 82 86 78 255
0.12019187 0.04334135 1.6800001 78 84 76 255
0.12473065 0.043313928 1.6790001 78 84 76 255
0.12918642 0.043260653 1.677 77 84 73 255
0.13363065 0.043207332 1.6750001 75 81 73 255
0.13822843 0.043205548 1.6750001 69 76 65 255
0.14274035 0.043177914 1.674 73 80 69 255
0.14715822 0.043124437 1.6720001 78 85 74 255
0.15165527 0.043096703 1.6710001 80 87 76 255
0.15605271 0.043043122 1.669 84 91 80 255
0.16072728 0.043066863 1.6700001 83 89 81 255
0.16520871 0.043038972 1.669 78 84 77 255
0.16978578 0.043036819 1.669 76 82 75 255
0.17446662 0.0430604 1.6700001 82 88 81 255
0.17936672 0.043135494 1.6730001 87 93 86 255
0.18406264 0.043158971 1.674 69 75 68 255
0.18853796 0.043130826 1.6730001 67 73 66 255
0.19289166 0.043076865 1.6710001 82 88 81 255
0.19770631 0.043125961 1.6730001 81 87 80 255
0.20216846 0.043097686 1.6720001 70 76 69 255
0.20662439 0.043069363 1.6710001 91 97 90 255
0.21132687 0.043092549 1.6720001 70 76 69 255
0.21642143 0.043192998 1.6760001 81 87 80 255
0.22140519 0.043267615 1.6790001 71 77 70 255
0.22586621 0.043239109 1.6780001 79 85 78 255
0.23045824 0.043236334 1.6780001 83 89 82 255
0.23532961 0.043285038 1.6800001 89 95 88 255
0.24035394 0.043359462 1.6830001 88 94 87 255
0.24481164 0.043330792 1.682 73 79 72 255
0.24866988 0.043199044 1.677 81 87 79 255
0.253104 0.043170307 1.6760001 74 80 72 255
0.25753176 0.043141536 1.6750001 74 80 72 255
0.26210967 0.043138485 1.6750001 88 94 87 255
0.26764208 0.043289918 1.6810001 90 96 88 255
0.27353022 0.043492787 1.6890001 83 89 81 255
0.27913183 0.043644097 1.6950001 69 75 67 255
0.28275639 0.04348639 1.6890001 78 84 76 255
0.28600702 0.043277178 1.6810001 77 83 75 255
0.28973165 0.043145198 1.6760001 94 100 92 255
0.29430607 0.043141913 1.6760001 89 95 88 255
0.2992363 0.043190077 1.6780001 79 83 76 255
0.3039954 0.043212462 1.6790001 90 94 87 255
0.30820775 0.043157615 1.677 90 94 87 255
0.31222177 0.043077018 1.674 77 81 74 255
0.31583998 0.042944942 1.669 80 86 79 255
0.32000595 0.04289005 1.6670001 88 94 87 255
0.32454953 0.042886596 1.6670001 92 98 91 255
0.32968441 0.042960297 1.6700001 82 88 81 255
0.33423427 0.042956792 1.6700001 85 89 82 255
0.33837757 0.042901829 1.6680001 87 93 86 255
0.342509 0.042846851 1.6660001 77 81 74 255
0.34746191 0.042894732 1.6680001 89 93 86 255
0.3524248 0.042942584 1.6700001 75 81 74 255
0.35632893 0.042861853 1.6670001 76 82 75 255
0.35956642 0.04270399 1.6610001 80 86 79 255
0.36342797 0.04262327 1.6580001 84 90 83 255
0.3674942 0.042568248 1.6560001 87 93 85 255
