ply
format ascii 1.0
comment PCL generated
element vertex 969
property float x
property float y
property float z
property uchar red
property uchar green
property uchar blue
property uchar alpha
element camera 0
property float view_px
property float view_py
property float view_pz
property float x_axisx
property float x_axisy
property float x_axisz
property float y_axisx
property float y_axisy
property float y_axisz
property float z_axisx
property float z_axisy
property float z_axisz
property float focal
property float scalex
property float scaley
property float centerx
property float centery
property int viewportx
property int viewporty
property float k1
property float k2
end_header
-0.37503904 -0.084723078 1.756 168 172 154 255
-0.36962715 -0.084585331 1.7530001 162 168 150 255
-0.36485505 -0.08459229 1.7530001 164 170 152 255
-0.36008206 -0.084599227 1.7530001 161 167 149 255
-0.35551077 -0.084654376 1.7540001 141 146 124 255
-0.35113308 -0.084757768 1.756 139 144 122 255
-0.34654635 -0.08481288 1.7570001 134 140 114 255
-0.34234223 -0.084964491 1.7600001 135 139 113 255
-0.33869612 -0.08526092 1.766 128 131 100 255
-0.3352055 -0.085605636 1.7730001 105 105 75 255
-0.33111668 -0.085805498 1.7770001 103 103 73 255
-0.32627067 -0.085812181 1.7770001 104 104 74 255
-0.3212429 -0.085770518 1.7760001 96 96 68 255
-0.31586331 -0.085632198 1.7730001 104 104 84 255
-0.3104991 -0.085493788 1.7700001 22 22 4 255
-0.30480492 -0.0852587 1.7650001 29 28 12 255
-0.29913715 -0.085023515 1.7600001 30 27 11 255
-0.29383019 -0.084884852 1.7570001 32 29 13 255
-0.2887032 -0.084794424 1.7550001 31 28 12 255
-0.28390971 -0.084800556 1.7550001 23 21 3 255
-0.27911535 -0.084806621 1.7550001 33 31 13 255
-0.27463269 -0.084909275 1.7570001 33 31 13 255
-0.2701382 -0.08501187 1.7590001 32 29 13 255
-0.26563185 -0.085114397 1.761 29 28 14 255
-0.26037318 -0.08497519 1.7580001 14 14 6 255
-0.25527537 -0.084884219 1.756 103 102 96 255
-0.25033027 -0.08484152 1.7550001 63 65 65 255
-0.24566956 -0.08489541 1.756 124 126 128 255
-0.24031672 -0.084707491 1.7520001 120 122 124 255
-0.23485048 -0.084471114 1.7470001 112 116 118 255
-0.22993755 -0.084428042 1.7460001 97 101 101 255
-0.22515823 -0.084433235 1.7460001 99 104 101 255
-0.22012565 -0.084341623 1.7440001 92 98 91 255
-0.21510322 -0.084249914 1.7420001 92 96 89 255
-0.21009097 -0.084158108 1.7400001 73 77 70 255
-0.20544286 -0.08421129 1.7410001 71 75 68 255
-0.20044276 -0.08411929 1.7390001 83 87 80 255
-0.19601546 -0.084269054 1.7420001 73 74 70 255
-0.19135143 -0.084321976 1.743 60 63 60 255
-0.18668118 -0.084374823 1.7440001 106 106 106 255
-0.18179615 -0.084330812 1.743 98 98 96 255
-0.17701742 -0.084335081 1.743 84 87 83 255
-0.17223804 -0.084339246 1.743 63 66 62 255
-0.16745798 -0.084343322 1.743 73 77 70 255
-0.16258393 -0.084298901 1.7420001 95 99 92 255
-0.15762414 -0.084205963 1.7400001 94 97 93 255
-0.15276252 -0.084161326 1.7390001 95 99 92 255
-0.14799091 -0.08416497 1.7390001 87 91 84 255
-0.1433834 -0.084265307 1.7410001 80 84 77 255
-0.1386051 -0.084268756 1.7410001 81 85 78 255
-0.13382627 -0.084272087 1.7410001 78 79 73 255
-0.12897277 -0.084226906 1.7400001 77 78 72 255
-0.12419558 -0.084230021 1.7400001 79 83 76 255
-0.11934926 -0.084184602 1.7390001 86 90 83 255
-0.11477149 -0.084332727 1.7420001 80 83 79 255
-0.10998734 -0.084335513 1.7420001 79 82 78 255
-0.10532353 -0.084435016 1.7440001 85 88 84 255
-0.10053299 -0.084437564 1.7440001 90 91 87 255
-0.09579695 -0.084488437 1.7450001 87 88 84 255
-0.091002852 -0.084490769 1.7450001 88 89 85 255
-0.086109556 -0.084396139 1.743 88 89 85 255
-0.081320196 -0.084398232 1.743 87 88 82 255
-0.076618336 -0.084497064 1.7450001 88 89 83 255
-0.071822815 -0.08449892 1.7450001 86 87 81 255
-0.067026995 -0.084500678 1.7450001 88 89 83 255
-0.062230896 -0.08450231 1.7450001 86 87 81 255
-0.05750034 -0.084600657 1.7470001 86 87 81 255
-0.052788723 -0.084747337 1.7500001 85 86 80 255
-0.048087802 -0.084942318 1.7540001 83 84 78 255
-0.043315344 -0.085040331 1.756 83 84 78 255
-0.038531706 -0.085138232 1.7580001 86 87 81 255
-0.033736911 -0.085235998 1.7600001 85 86 80 255
-0.028980222 -0.085478939 1.7650001 77 81 74 255
-0.024223257 -0.085818626 1.7720001 79 83 76 255
-0.019460458 -0.086303487 1.7820001 80 81 75 255
-0.014634416 -0.086739793 1.7910001 76 77 71 255
-0.0097967703 -0.087515004 1.807 78 80 72 255
-0.0048764409 -0.088386953 1.825 77 79 71 255
0.00014335793 -0.08954937 1.8490001 81 81 73 255
0.0052809995 -0.09046948 1.868 84 84 74 255
0.010506372 -0.091244183 1.8840001 62 62 52 255
0.015803032 -0.091921881 1.8980001 51 52 40 255
0.02117661 -0.092599452 1.9120001 42 44 34 255
0.026585603 -0.093131579 1.9230001 50 52 42 255
0.032005247 -0.093518279 1.9310001 48 50 42 255
0.037430093 -0.093807973 1.937 53 54 48 255
0.042843625 -0.094000675 1.9410001 53 54 48 255
0.048254151 -0.094144821 1.9440001 55 54 48 255
0.05359824 -0.094143525 1.9440001 51 53 45 255
0.059002742 -0.094238952 1.9460001 51 55 47 255
0.064417981 -0.094334237 1.9480001 52 56 48 255
0.069843948 -0.094429404 1.95 51 55 47 255
0.075164907 -0.094379149 1.9490001 52 58 50 255
0.080686621 -0.094570883 1.9530001 52 58 50 255
0.086185932 -0.094714068 1.9560001 54 60 52 255
0.091654532 -0.094808675 1.9580001 50 56 48 255
0.097034633 -0.094806314 1.9580001 49 55 47 255
0.10246662 -0.094852239 1.9590001 56 60 52 255
0.10784864 -0.094849624 1.9590001 59 63 55 255
0.11323018 -0.09484686 1.9590001 56 60 52 255
0.1186718 -0.09489239 1.96 55 57 49 255
0.12418173 -0.094986215 1.9620001 57 59 51 255
0.12976816 -0.095128305 1.9650002 57 61 53 255
0.13530174 -0.095221855 1.9670001 58 62 54 255
0.14098883 -0.095412083 1.9710001 56 60 52 255
0.14632589 -0.095360145 1.9700001 60 64 57 255
0.15188794 -0.0954533 1.9720001 56 60 53 255
0.15746035 -0.095546328 1.9740001 52 58 51 255
0.1632081 -0.095736004 1.978 54 60 52 255
0.16880669 -0.095828779 1.9800001 55 62 51 255
0.17415155 -0.095776215 1.9790001 52 61 50 255
0.17949024 -0.095723547 1.978 54 63 52 255
0.18482272 -0.095670775 1.9770001 55 62 51 255
0.19024523 -0.09566626 1.9770001 52 58 50 255
0.1958649 -0.095758408 1.9790001 53 59 51 255
0.20149483 -0.095850438 1.9810001 56 62 54 255
0.20723934 -0.095990725 1.9840001 56 62 54 255
0.21267796 -0.095985755 1.9840001 53 59 51 255
0.21833561 -0.096077427 1.9860001 56 62 54 255
0.22389075 -0.096120611 1.9870001 56 62 54 255
0.22979672 -0.09630879 1.9910001 63 67 59 255
0.23525114 -0.096303351 1.9910001 62 66 58 255
0.24082561 -0.096346192 1.9920001 63 65 57 255
0.24603374 -0.096243843 1.9900001 64 66 58 255
0.25173551 -0.096334837 1.9920001 64 66 58 255
0.25731823 -0.096377365 1.9930001 64 66 58 255
0.26264173 -0.096323065 1.9920001 54 58 51 255
0.26782429 -0.096220329 1.9900001 53 57 50 255
0.27313223 -0.096165873 1.9890001 59 63 55 255
0.27871388 -0.096207999 1.9900001 65 69 61 255
0.28472838 -0.096395075 1.9940001 63 67 59 255
0.29090935 -0.096630372 1.9990001 65 69 61 255
0.67017967 -0.095950976 1.9960001 22 23 11 255
0.67659587 -0.096088573 1.9990001 22 23 11 255
0.68234599 -0.096130125 2 22 23 11 255
0.75120795 -0.095863923 1.9960001 134 141 138 255
0.75358033 -0.095474966 1.988 136 143 142 255
0.7559101 -0.095086195 1.9800001 141 147 149 255
0.75665927 -0.094505519 1.9680001 144 150 152 255
0.75773138 -0.093973085 1.9570001 149 153 155 255
0.75718498 -0.093248777 1.9420002 149 153 155 255
0.75655818 -0.092524692 1.927 152 156 158 255
0.75585109 -0.091800824 1.9120001 149 153 155 255
0.75546151 -0.091125198 1.8980001 153 157 159 255
0.7598061 -0.091025889 1.8960001 152 156 156 255
0.76131654 -0.090590708 1.8870001 156 160 160 255
0.7025885 -0.081941858 1.7070001 38 39 35 255
0.69147825 -0.080115624 1.669 37 38 32 255
0.68141389 -0.07843364 1.6340001 34 36 28 255
0.6774568 -0.077471897 1.6140001 32 34 24 255
0.67212498 -0.076366372 1.5910001 29 32 20 255
0.67474771 -0.076173015 1.5870001 29 32 20 255
0.67777795 -0.076027833 1.5840001 30 33 21 255
0.68423814 -0.076266803 1.5890001 28 33 21 255
0.69332695 -0.076793909 1.6 34 37 25 255
0.69811666 -0.076841228 1.6010001 29 32 20 255
0.70598477 -0.077224702 1.6090001 33 36 24 255
0.71831316 -0.078088321 1.6270001 32 35 23 255
0.7227453 -0.078088202 1.6270001 48 51 39 255
0.7240507 -0.077752307 1.6200001 41 45 37 255
0.72037339 -0.076888666 1.6020001 49 55 48 255
0.72021896 -0.076409183 1.5920001 103 110 106 255
0.72365296 -0.076313846 1.59 163 170 169 255
0.72753596 -0.076266728 1.5890001 178 184 186 255
0.73141551 -0.076219805 1.5880001 182 188 190 255
0.7311219 -0.075741112 1.5780001 183 189 192 255
0.73264003 -0.075454608 1.572 184 189 195 255
0.7341277 -0.075168312 1.5660001 188 191 197 255
0.73464173 -0.074786209 1.5580001 188 191 197 255
0.73464 -0.074356303 1.549 188 191 197 255
0.73268342 -0.073734567 1.536 188 191 197 255
0.7335366 -0.073401064 1.529 188 191 197 255
0.7333889 -0.072971739 1.5200001 185 190 196 255
0.73610586 -0.07283067 1.5170001 190 195 201 255
0.73783302 -0.072593793 1.5120001 196 199 203 255
0.73953551 -0.072357133 1.5070001 193 196 202 255
1.1728941 -0.08100903 1.659 213 214 220 255
-1.0195924 -0.09350507 1.8390001 36 39 25 255
-1.0249133 -0.094458424 1.858 36 35 19 255
-0.97955918 -0.091181397 1.794 32 31 15 255
-0.98710519 -0.093283243 1.8360001 29 28 14 255
-0.96540624 -0.091698207 1.8050001 32 31 15 255
-0.96091121 -0.091739371 1.8060001 31 28 12 255
-0.96964771 -0.093050711 1.8320001 30 27 11 255
-0.9708733 -0.093651123 1.8440001 33 29 13 255
-0.97151321 -0.094201013 1.8550001 36 28 11 255
-0.96688724 -0.094243377 1.8560001 40 28 11 255
-0.96174192 -0.094235323 1.8560001 41 27 8 255
-0.95763201 -0.094329156 1.858 70 56 37 255
-0.95402807 -0.0944741 1.8610001 74 58 35 255
-0.94939196 -0.094517842 1.8620001 40 21 0 255
-0.94069761 -0.094155841 1.8550001 105 82 60 255
-0.93608081 -0.094200261 1.8560001 98 73 51 255
-0.93146247 -0.094245017 1.8570001 102 73 54 255
-0.92684221 -0.094290063 1.858 152 123 104 255
-0.92023617 -0.094132476 1.8550001 157 126 107 255
-0.91414338 -0.094025947 1.853 134 105 86 255
-0.91051817 -0.094173439 1.8560001 122 92 67 255
-0.90492851 -0.094118267 1.8550001 115 86 58 255
-0.90128809 -0.094266362 1.858 110 81 53 255
-0.89570516 -0.094211802 1.8570001 105 76 47 255
-0.89252877 -0.094411187 1.8610001 107 78 49 255
-0.88647252 -0.094306469 1.8590001 104 77 48 255
-0.88090426 -0.094252773 1.858 111 84 55 255
-0.87722999 -0.094402276 1.8610001 106 80 51 255
-0.87447941 -0.094653487 1.8660001 107 81 52 255
-0.87030643 -0.094752789 1.868 104 80 52 255
-0.86241996 -0.094446577 1.8620001 100 76 48 255
-0.85595018 -0.094292805 1.8590001 92 70 42 255
-0.85178775 -0.094392896 1.8610001 93 71 43 255
-0.84807199 -0.094543979 1.8640001 85 66 37 255
-0.84298527 -0.094543129 1.8640001 79 60 31 255
-0.83969897 -0.09474542 1.868 72 55 26 255
-0.83683997 -0.09499868 1.8730001 68 53 24 255
-0.83439994 -0.095302887 1.8790001 63 50 23 255
-0.83060509 -0.095455177 1.8820001 59 46 22 255
-0.82548022 -0.09545555 1.8820001 59 46 22 255
-0.81992137 -0.095405422 1.881 63 47 23 255
-0.81436986 -0.095355533 1.8800001 70 52 28 255
-0.81097782 -0.095559455 1.8840001 77 57 33 255
-0.80671018 -0.095662162 1.886 80 60 34 255
-0.80200845 -0.095714368 1.8870001 82 62 38 255
-0.79603595 -0.09561462 1.8850001 82 63 41 255
-0.78965628 -0.095464349 1.8820001 74 57 37 255
-0.78329438 -0.095314272 1.8790001 137 123 106 255
-0.77612185 -0.095062926 1.8740001 207 197 180 255
-0.76938939 -0.094862521 1.8700001 192 190 172 255
-0.7626797 -0.094662257 1.8660001 190 190 172 255
-0.75721115 -0.094614394 1.8650001 194 196 176 255
-0.75215238 -0.094617434 1.8650001 100 102 82 255
-0.74789584 -0.094722122 1.8670001 187 189 171 255
-0.74323165 -0.094776243 1.868 192 194 176 255
-0.7377727 -0.094729081 1.8670001 196 198 180 255
-0.73153526 -0.094580606 1.8640001 200 203 191 255
-0.72492516 -0.094381541 1.8600001 198 201 189 255
-0.71717632 -0.094030365 1.853 199 204 193 255
-0.70908201 -0.093628593 1.845 205 210 199 255
-0.69950527 -0.093023941 1.8330001 198 203 192 255
-0.69075191 -0.09252087 1.8230001 200 205 194 255
-0.68205339 -0.092017896 1.8130001 199 206 195 255
-0.67415643 -0.091616526 1.8050001 198 204 196 255
-0.6674158 -0.091367535 1.8000001 204 210 202 255
-0.65996647 -0.09101712 1.7930001 205 209 201 255
-0.65365148 -0.090819091 1.789 195 199 191 255
-0.64735872 -0.090621181 1.7850001 175 179 171 255
-0.64144766 -0.090474129 1.7820001 206 211 200 255
-0.63448155 -0.090174861 1.7760001 202 207 196 255
-0.62825716 -0.08997722 1.7720001 187 192 181 255
-0.62311012 -0.089932017 1.771 195 198 186 255
-0.61796862 -0.089886904 1.7700001 196 199 187 255
-0.61283267 -0.089841902 1.7690001 192 195 181 255
-0.60735846 -0.089746192 1.7670001 192 195 181 255
-0.60155416 -0.089599788 1.7640001 187 191 174 255
-0.59542781 -0.089402668 1.7600001 178 182 164 255
-0.59133661 -0.089510396 1.7620001 188 193 171 255
-0.58690166 -0.089567445 1.7630001 104 107 83 255
-0.58312148 -0.089726187 1.766 147 148 124 255
-0.57867014 -0.089783423 1.7670001 155 157 131 255
-0.57453781 -0.089891553 1.7690001 159 160 136 255
-0.56910628 -0.089796513 1.7670001 160 161 139 255
-0.56432408 -0.089803174 1.7670001 154 157 133 255
-0.55985832 -0.089860745 1.7680001 156 159 135 255
-0.55570072 -0.08996921 1.7700001 159 160 136 255
-0.55122072 -0.090026923 1.771 155 156 132 255
-0.54673493 -0.090084709 1.7720001 157 158 134 255
-0.54224348 -0.09014257 1.7730001 164 167 145 255
-0.53804922 -0.090251341 1.7750001 151 154 132 255
-0.53354341 -0.090309344 1.7760001 158 161 139 255
-0.52903152 -0.090367392 1.7770001 154 159 138 255
-0.52451384 -0.090425491 1.7780001 153 158 137 255
-0.51999027 -0.090483658 1.779 154 159 138 255
-0.51575029 -0.090592742 1.7810001 151 156 135 255
-0.51178575 -0.090752758 1.784 155 158 134 255
-0.50723612 -0.090811096 1.7850001 158 160 134 255
-0.50268042 -0.090869464 1.7860001 157 159 131 255
-0.49811876 -0.090927884 1.7870001 152 155 124 255
-0.49382696 -0.091037221 1.789 142 146 118 255
-0.48897704 -0.091044821 1.789 137 141 113 255
-0.48385587 -0.091001563 1.7880001 136 142 116 255
-0.47873938 -0.090958305 1.7870001 140 146 121 255
-0.47362769 -0.090915076 1.7860001 140 146 121 255
-0.46878308 -0.090922743 1.7860001 137 142 120 255
-0.46393767 -0.090930432 1.7860001 145 150 128 255
-0.4588345 -0.090887211 1.7850001 153 159 134 255
-0.45348164 -0.090793088 1.7830001 156 162 137 255
-0.4481388 -0.090698935 1.7810001 160 167 145 255
-0.44305497 -0.090655707 1.7800001 167 172 150 255
-0.43797576 -0.090612464 1.779 161 168 146 255
-0.43314457 -0.090620145 1.779 166 173 151 255
-0.4280718 -0.090576895 1.7780001 173 180 159 255
-0.42300367 -0.090533629 1.7770001 169 178 157 255
-0.41746935 -0.090388432 1.774 174 183 162 255
-0.41241577 -0.090345122 1.7730001 176 185 164 255
-0.4069069 -0.090199865 1.7700001 171 178 157 255
-0.40164065 -0.090105526 1.7680001 168 174 156 255
-0.39615992 -0.08996018 1.7650001 161 165 147 255
-0.39091635 -0.089865774 1.7630001 160 164 146 255
-0.38590175 -0.0898223 1.7620001 167 171 153 255
-0.38067538 -0.089727797 1.7600001 170 174 156 255
-0.37545899 -0.089633264 1.7580001 171 175 157 255
-0.37004167 -0.089487694 1.7550001 158 162 144 255
-0.36505607 -0.089444041 1.7540001 154 158 140 255
-0.36048576 -0.089502357 1.7550001 168 173 152 255
-0.35590908 -0.089560635 1.756 182 187 165 255
-0.35092613 -0.089516878 1.7550001 135 141 116 255
-0.34594765 -0.089473061 1.7540001 128 135 106 255
-0.34194621 -0.08968427 1.7580001 135 139 111 255
-0.33830562 -0.089997508 1.7640001 124 127 96 255
-0.33463138 -0.090310737 1.7700001 100 103 72 255
-0.33036447 -0.090470888 1.7730001 101 101 71 255
-0.32552946 -0.090477921 1.7730001 94 94 64 255
-0.32069352 -0.090484902 1.7730001 101 103 75 255
-0.31532213 -0.0903387 1.7700001 56 57 35 255
-0.30943993 -0.09003929 1.7640001 28 28 10 255
-0.30341685 -0.089688726 1.7570001 29 28 12 255
-0.29777098 -0.089440152 1.7520001 30 27 11 255
-0.2926532 -0.089344636 1.7500001 31 28 12 255
-0.28787437 -0.089351147 1.7500001 32 30 12 255
-0.28341812 -0.089459717 1.7520001 31 29 11 255
-0.27863204 -0.089466117 1.7520001 33 31 13 255
-0.27415764 -0.089574561 1.7540001 33 30 14 255
-0.2693643 -0.089580819 1.7540001 33 32 18 255
-0.26472086 -0.089638062 1.7550001 27 25 14 255
-0.25947863 -0.08949092 1.7520001 70 69 63 255
-0.25483346 -0.089548022 1.7530001 79 80 76 255
-0.24989662 -0.089502856 1.7520001 71 73 73 255
-0.24524419 -0.089559793 1.7530001 125 127 129 255
-0.239351 -0.089156814 1.7450001 116 120 122 255
-0.23403844 -0.088958077 1.7410001 108 112 112 255
-0.22914204 -0.088912547 1.7400001 99 104 101 255
-0.22450818 -0.088969097 1.7410001 93 98 95 255
-0.21961559 -0.08892338 1.7400001 91 95 88 255
-0.21472766 -0.088877536 1.7390001 86 90 83 255
-0.20984446 -0.088831611 1.738 73 77 70 255
-0.20508394 -0.088836692 1.738 69 73 66 255
-0.20020741 -0.088790573 1.7370001 80 84 77 255
-0.19567318 -0.088897698 1.7390001 73 77 70 255
-0.1907979 -0.088851377 1.738 56 59 55 255
-0.1860344 -0.088856071 1.738 108 108 106 255
-0.18127021 -0.088860661 1.738 102 102 100 255
-0.17660686 -0.088916279 1.7390001 71 74 70 255
-0.17193736 -0.088971801 1.7400001 66 69 65 255
-0.16706957 -0.088924944 1.7390001 80 84 77 255
-0.16220658 -0.088877983 1.738 97 101 94 255
-0.15734847 -0.088830911 1.7370001 91 94 90 255
-0.15249519 -0.088783726 1.7360001 88 92 85 255
-0.14781702 -0.088838704 1.7370001 88 92 85 255
-0.14321509 -0.088944733 1.7390001 82 86 79 255
-0.13852203 -0.08899951 1.7400001 79 83 76 255
-0.13366915 -0.088951863 1.7390001 76 77 71 255
-0.12874714 -0.088852964 1.7370001 76 77 71 255
-0.12390693 -0.088805087 1.7360001 94 98 91 255
-0.11907172 -0.08875709 1.7350001 82 86 79 255
-0.11443914 -0.088862449 1.7370001 79 83 76 255
-0.10973198 -0.088916525 1.738 84 87 83 255
-0.10501889 -0.088970512 1.7390001 86 89 86 255
-0.10024221 -0.088973202 1.7390001 86 89 85 255
-0.095465109 -0.088975765 1.7390001 85 88 84 255
-0.090635456 -0.088927045 1.738 83 86 82 255
-0.085761532 -0.088827044 1.7360001 86 87 81 255
-0.08108484 -0.088931583 1.738 85 89 82 255
-0.076352917 -0.08898484 1.7390001 84 88 81 255
-0.071615174 -0.089037977 1.7400001 88 89 85 255
-0.066756397 -0.088937461 1.738 86 87 83 255
-0.061979644 -0.088939168 1.738 88 89 83 255
-0.057202637 -0.088940755 1.738 87 88 82 255
-0.052546043 -0.089146927 1.7420001 83 84 78 255
-0.04783982 -0.089301787 1.7450001 83 84 78 255
-0.043092217 -0.089405343 1.7470001 84 85 79 255
-0.038355362 -0.089559965 1.7500001 87 88 82 255
-0.03358268 -0.089663282 1.7520001 82 83 77 255
-0.028864536 -0.089971192 1.7580001 82 86 79 255
-0.02411327 -0.090278968 1.7640001 82 86 79 255
-0.01935075 -0.090688981 1.7720001 81 83 75 255
-0.014519642 -0.090945326 1.7770001 81 83 75 255
-0.009666401 -0.091252729 1.7830001 80 82 74 255
-0.0047827959 -0.091611169 1.7900001 81 81 73 255
0.00013963271 -0.092174217 1.8010001 78 78 70 255
0.005133857 -0.092941836 1.8160001 78 78 70 255
0.01023285 -0.093914032 1.835 79 79 71 255
0.015427952 -0.094834909 1.853 82 84 76 255
0.020744119 -0.095858023 1.8730001 81 83 75 255
0.026211644 -0.097034492 1.8960001 70 71 65 255
0.031739227 -0.098006107 1.9150001 54 55 49 255
0.037274536 -0.098721683 1.9290001 44 45 39 255
0.042754218 -0.09913002 1.937 47 48 42 255
0.048178423 -0.09933351 1.9410001 49 50 44 255
0.053569276 -0.099434517 1.9430001 44 48 40 255
0.059031527 -0.099637717 1.9470001 45 49 41 255
0.06448245 -0.09978959 1.95 44 48 40 255
0.069877945 -0.099838972 1.9510001 45 49 41 255
0.075201526 -0.099785872 1.95 43 47 39 255
0.080725864 -0.099988505 1.9540001 47 49 41 255
0.086183704 -0.10008863 1.9560001 46 50 42 255
0.091698989 -0.10023978 1.9590001 43 48 37 255
0.097081698 -0.10023729 1.9590001 47 52 41 255
0.1025163 -0.10028583 1.96 45 50 39 255
0.10795597 -0.10033422 1.9610001 45 50 39 255
0.11328509 -0.10028014 1.96 48 50 40 255
0.11878987 -0.10037943 1.9620001 50 52 42 255
0.12424184 -0.1004274 1.9630001 48 50 40 255
0.1298309 -0.10057757 1.9660001 48 50 40 255
0.13529831 -0.10062527 1.9670001 47 51 43 255
0.14098524 -0.1008263 1.9710001 46 50 42 255
0.14639646 -0.10082258 1.9710001 50 54 46 255
0.15188412 -0.10086987 1.9720001 48 52 45 255
0.15753616 -0.10101933 1.9750001 49 53 45 255
0.16320401 -0.10116864 1.978 50 54 46 255
0.16888773 -0.10131782 1.9810001 49 56 45 255
0.17423521 -0.10126229 1.9800001 49 56 45 255
0.1794858 -0.1011555 1.978 49 56 45 255
0.18481815 -0.10109973 1.9770001 48 55 44 255
0.19024053 -0.10109497 1.9770001 47 54 43 255
0.19595908 -0.1012435 1.9800001 47 53 45 255
0.2015916 -0.10134076 1.9820001 48 54 46 255
0.20733874 -0.10148901 1.9850001 49 56 45 255
0.21267278 -0.10143264 1.9840001 49 56 45 255
0.21833032 -0.10152952 1.9860001 50 57 46 255
0.223998 -0.10162627 1.988 52 57 46 255
0.23002206 -0.10187626 1.9930001 51 56 45 255
0.23559999 -0.10192165 1.9940001 54 56 48 255
0.24118257 -0.10196692 1.9950001 49 51 43 255
0.24627517 -0.10180765 1.9920001 50 52 44 255
0.2519823 -0.10190379 1.9940001 48 50 42 255
0.25757036 -0.10194874 1.9950001 51 53 45 255
0.26303113 -0.10194246 1.9950001 47 51 44 255
0.26795262 -0.10173171 1.9910001 49 53 45 255
0.27326325 -0.10167417 1.9900001 60 64 56 255
0.27856743 -0.10161654 1.9890001 66 70 62 255
0.28429347 -0.10171206 1.9910001 64 68 61 255
0.29032063 -0.10190965 1.9950001 60 64 56 255
0.75233203 -0.10145794 1.9990001 133 140 137 255
0.75433367 -0.10099617 1.9900001 140 147 146 255
0.75590545 -0.10048386 1.9800001 143 150 149 255
0.75627029 -0.099819496 1.9670001 146 152 154 255
0.75656551 -0.099155366 1.9540001 144 150 152 255
0.75679106 -0.098491475 1.9410001 148 152 154 255
0.75773215 -0.097929262 1.9300001 151 155 157 255
0.75782394 -0.097265802 1.9170001 151 155 157 255
0.75744832 -0.096551836 1.9030001 152 156 156 255
0.76220727 -0.096497647 1.9020001 156 160 160 255
0.75969976 -0.09553045 1.8830001 159 161 161 255
0.70204258 -0.087103345 1.7170001 19 19 17 255
0.69805872 -0.086035602 1.6960001 35 36 30 255
0.69520491 -0.085120268 1.6780001 36 40 33 255
0.68099505 -0.082835563 1.6330001 33 37 29 255
0.6782946 -0.081971407 1.6160001 33 35 27 255
0.68015015 -0.081665456 1.6100001 29 31 21 255
0.67899811 -0.081004612 1.5970001 30 33 21 255
0.68162781 -0.080800481 1.5930001 27 32 20 255
0.68725145 -0.080951586 1.5960001 27 32 20 255
0.69159287 -0.080950707 1.5960001 29 34 22 255
0.69201142 -0.08049354 1.5870001 32 35 23 255
0.6963315 -0.080493055 1.5870001 28 31 19 255
0.70948303 -0.081507146 1.6070001 32 35 23 255
0.7156378 -0.081709929 1.6110001 36 39 27 255
0.71868753 -0.081557877 1.608 39 44 33 255
0.71857512 -0.081050977 1.598 38 42 34 255
0.71931469 -0.080645733 1.59 91 99 92 255
0.72274357 -0.080545023 1.5880001 147 154 151 255
0.72524774 -0.080343083 1.5840001 180 187 186 255
0.73003501 -0.080394961 1.585 181 187 189 255
0.72973335 -0.079889104 1.575 183 189 192 255
0.73124355 -0.079586357 1.5690001 187 190 194 255
0.73225433 -0.079233088 1.562 188 191 197 255
0.73464382 -0.079032227 1.5580001 189 192 198 255
0.73606503 -0.078730114 1.552 188 191 197 255
0.735071 -0.078174584 1.5410001 188 191 197 255
0.73545825 -0.077771433 1.5330001 188 191 197 255
0.73483932 -0.077267036 1.5230001 192 195 201 255
0.73610902 -0.076965772 1.5170001 192 195 199 255
0.7383244 -0.076766208 1.5130001 193 196 200 255
0.73904842 -0.076414652 1.506 190 193 197 255
-1.0293392 -0.099962771 1.8660001 31 32 18 255
-1.0165592 -0.10071634 1.881 32 31 17 255
-0.99249226 -0.09883108 1.8460001 39 38 24 255
-0.97504377 -0.097589038 1.8230001 37 36 22 255
-0.95985693 -0.096561767 1.8040001 33 30 14 255
-0.96754003 -0.09783648 1.8280001 31 28 12 255
-0.9708823 -0.098683216 1.8440001 33 30 14 255
-0.97099817 -0.0992091 1.8540001 29 25 8 255
-0.96376997 -0.098986201 1.8500001 34 28 11 255
-0.96019542 -0.0991382 1.853 37 27 10 255
-0.95763981 -0.099397548 1.858 47 37 20 255
-0.95352298 -0.099496767 1.8600001 64 50 31 255
-0.94990891 -0.099649794 1.863 36 21 1 255
-0.94121146 -0.09926831 1.8560001 94 75 53 255
-0.93760031 -0.099422053 1.8590001 78 55 35 255
-0.93197 -0.099362195 1.858 97 68 47 255
-0.92784566 -0.099463128 1.8600001 155 126 105 255
-0.92123365 -0.099297024 1.8570001 142 111 90 255
-0.91612172 -0.099291667 1.8570001 126 98 75 255
-0.91052288 -0.099233173 1.8560001 116 87 59 255
-0.90590864 -0.099281952 1.8570001 116 87 59 255
-0.90226233 -0.099437952 1.8600001 108 81 53 255
-0.8986029 -0.09959425 1.863 102 75 47 255
-0.89397109 -0.099643938 1.8640001 110 83 55 255
-0.88885999 -0.099640481 1.8640001 108 81 53 255
-0.88280368 -0.099530414 1.8620001 112 85 57 255
-0.87864667 -0.099634439 1.8640001 108 82 54 255
-0.87448174 -0.099738769 1.8660001 106 82 54 255
-0.86937672 -0.099736482 1.8660001 108 84 56 255
-0.86288494 -0.099574134 1.863 103 79 51 255
-0.85687256 -0.099465512 1.8610001 93 71 43 255
-0.85316217 -0.09962441 1.8640001 90 68 40 255
-0.84898293 -0.099730119 1.8660001 86 64 36 255
-0.84479505 -0.099836089 1.868 80 61 31 255
-0.84194708 -0.10010266 1.8730001 76 59 29 255
-0.83907425 -0.10036949 1.8780001 68 53 24 255
-0.83484399 -0.10047624 1.8800001 62 49 20 255
-0.8301636 -0.10052979 1.881 60 47 20 255
-0.82460254 -0.1004767 1.8800001 62 46 20 255
-0.81948471 -0.1004773 1.8800001 70 52 26 255
-0.8143689 -0.10047814 1.8800001 78 58 32 255
-0.81140697 -0.10074645 1.8850001 80 58 32 255
-0.80670881 -0.10080119 1.886 84 62 36 255
-0.80115682 -0.10074928 1.8850001 88 65 42 255
-0.79476726 -0.1005907 1.8820001 89 70 50 255
-0.78839558 -0.10043232 1.8790001 68 53 34 255
-0.78120786 -0.10016725 1.8740001 215 208 188 255
-0.77363443 -0.099848911 1.868 192 188 171 255
-0.76774096 -0.099744596 1.8660001 189 191 171 255
-0.76226819 -0.099693924 1.8650001 182 187 166 255
-0.75680208 -0.099643447 1.8640001 148 150 130 255
-0.75174588 -0.099646628 1.8640001 147 151 133 255
-0.74709123 -0.099703446 1.8650001 174 178 161 255
-0.74163669 -0.099653535 1.8640001 204 207 193 255
-0.73539805 -0.099496879 1.8610001 203 206 194 255
-0.72760671 -0.09912651 1.8540001 200 205 194 255
-0.72063386 -0.098863229 1.8490001 202 207 196 255
-0.71214068 -0.098386213 1.84 204 209 198 255
-0.70369714 -0.097909316 1.8310001 201 206 195 255
-0.69415808 -0.097272113 1.8190001 201 206 195 255
-0.68657929 -0.0969024 1.812 194 199 188 255
-0.67941523 -0.096586287 1.8060001 189 194 183 255
-0.67303109 -0.096377246 1.802 204 211 200 255
-0.66555691 -0.096007876 1.7950001 220 227 216 255
-0.65885711 -0.095745578 1.7900001 185 192 181 255
-0.65181947 -0.095429897 1.784 183 190 179 255
-0.64554012 -0.095221318 1.7800001 204 209 198 255
-0.63928258 -0.095012836 1.7760001 209 212 200 255
-0.63268971 -0.094750933 1.771 194 197 185 255
-0.62647879 -0.094542645 1.7670001 198 201 187 255
-0.62064147 -0.094387941 1.7640001 197 201 184 255
-0.61551887 -0.094340377 1.7630001 195 199 182 255
-0.61005533 -0.094239391 1.761 189 193 175 255
-0.60494637 -0.094192013 1.7600001 190 194 176 255
-0.60018396 -0.094198249 1.7600001 186 190 172 255
-0.59508318 -0.09415108 1.7590001 176 181 159 255
-0.59099466 -0.094264574 1.761 181 184 160 255
-0.58656228 -0.094324648 1.7620001 119 120 96 255
-0.58212441 -0.094384834 1.7630001 147 148 124 255
-0.57702607 -0.094338022 1.7620001 150 149 125 255
-0.57290727 -0.094451927 1.7640001 159 158 134 255
-0.56781125 -0.094405286 1.7630001 161 163 137 255
-0.56335914 -0.094465815 1.7640001 167 169 141 255
-0.55858469 -0.094472878 1.7640001 161 163 137 255
-0.55412394 -0.094533578 1.7650001 151 152 128 255
-0.5499686 -0.094647907 1.7670001 158 159 135 255
-0.54518515 -0.094655201 1.7670001 160 161 137 255
-0.54101288 -0.094769686 1.7690001 157 160 138 255
-0.53652632 -0.094830692 1.7700001 148 151 129 255
-0.53203386 -0.094891757 1.771 158 161 139 255
-0.52753556 -0.094952874 1.7720001 152 155 133 255
-0.52303135 -0.095014073 1.7730001 150 153 131 255
-0.51881355 -0.095128916 1.7750001 151 154 132 255
-0.51429486 -0.095190227 1.7760001 150 153 131 255
-0.51034379 -0.095358789 1.779 152 156 130 255
-0.5058077 -0.095420204 1.7800001 149 151 125 255
-0.50154698 -0.095535278 1.7820001 148 151 120 255
-0.49699607 -0.095596798 1.7830001 148 148 118 255
-0.49299112 -0.095765591 1.7860001 145 148 117 255
-0.48814929 -0.09577357 1.7860001 139 142 111 255
-0.48330685 -0.095781572 1.7860001 140 144 116 255
-0.47819576 -0.095735975 1.7850001 141 145 119 255
-0.47335455 -0.095744006 1.7850001 140 146 120 255
-0.46851265 -0.095752083 1.7850001 139 145 120 255
-0.46392977 -0.095813818 1.7860001 144 149 127 255
-0.45882657 -0.095768243 1.7850001 146 151 130 255
-0.45372805 -0.095722698 1.784 154 159 138 255
-0.44838256 -0.095623478 1.7820001 156 163 142 255
-0.44304711 -0.095524251 1.7800001 159 166 145 255
-0.43821406 -0.095532343 1.7800001 161 168 147 255
-0.43338019 -0.095540427 1.7800001 168 175 154 255
-0.42830467 -0.095494829 1.779 166 173 152 255
-0.42251971 -0.095288172 1.7750001 164 173 152 255
-0.41746151 -0.095242538 1.774 169 178 157 255
-0.41240793 -0.09519688 1.7730001 173 182 161 255
-0.40735888 -0.095151186 1.7720001 169 176 155 255
-0.40186003 -0.094998077 1.7690001 168 174 156 255
-0.39637664 -0.094844922 1.766 158 164 146 255
-0.39090863 -0.094691724 1.7630001 162 166 148 255
-0.38567504 -0.094592169 1.761 166 170 152 255
-0.38066772 -0.094546296 1.7600001 170 175 154 255
-0.37566495 -0.0945004 1.7590001 165 170 149 255
-0.37024495 -0.094346985 1.756 161 166 145 255
-0.36546475 -0.094354719 1.756 161 166 144 255
-0.36068365 -0.094362415 1.756 157 162 140 255
-0.355699 -0.094316348 1.7550001 187 193 168 255
-0.35051882 -0.094216458 1.7530001 138 144 118 255
-0.34554583 -0.094170265 1.7520001 133 140 111 255
-0.34154987 -0.094392791 1.756 135 139 111 255
-0.33791476 -0.09472283 1.7620001 120 123 92 255
-0.33386788 -0.094945326 1.766 99 102 71 255
-0.32961193 -0.095114052 1.7690001 96 99 68 255
-0.32460427 -0.095067658 1.7680001 95 97 69 255
-0.31978202 -0.095074974 1.7680001 100 102 76 255
-0.31424624 -0.09486711 1.7640001 33 34 12 255
-0.30820504 -0.094497792 1.7570001 29 29 11 255
-0.30220115 -0.09412837 1.7500001 30 29 13 255
-0.29674444 -0.093920194 1.7460001 31 29 11 255
-0.29197752 -0.093927093 1.7460001 32 30 12 255
-0.28753871 -0.094041541 1.748 33 31 13 255
-0.28292626 -0.094102114 1.7490001 32 30 12 255
-0.27814841 -0.09410882 1.7490001 36 34 16 255
-0.2736823 -0.094223067 1.751 32 31 17 255
-0.26889721 -0.094229639 1.751 33 32 18 255
-0.26441288 -0.094343759 1.7530001 26 27 15 255
-0.25917622 -0.094188698 1.7500001 106 107 101 255
-0.25453654 -0.094248824 1.751 78 79 75 255
-0.24946269 -0.094147399 1.7490001 113 115 115 255
-0.24439886 -0.09404587 1.7470001 116 120 122 255
-0.23865935 -0.09367507 1.7400001 119 123 123 255
-0.23322618 -0.093411796 1.7350001 100 104 104 255
-0.22834627 -0.093363769 1.7340001 103 108 105 255
-0.22372891 -0.093423344 1.7350001 86 91 87 255
-0.2192315 -0.093536675 1.7370001 87 91 84 255
-0.21435188 -0.093488358 1.7360001 82 86 79 255
-0.20947702 -0.093439952 1.7350001 71 75 68 255
-0.2047248 -0.093445294 1.7350001 56 60 52 255
-0.19997185 -0.093450531 1.7350001 87 91 84 255
-0.19521813 -0.093455657 1.7350001 68 72 65 255
-0.19035393 -0.093406834 1.7340001 79 82 78 255
-0.18549447 -0.093357883 1.733 102 102 100 255
-0.18084837 -0.093416572 1.7340001 93 96 93 255
-0.1761961 -0.093475156 1.7350001 67 70 66 255
-0.17153767 -0.093533635 1.7360001 72 75 71 255
-0.16658488 -0.093430378 1.7340001 100 104 97 255
-0.16173573 -0.093380861 1.733 96 100 93 255
-0.15689144 -0.093331248 1.7320001 90 93 89 255
-0.152052 -0.093281507 1.7310001 89 93 86 255
-0.14738764 -0.093339421 1.7320001 84 88 81 255
-0.14279954 -0.09345112 1.7340001 82 86 79 255
-0.13819993 -0.093562715 1.7360001 77 81 74 255
-0.13335817 -0.093512513 1.7350001 76 77 71 255
-0.12844723 -0.093408272 1.733 70 74 67 255
-0.1236895 -0.093411714 1.733 105 109 102 255
-0.11893128 -0.093415022 1.733 78 82 75 255
-0.11423843 -0.093472123 1.7340001 77 81 74 255
-0.10947651 -0.0934752 1.7340001 78 82 75 255
-0.10465373 -0.093424238 1.733 82 85 81 255
-0.099836022 -0.093373165 1.7320001 79 82 78 255
-0.095078275 -0.093375854 1.7320001 82 85 81 255
-0.090372279 -0.09343233 1.733 82 85 81 255
-0.085660405 -0.093488686 1.7340001 88 89 85 255
-0.080896035 -0.09349101 1.7340001 86 90 83 255
-0.076175228 -0.093547113 1.7350001 82 85 81 255
-0.071448594 -0.093603075 1.7360001 88 89 85 255
-0.066639349 -0.093551084 1.7350001 89 90 86 255
-0.061835311 -0.09349896 1.7340001 85 86 80 255
-0.05700361 -0.093392789 1.7320001 89 90 84 255
-0.052303296 -0.093502156 1.7340001 82 86 79 255
-0.047591772 -0.093611404 1.7360001 82 86 79 255
-0.04286905 -0.093720526 1.738 84 88 81 255
-0.038157061 -0.093883425 1.7410001 86 87 81 255
-0.033409253 -0.093992285 1.743 82 83 77 255
-0.028715974 -0.094316721 1.7490001 84 85 79 255
-0.023962246 -0.094533168 1.7530001 80 81 75 255
-0.019208256 -0.094857335 1.7590001 79 81 73 255
-0.014396683 -0.095019586 1.7620001 82 84 76 255
-0.0095848171 -0.0953435 1.7680001 81 83 75 255
-0.0047372421 -0.095613331 1.7730001 83 84 78 255
0.00013792324 -0.095936961 1.779 80 82 74 255
0.0050460813 -0.096260458 1.7850001 80 82 74 255
0.010015092 -0.096853442 1.7960001 80 81 75 255
0.015061199 -0.097554147 1.8090001 78 80 72 255
0.020200871 -0.09836255 1.8240001 77 78 72 255
0.025519706 -0.099548295 1.8460001 74 75 69 255
0.031075416 -0.10111136 1.8750001 78 79 73 255
0.036771122 -0.10262034 1.9030001 80 81 75 255
0.042377826 -0.10353595 1.9200001 54 58 51 255
0.047978539 -0.10423569 1.9330001 47 51 43 255
0.053457532 -0.10455781 1.9390001 49 53 45 255
0.058969278 -0.10487978 1.9450001 50 54 46 255
0.064414553 -0.10503982 1.9480001 47 52 41 255
0.069876052 -0.10519971 1.9510001 51 53 45 255
0.075276613 -0.1052516 1.9520001 49 51 43 255
0.080806278 -0.10546509 1.9560001 53 55 47 255
0.086225428 -0.10551669 1.9570001 51 53 45 255
0.091696493 -0.10562204 1.9590001 48 50 40 255
0.097079068 -0.10561942 1.9590001 51 53 43 255
0.10256583 -0.10572448 1.9610001 50 52 44 255
0.1080081 -0.10577548 1.9620001 49 51 41 255
0.11345543 -0.10582633 1.9630001 50 52 42 255
0.11884721 -0.10582311 1.9630001 50 52 42 255
0.12423851 -0.10581977 1.9630001 53 55 45 255
0.12976138 -0.1059241 1.9650002 49 54 43 255
0.13543224 -0.10613608 1.9690001 49 54 43 255
0.1409815 -0.1062401 1.9710001 53 55 47 255
0.14654112 -0.10634398 1.973 54 56 48 255
0.15195711 -0.10633992 1.973 51 55 47 255
0.15753201 -0.10644352 1.9750001 54 58 50 255
0.16319974 -0.10660086 1.978 55 59 51 255
0.16888329 -0.10675805 1.9810001 53 57 49 255
0.17431864 -0.10675344 1.9810001 53 57 49 255
0.17966257 -0.1066948 1.9800001 51 55 47 255
0.18509378 -0.10668992 1.9800001 51 56 45 255
0.19052428 -0.10668492 1.9800001 54 59 48 255
0.19605297 -0.10673366 1.9810001 54 59 48 255
0.20168811 -0.10683615 1.983 55 62 51 255
0.20733343 -0.10693851 1.9850001 52 59 48 255
0.21277454 -0.10693298 1.9850001 52 59 48 255
0.21832477 -0.1069812 1.9860001 52 57 46 255
0.22399233 -0.10708316 1.988 55 60 49 255
0.22990079 -0.10729271 1.9920001 55 59 51 255
0.23594852 -0.10755599 1.9970001 60 62 54 255
0.24141827 -0.10754984 1.9970001 55 57 49 255
0.24663991 -0.10743587 1.9950001 53 54 48 255
0.25222877 -0.10748333 1.9960001 54 55 49 255
0.25782219 -0.1075307 1.9970001 52 54 46 255
0.26328832 -0.1075241 1.9970001 53 54 48 255
0.2683498 -0.10735588 1.9940001 48 50 42 255
0.27366853 -0.10729525 1.9930001 46 48 40 255
0.27912083 -0.10728835 1.9930001 51 53 45 255
0.284715 -0.10733518 1.9940001 51 55 47 255
0.29045919 -0.10743573 1.9960001 46 50 42 255
0.29650977 -0.10764381 2 56 60 52 255
0.54694551 -0.10724872 2 68 72 65 255
0.7519505 -0.10685429 1.9980001 133 140 136 255
0.75319147 -0.10626079 1.9870001 141 148 145 255
0.75513703 -0.10577446 1.978 141 148 147 255
0.75626564 -0.1051814 1.9670001 144 151 150 255
0.75578678 -0.10437469 1.9520001 146 153 152 255
0.75639683 -0.10372861 1.9400001 148 155 154 255
0.75655031 -0.10302931 1.927 151 155 155 255
0.75782013 -0.10249064 1.9170001 151 155 155 255
0.75943476 -0.10200565 1.9080001 151 155 155 255
0.76380682 -0.10189512 1.9060001 152 156 156 255
0.76332754 -0.10114328 1.8920001 154 156 156 255
0.68941289 -0.089534804 1.6750001 33 34 28 255
0.67365891 -0.08691334 1.626 36 41 30 255
0.67306972 -0.08626987 1.6140001 36 40 32 255
0.6732561 -0.085733503 1.6040001 32 36 28 255
0.67676902 -0.085624933 1.6020001 29 34 23 255
0.68197292 -0.085730344 1.6040001 28 33 22 255
0.68333822 -0.085354917 1.5970001 29 31 21 255
0.68638927 -0.085193492 1.5940001 30 33 21 255
0.68812543 -0.084871911 1.5880001 30 33 21 255
0.68852246 -0.084390216 1.5790001 33 36 24 255
0.6923821 -0.084336281 1.5780001 30 33 21 255
0.70330191 -0.085137665 1.5930001 30 33 21 255
0.71075135 -0.085511692 1.6 27 30 16 255
0.71511215 -0.085511826 1.6 41 46 34 255
0.71722651 -0.085244946 1.595 27 32 20 255
0.71795827 -0.084817968 1.5870001 73 79 72 255
0.72046876 -0.084604971 1.5830001 146 153 150 255
0.72295946 -0.084392197 1.5790001 179 186 185 255
0.72773337 -0.084446885 1.58 180 186 188 255
0.7297349 -0.084181122 1.575 184 187 191 255
0.73171127 -0.083915569 1.5700001 187 190 194 255
0.73319393 -0.083596811 1.5640001 189 192 196 255
0.7337029 -0.083171368 1.5560001 187 190 196 255
0.73606747 -0.082959965 1.552 189 192 198 255
0.73650473 -0.082534976 1.544 189 192 198 255
0.73642063 -0.082056738 1.5350001 190 193 199 255
0.73532492 -0.081471808 1.524 187 190 194 255
0.73611242 -0.081100941 1.5170001 188 191 195 255
0.73784 -0.080837205 1.5120001 189 192 196 255
0.73856157 -0.080466792 1.5050001 193 196 202 255
1.250389 -0.097312026 1.7920001 213 214 220 255
1.2369909 -0.095888853 1.7650001 213 214 220 255
-0.96047193 -0.099010743 1.7590001 28 27 13 255
-0.96424389 -0.099899143 1.7750001 30 29 15 255
-1.0046817 -0.10461441 1.8590001 35 34 20 255
-0.99465424 -0.1040961 1.8500001 40 39 25 255
-0.96199542 -0.10171092 1.8080001 38 35 19 255
-0.96860862 -0.10293809 1.83 33 30 14 255
-0.97457767 -0.10410918 1.8510001 33 30 14 255
-0.97415 -0.10460558 1.8600001 32 30 12 255
-0.9642998 -0.10409005 1.8510001 33 29 12 255
-0.95968592 -0.10413732 1.8520001 35 27 10 255
-0.95610178 -0.10429742 1.8550001 32 24 7 255
-0.95353073 -0.10457031 1.8600001 49 39 22 255
-0.94991636 -0.1047311 1.863 37 23 4 255
-0.94375414 -0.1046112 1.8610001 50 35 15 255
-0.93962443 -0.10471651 1.863 57 37 19 255
-0.93197644 -0.10442874 1.858 93 62 41 255
-0.92934817 -0.10470338 1.863 137 108 87 255
-0.92322361 -0.10458496 1.8610001 137 109 86 255
-0.9195804 -0.10474787 1.8640001 129 101 76 255
-0.91298085 -0.10457397 1.8610001 119 91 66 255
-0.90688896 -0.1044566 1.8590001 107 80 52 255
-0.90323687 -0.10462052 1.8620001 113 86 58 255
-0.89860708 -0.10467239 1.863 113 86 58 255
-0.89445436 -0.10478076 1.8650001 114 87 59 255
-0.88934028 -0.10477708 1.8650001 111 85 57 255
-0.88375503 -0.10471755 1.8640001 116 90 62 255
-0.87959224 -0.10482685 1.8660001 109 85 57 255
-0.87495291 -0.10488028 1.8670001 105 81 53 255
-0.87031078 -0.10493401 1.868 104 80 52 255
-0.86381322 -0.10476335 1.8650001 99 77 49 255
-0.85733461 -0.10459298 1.8620001 93 71 43 255
-0.85316348 -0.10470377 1.8640001 90 68 40 255
-0.85080397 -0.10503953 1.8700001 87 65 37 255
-0.84750932 -0.10526321 1.8740001 78 59 29 255
-0.84419531 -0.10548717 1.8780001 74 57 27 255
-0.84041488 -0.10565522 1.881 68 53 24 255
-0.8357321 -0.10571121 1.8820001 62 47 18 255
-0.83192873 -0.10587981 1.8850001 65 49 23 255
-0.82504064 -0.10565546 1.881 68 50 24 255
-0.82079172 -0.1057684 1.8830001 74 54 28 255
-0.81566745 -0.10576925 1.8830001 81 59 33 255
-0.8118363 -0.10593886 1.886 85 63 37 255
-0.80670732 -0.1059402 1.886 89 67 41 255
-0.80115515 -0.10588561 1.8850001 91 71 47 255
-0.79434299 -0.10566273 1.881 78 61 41 255
-0.78671515 -0.10532773 1.8750001 220 206 187 255
-0.77953804 -0.1050491 1.8700001 204 199 179 255
-0.77363199 -0.10493921 1.868 192 190 170 255
-0.76814967 -0.10488573 1.8670001 184 186 166 255
-0.76308262 -0.10488863 1.8670001 171 173 153 255
-0.75720501 -0.10477937 1.8650001 116 118 100 255
-0.7513392 -0.1046703 1.863 184 188 170 255
-0.74508482 -0.10450525 1.8600001 209 212 198 255
-0.73765415 -0.10417181 1.8540001 203 206 194 255
-0.72986186 -0.10378236 1.8470001 201 206 195 255
-0.72210836 -0.10339306 1.84 201 206 195 255
-0.7140041 -0.10294772 1.8320001 205 210 199 255
-0.70555675 -0.1024463 1.8230001 202 207 196 255
-0.69831216 -0.10211363 1.817 202 207 196 255
-0.69033742 -0.10166869 1.8090001 199 204 193 255
-0.68430108 -0.10150489 1.8060001 190 195 184 255
-0.67752934 -0.10122883 1.8010001 211 216 205 255
-0.67153215 -0.1010653 1.7980001 200 207 196 255
-0.66443938 -0.10073327 1.7920001 215 222 211 255
-0.65701151 -0.10034513 1.7850001 182 189 178 255
-0.65035254 -0.10006953 1.7800001 198 205 193 255
-0.64335859 -0.099737838 1.774 185 188 174 255
-0.63747704 -0.099574886 1.771 164 167 153 255
-0.63089764 -0.099299602 1.766 208 212 195 255
-0.62470019 -0.099080659 1.7620001 198 200 182 255
-0.61852443 -0.098861799 1.7580001 198 200 182 255
-0.61341798 -0.098811753 1.7570001 192 196 178 255
-0.60866338 -0.098818056 1.7570001 189 193 175 255
-0.6039089 -0.098824471 1.7570001 186 191 170 255
-0.59949553 -0.098887257 1.7580001 181 186 164 255
-0.59507662 -0.09895014 1.7590001 175 178 154 255
-0.59098798 -0.099069394 1.761 144 146 120 255
-0.58622265 -0.099076249 1.761 130 130 104 255
-0.58178741 -0.099139467 1.7620001 152 152 126 255
-0.57669169 -0.099090241 1.761 154 154 128 255
-0.57225072 -0.099153653 1.7620001 153 153 125 255
-0.56748205 -0.09916088 1.7620001 163 163 135 255
-0.56271321 -0.099168174 1.7620001 162 164 136 255
-0.55794412 -0.099175572 1.7620001 153 153 123 255
-0.55348867 -0.099239334 1.7630001 169 169 139 255
-0.5493387 -0.09935946 1.7650001 157 157 127 255
-0.54486907 -0.099423379 1.766 157 157 127 255
-0.54069954 -0.099543691 1.7680001 155 157 129 255
-0.53591251 -0.099551469 1.7680001 156 158 130 255
-0.53112501 -0.099559292 1.7680001 156 160 134 255
-0.52693242 -0.099679813 1.7700001 153 157 131 255
-0.5221386 -0.099687763 1.7700001 147 151 125 255
-0.51792884 -0.099808417 1.7720001 148 151 127 255
-0.51312852 -0.099816486 1.7720001 148 151 127 255
-0.50890148 -0.099937275 1.774 147 151 125 255
-0.5043788 -0.10000177 1.7750001 147 149 123 255
-0.49985015 -0.10006633 1.7760001 148 150 122 255
-0.49559426 -0.10018728 1.7780001 146 149 118 255
-0.49215484 -0.10047733 1.7830001 145 148 117 255
-0.48814112 -0.10065476 1.7860001 139 143 115 255
-0.48356923 -0.1007195 1.7870001 139 143 115 255
-0.4781875 -0.10061519 1.7850001 136 140 112 255
-0.47308111 -0.10056725 1.784 143 145 117 255
-0.46824193 -0.1005757 1.784 142 144 116 255
-0.46392149 -0.10069693 1.7860001 143 147 119 255
-0.45933241 -0.1007618 1.7870001 147 151 123 255
-0.45448273 -0.10077029 1.7870001 155 158 136 255
-0.44887748 -0.10060963 1.784 159 164 143 255
-0.44353661 -0.10050532 1.7820001 161 166 144 255
-0.43845192 -0.10045741 1.7810001 164 169 147 255
-0.43312842 -0.10035308 1.779 167 174 152 255
-0.4278149 -0.10024872 1.7770001 167 174 152 255
-0.42203543 -0.10003152 1.7730001 163 170 149 255
-0.41698268 -0.099983513 1.7720001 166 173 152 255
-0.41216713 -0.099991925 1.7720001 172 179 158 255
-0.40712079 -0.099943884 1.771 172 178 160 255
-0.40162474 -0.099782959 1.7680001 173 179 161 255
-0.3963685 -0.099678397 1.766 162 168 150 255
-0.39090052 -0.099517368 1.7630001 163 169 151 255
-0.38544798 -0.099356279 1.7600001 158 164 146 255
-0.38044342 -0.099308051 1.7590001 161 167 149 255
-0.37522987 -0.099203318 1.7570001 176 180 162 255
-0.37002617 -0.099098533 1.7550001 171 177 159 255
-0.36524874 -0.09910664 1.7550001 147 154 133 255
-0.36067581 -0.099171184 1.756 129 136 115 255
-0.35569113 -0.099122733 1.7550001 186 193 171 255
-0.35051104 -0.099017747 1.7530001 189 197 172 255
-0.34534088 -0.098912694 1.751 130 137 108 255
-0.34134766 -0.099146537 1.7550001 128 135 104 255
-0.33752358 -0.099436872 1.7600001 116 119 87 255
-0.33348218 -0.099670686 1.7640001 95 98 66 255
-0.32885906 -0.099734969 1.7650001 95 98 67 255
-0.32386234 -0.099686168 1.7640001 92 94 66 255
-0.31887022 -0.099637307 1.7630001 59 60 36 255
-0.31334811 -0.099418812 1.7590001 31 31 11 255
-0.30767152 -0.099143699 1.7540001 32 32 14 255
-0.30202127 -0.098868482 1.7490001 29 27 9 255
-0.29673731 -0.098706201 1.7460001 31 29 11 255
-0.29213771 -0.098769993 1.7470001 32 30 12 255
-0.28736725 -0.098777167 1.7470001 34 31 15 255
-0.28275755 -0.098840803 1.748 29 26 10 255
-0.27798256 -0.098847829 1.748 18 17 3 255
-0.27367556 -0.099024452 1.751 33 34 22 255
-0.2690441 -0.099087887 1.7520001 63 65 55 255
-0.2641046 -0.099038124 1.751 111 113 105 255
-0.25872543 -0.098818585 1.7470001 89 93 86 255
-0.25394869 -0.098825186 1.7470001 78 81 77 255
-0.24917111 -0.098831713 1.7470001 117 122 119 255
-0.24397296 -0.098668419 1.7440001 116 120 120 255
-0.23837894 -0.098335266 1.738 108 113 110 255
-0.23322017 -0.098171733 1.7350001 100 105 102 255
-0.22834033 -0.098121241 1.7340001 91 96 92 255
-0.22359414 -0.098127246 1.7340001 86 89 85 255
-0.21897334 -0.098189741 1.7350001 86 90 83 255
-0.21409932 -0.098138951 1.7340001 77 81 74 255
-0.20922999 -0.098088048 1.733 71 75 68 255
-0.2042474 -0.09798044 1.7310001 77 81 73 255
-0.19950551 -0.097985923 1.7310001 69 73 66 255
-0.19487537 -0.098047905 1.7320001 64 68 61 255
-0.18990974 -0.097939961 1.7300001 115 119 112 255
-0.18516839 -0.097945116 1.7300001 97 100 96 255
-0.18032204 -0.097893529 1.7290001 76 79 76 255
-0.17588668 -0.098068327 1.7320001 71 74 70 255
-0.17113778 -0.098073147 1.7320001 89 92 88 255
-0.16629215 -0.098021224 1.7310001 99 102 98 255
-0.161358 -0.097912543 1.7290001 90 93 89 255
-0.15661538 -0.097917005 1.7290001 85 89 82 255
-0.15178427 -0.09786471 1.728 83 87 80 255
-0.14712827 -0.097925566 1.7290001 84 88 81 255
-0.14254855 -0.09804295 1.7310001 82 83 77 255
-0.13795727 -0.098160215 1.733 80 81 75 255
-0.13320072 -0.098164074 1.733 74 75 71 255
-0.12836954 -0.09811116 1.7320001 82 83 79 255
-0.12340056 -0.097944826 1.7290001 105 106 102 255
-0.11865344 -0.09794829 1.7290001 76 80 73 255
-0.11390583 -0.097951636 1.7290001 78 82 75 255
-0.1092209 -0.098011516 1.7300001 81 85 78 255
-0.10434885 -0.097901277 1.728 80 84 77 255
-0.099544987 -0.097847581 1.7270001 81 84 80 255
-0.094801113 -0.097850397 1.7270001 83 86 82 255
-0.090108968 -0.097909741 1.728 88 91 87 255
-0.08546038 -0.09802562 1.7300001 90 93 89 255
-0.080707118 -0.098028041 1.7300001 86 89 85 255
-0.075953528 -0.098030329 1.7300001 82 85 81 255
-0.071199618 -0.098032482 1.7300001 85 86 82 255
-0.06644541 -0.098034501 1.7300001 84 85 81 255
-0.061690908 -0.098036379 1.7300001 86 87 81 255
-0.056903236 -0.097981445 1.7290001 86 87 81 255
-0.052181147 -0.098039724 1.7300001 82 86 79 255
-0.047453336 -0.098097861 1.7310001 80 84 77 255
-0.042719826 -0.098155856 1.7320001 80 84 77 255
-0.038002554 -0.098270394 1.7340001 80 81 75 255
-0.033293284 -0.098441459 1.7370001 82 83 77 255
-0.02860022 -0.098725736 1.7420001 81 82 76 255
-0.023852203 -0.098896541 1.7450001 80 81 75 255
-0.019087587 -0.099067196 1.748 79 80 74 255
-0.014298224 -0.099181049 1.7500001 80 84 77 255
-0.0095140645 -0.099464767 1.7550001 83 87 80 255
