ply
format ascii 1.0
comment PCL generated
element vertex 1007
property float x
property float y
property float z
property uchar red
property uchar green
property uchar blue
property uchar alpha
element camera 0
property float view_px
property float view_py
property float view_pz
property float x_axisx
property float x_axisy
property float x_axisz
property float y_axisx
property float y_axisy
property float y_axisz
property float z_axisx
property float z_axisy
property float z_axisz
property float focal
property float scalex
property float scaley
property float centerx
property float centery
property int viewportx
property int viewporty
property float k1
property float k2
end_header
0.6600675 0.16093908 1.7170001 23 28 17 255
0.66394776 0.16074538 1.715 25 27 17 255
0.665479 0.15998964 1.7070001 23 28 17 255
0.67010814 0.15998399 1.7070001 23 28 17 255
0.675924 0.16025978 1.71 25 27 17 255
0.68056303 0.16025472 1.71 23 25 15 255
0.68440169 0.16006249 1.7080001 23 25 15 255
0.68500322 0.15912093 1.6980001 28 30 20 255
0.68961275 0.15911677 1.6980001 25 28 16 255
0.6921792 0.15864444 1.6930001 25 28 16 255
0.69883531 0.15910944 1.6980001 22 27 15 255
0.70179141 0.15873148 1.6940001 24 29 17 255
0.70764589 0.15900972 1.697 31 36 25 255
0.71519697 0.15966311 1.7040001 33 38 27 255
0.72109783 0.15994205 1.7070001 32 37 26 255
0.72914207 0.16068977 1.715 35 42 31 255
0.73124135 0.16012613 1.7090001 24 32 25 255
0.73589301 0.16012505 1.7090001 69 76 72 255
0.73837972 0.15965584 1.7040001 121 129 128 255
0.74214911 0.1594681 1.702 162 171 176 255
0.74547052 0.15918705 1.6990001 164 170 176 255
0.74833602 0.15881269 1.6950001 167 173 180 255
0.75029314 0.15825135 1.6890001 169 175 182 255
0.75087863 0.1574093 1.6800001 171 177 184 255
0.75096732 0.15647393 1.6700001 173 179 186 255
0.75145578 0.15563266 1.6610001 174 180 187 255
0.75235248 0.1548855 1.6530001 175 180 187 255
0.75274968 0.15404499 1.6440001 176 181 188 255
0.75310004 0.1532049 1.6350001 178 184 191 255
0.75201327 0.15208407 1.623 178 184 191 255
0.75272763 0.15133846 1.6150001 181 187 194 255
0.7543382 0.15078065 1.6090001 180 186 193 255
0.75497526 0.15003581 1.6010001 181 186 193 255
0.75509655 0.14919768 1.5920001 183 188 195 255
0.75421715 0.14817247 1.5810001 184 189 196 255
0.75375962 0.14724135 1.5710001 185 190 197 255
0.75228488 0.14612316 1.559 186 191 198 255
0.75365871 0.14556773 1.5530001 187 192 199 255
0.75402629 0.14482524 1.5450001 189 194 201 255
0.75631601 0.1444581 1.5410001 189 193 203 255
0.75611871 0.14362264 1.5320001 189 193 203 255
0.75587499 0.14278758 1.5230001 191 195 205 255
0.75408727 0.1416716 1.511 191 195 205 255
0.75374222 0.14083728 1.5020001 190 195 206 255
-0.71081907 0.16598564 1.8240001 197 201 194 255
-0.70161694 0.16499083 1.8130001 194 198 191 255
-0.69439662 0.16445124 1.807 181 186 175 255
-0.68873596 0.16427597 1.8050001 184 189 178 255
-0.68270791 0.16400991 1.802 180 185 173 255
-0.6766969 0.16374411 1.7990001 181 186 174 255
-0.6707027 0.16347852 1.7960001 169 174 163 255
-0.66509604 0.16330419 1.794 181 188 177 255
-0.65986872 0.16322112 1.7930001 173 179 171 255
-0.65537792 0.16332033 1.794 187 193 185 255
-0.65051961 0.16332875 1.794 159 165 157 255
-0.64458197 0.16306427 1.7910001 178 185 174 255
-0.63973248 0.16307315 1.7910001 184 191 179 255
-0.63452876 0.16299115 1.7900001 189 194 182 255
-0.62933069 0.16290936 1.789 181 186 172 255
-0.62344033 0.16264564 1.7860001 143 148 136 255
-0.61825883 0.16256419 1.7850001 145 152 141 255
-0.61342669 0.16257404 1.7850001 179 185 177 255
-0.60825372 0.16249296 1.784 169 177 170 255
-0.60240966 0.16222988 1.7810001 163 170 166 255
-0.59658194 0.16196695 1.7780001 149 156 152 255
-0.59243453 0.16215964 1.7800001 160 168 161 255
-0.58761615 0.16217034 1.7800001 164 172 165 255
-0.58345234 0.16236338 1.7820001 161 169 162 255
-0.57797885 0.16219212 1.7800001 165 173 165 255
-0.57283807 0.16211212 1.779 157 165 157 255
-0.56802177 0.16212338 1.779 167 176 165 255
-0.5632053 0.16213478 1.779 161 170 158 255
-0.55807483 0.16205518 1.7780001 158 166 151 255
-0.55326051 0.1620668 1.7780001 160 169 150 255
-0.54875433 0.16216972 1.779 162 168 150 255
-0.54363102 0.16209044 1.7780001 138 144 126 255
-0.53851277 0.16201127 1.7770001 153 162 143 255
-0.53339958 0.16193217 1.7760001 148 156 141 255
-0.52888662 0.16203554 1.7770001 149 156 144 255
-0.52407289 0.16204782 1.7770001 143 152 140 255
-0.51925868 0.16206017 1.7770001 144 151 139 255
-0.51415455 0.16198143 1.7760001 160 167 155 255
-0.50991571 0.16217639 1.7780001 141 149 134 255
-0.50481331 0.16209777 1.7770001 149 157 142 255
-0.50055981 0.1622929 1.779 147 155 140 255
-0.49685234 0.1626706 1.7830001 134 141 129 255
-0.49312249 0.1630484 1.7870001 148 155 143 255
-0.48937038 0.16342632 1.7910001 150 157 145 255
-0.48505494 0.16362184 1.7930001 142 150 135 255
-0.48153144 0.16409123 1.7980001 150 155 141 255
-0.47824523 0.164652 1.8040001 147 152 138 255
-0.47492573 0.16521287 1.8100001 147 152 138 255
-0.47105366 0.16559131 1.8140001 155 160 146 255
-0.4674162 0.16606113 1.8190001 150 156 139 255
-0.46451351 0.16680494 1.8270001 158 164 147 255
-0.4613151 0.16745758 1.8340001 153 159 141 255
-0.45807797 0.16811036 1.8410001 153 159 142 255
-0.45455587 0.16867189 1.8470001 152 158 141 255
-0.45051363 0.16905087 1.8510001 148 154 137 255
-0.44644883 0.16942988 1.8550001 115 119 101 255
-0.44283742 0.16999167 1.8610001 99 103 85 255
-0.43942767 0.17064486 1.868 100 107 86 255
-0.43574661 0.1712068 1.8740001 104 111 89 255
-0.43157244 0.1715861 1.8780001 114 122 97 255
-0.42714849 0.171874 1.881 107 115 90 255
-0.42158553 0.17170504 1.8790001 104 110 84 255
-0.41691911 0.17190158 1.881 107 113 87 255
-0.41224095 0.1720981 1.8830001 111 117 91 255
-0.40776715 0.17238601 1.886 114 120 94 255
-0.40306261 0.17258251 1.8880001 115 121 95 255
-0.39792469 0.17259614 1.8880001 112 118 92 255
-0.3925778 0.1725183 1.8870001 120 126 108 255
-0.38744074 0.17253181 1.8870001 128 135 114 255
-0.3823027 0.17254525 1.8870001 154 161 140 255
-0.37716374 0.17255864 1.8870001 107 114 93 255
-0.37202379 0.17257194 1.8870001 108 115 93 255
-0.36668846 0.1724937 1.886 107 114 92 255
-0.36154935 0.17250685 1.886 115 120 98 255
-0.35622028 0.17242844 1.8850001 127 132 111 255
-0.35126811 0.17253284 1.886 114 119 98 255
-0.34630963 0.17263721 1.8870001 104 111 90 255
-0.34152547 0.17283298 1.8890001 107 114 93 255
-0.3367295 0.17302866 1.891 108 115 93 255
-0.33174625 0.17313278 1.8920001 117 124 102 255
-0.32675663 0.17323679 1.8930001 107 114 92 255
-0.32142079 0.17315765 1.8920001 112 120 95 255
-0.31625661 0.17316991 1.8920001 110 118 93 255
-0.31092709 0.17309052 1.891 105 112 90 255
-0.30624881 0.17337714 1.8940001 127 134 112 255
-0.30139425 0.17357215 1.8960001 109 116 94 255
-0.29668409 0.17385858 1.899 106 111 89 255
-0.29164958 0.1739618 1.9000001 107 112 91 255
-0.28660867 0.1740649 1.9010001 104 111 90 255
-0.2817094 0.17425942 1.9030001 103 110 89 255
-0.27665302 0.17436227 1.904 111 116 95 255
-0.27159026 0.17446497 1.9050001 101 106 85 255
-0.2662414 0.17438433 1.904 99 106 85 255
-0.26130846 0.17457832 1.9060001 95 102 80 255
-0.25609499 0.17458898 1.9060001 91 97 79 255
-0.25101224 0.17469107 1.9070001 88 94 76 255
-0.24605209 0.17488463 1.909 88 97 78 255
-0.24108009 0.17507803 1.9110001 75 84 63 255
-0.2359729 0.17517965 1.9120001 73 82 61 255
-0.23085941 0.17528112 1.9130001 66 73 52 255
-0.22573961 0.17538242 1.914 59 66 44 255
-0.22061357 0.17548355 1.9150001 65 70 49 255
-0.21559365 0.17567614 1.9170001 112 117 96 255
-0.21045233 0.17577691 1.9180001 126 131 110 255
-0.20530474 0.17587753 1.9190001 118 123 101 255
-0.20004666 0.17588627 1.9190001 117 122 101 255
-0.19488934 0.17598648 1.9200001 124 129 108 255
-0.18952832 0.1759032 1.9190001 125 131 113 255
-0.18455613 0.17618637 1.9220001 120 126 108 255
-0.17938024 0.176286 1.9230001 114 120 102 255
-0.17437926 0.17656879 1.9260001 106 112 94 255
-0.16927338 0.17675975 1.9280001 116 122 104 255
-0.16424091 0.17704217 1.9310001 115 121 103 255
-0.15910906 0.17723271 1.9330001 119 125 107 255
-0.15396561 0.17742305 1.9350001 119 128 109 255
-0.1488106 0.1776132 1.937 110 118 101 255
-0.14356993 0.17771144 1.9380001 127 135 118 255
-0.13832323 0.17780946 1.9390001 118 126 109 255
-0.13313907 0.17799897 1.9410001 120 128 111 255
-0.12794343 0.17818826 1.9430001 128 137 118 255
-0.12248386 0.17801052 1.9410001 119 128 109 255
-0.11727624 0.17819937 1.9430001 119 128 109 255
-0.11194192 0.17820457 1.9430001 120 129 110 255
-0.10666203 0.17830126 1.9440001 122 130 113 255
-0.1013762 0.17839772 1.9450001 130 136 119 255
0.27319658 0.16279103 1.7780001 76 81 87 255
0.27664647 0.1619561 1.7690001 92 97 103 255
0.28116021 0.16176203 1.7670001 98 103 109 255
0.2859858 0.16175091 1.7670001 89 95 98 255
0.29196253 0.16238041 1.774 91 97 100 255
0.29663813 0.1622775 1.7730001 76 82 84 255
0.3009674 0.16199145 1.7700001 82 86 88 255
0.30510652 0.16161379 1.766 88 92 94 255
0.30957398 0.16141912 1.7640001 95 98 102 255
0.31438598 0.16140735 1.7640001 81 87 90 255
0.31883529 0.16121252 1.7620001 84 87 91 255
0.32308906 0.16092612 1.7590001 75 81 83 255
0.32713917 0.1605482 1.7550001 90 97 96 255
0.33230135 0.16071907 1.7570001 92 96 96 255
0.33785722 0.16107276 1.761 84 88 88 255
0.34265575 0.1610605 1.761 77 79 81 255
0.3460722 0.16040798 1.7540001 88 90 92 255
0.3506498 0.16030417 1.7530001 92 93 97 255
0.35542378 0.16029173 1.7530001 88 92 94 255
0.36040238 0.16037068 1.7540001 85 89 91 255
0.36496916 0.1602667 1.7530001 82 88 90 255
0.36952958 0.16016266 1.7520001 87 93 96 255
0.37387004 0.15996718 1.7500001 90 94 96 255
0.37798238 0.15968028 1.7470001 90 93 97 255
0.38295382 0.15975896 1.748 83 87 89 255
0.3877081 0.15974618 1.748 83 87 89 255
0.39291057 0.15991618 1.7500001 85 89 91 255
0.39698684 0.15962921 1.7470001 84 88 90 255
0.40104604 0.15934227 1.7440001 82 86 88 255
0.4053207 0.1591467 1.7420001 80 84 84 255
0.41028985 0.1592252 1.743 83 87 89 255
0.4150255 0.15921231 1.743 79 83 85 255
0.41976044 0.15919943 1.743 79 83 83 255
0.42449453 0.15918654 1.743 80 84 84 255
0.4297204 0.1593563 1.7450001 80 84 84 255
0.43396041 0.15916076 1.743 78 83 80 255
0.4386923 0.15914789 1.743 76 81 78 255
0.44316891 0.15904371 1.7420001 77 82 79 255
0.44841078 0.15921347 1.7440001 76 81 78 255
0.45314318 0.15920062 1.7440001 73 78 75 255
0.45839992 0.15937036 1.7460001 74 79 76 255
0.4636668 0.1595401 1.748 71 76 73 255
0.46894398 0.15970987 1.7500001 72 77 73 255
0.47368988 0.15969713 1.7500001 70 75 72 255
0.478982 0.1598669 1.7520001 70 75 72 255
0.48428431 0.16003671 1.7540001 69 74 70 255
0.48987573 0.1602978 1.7570001 70 73 69 255
0.49435672 0.16019398 1.756 70 73 69 255
0.49940023 0.16027269 1.7570001 70 73 69 255
0.50416166 0.1602602 1.7570001 72 75 71 255
0.50892258 0.16024783 1.7570001 72 75 72 255
0.5130983 0.16005312 1.7550001 69 71 71 255
0.51696759 0.15976734 1.7520001 70 74 74 255
0.5208202 0.15948167 1.7490001 77 81 83 255
0.52495664 0.15928733 1.7470001 83 89 91 255
0.52908182 0.15909313 1.7450001 84 90 92 255
0.53411353 0.15917252 1.7460001 88 94 97 255
0.53976762 0.15943432 1.7490001 85 89 91 255
0.54668283 0.16006082 1.756 84 88 90 255
0.55363584 0.16068734 1.7630001 85 89 89 255
0.55904263 0.1608582 1.7650001 56 61 58 255
0.56286287 0.16057351 1.7620001 49 54 51 255
0.5663445 0.16019787 1.7580001 39 46 43 255
0.570454 0.16000465 1.756 71 75 75 255
0.57455254 0.1598116 1.7540001 85 89 89 255
0.57797968 0.15943652 1.7500001 88 92 92 255
0.58371586 0.15969934 1.7530001 87 89 91 255
0.58913255 0.15987119 1.7550001 82 85 82 255
0.59388334 0.159861 1.7550001 33 36 33 255
0.5969286 0.15939558 1.7500001 31 34 31 255
0.60132211 0.15929468 1.7490001 92 95 92 255
0.60605681 0.15928505 1.7490001 82 87 84 255
0.6104424 0.15918455 1.748 48 53 50 255
0.61411905 0.15890214 1.7450001 72 76 76 255
0.61884338 0.15889311 1.7450001 87 91 91 255
0.62321067 0.15879323 1.7440001 71 78 77 255
0.6264928 0.15842044 1.7400001 86 90 90 255
0.62975341 0.15804788 1.7360001 86 90 90 255
0.63335836 0.15776664 1.733 89 91 93 255
0.63694745 0.15748563 1.7300001 90 92 92 255
0.64089161 0.15729593 1.728 99 100 96 255
0.64519894 0.15719748 1.7270001 18 19 15 255
0.64912522 0.15700826 1.725 24 25 19 255
0.65114617 0.15636425 1.7180001 26 28 20 255
0.65503836 0.15617557 1.7160001 24 28 20 255
0.65892047 0.15598717 1.7140001 22 26 18 255
0.66356671 0.15598105 1.7140001 21 26 15 255
0.66704416 0.1557022 1.7110001 19 24 13 255
0.67050618 0.15542364 1.7080001 20 25 14 255
0.67553395 0.15550937 1.7090001 23 26 14 255
0.68017 0.15550436 1.7090001 25 28 16 255
0.68480706 0.15549964 1.7090001 24 27 15 255
0.68621767 0.15476733 1.7010001 25 28 16 255
0.69002289 0.15458128 1.6990001 24 27 13 255
0.69259179 0.15412258 1.6940001 24 27 15 255
0.69595778 0.15384617 1.6910001 23 28 16 255
0.69723731 0.1531152 1.6830001 24 29 17 255
0.70222759 0.15320335 1.6840001 22 27 16 255
0.7101627 0.15392865 1.692 24 29 18 255
0.71687549 0.15438135 1.697 31 33 23 255
0.72574258 0.15528923 1.7070001 28 33 22 255
0.72995895 0.15519676 1.7060001 33 39 31 255
0.73589391 0.15546852 1.7090001 32 39 35 255
0.73924696 0.15519483 1.7060001 117 124 123 255
0.7438935 0.15519442 1.7060001 158 167 172 255
0.74547035 0.15455757 1.6990001 162 168 175 255
0.7474525 0.1540121 1.6930001 166 171 181 255
0.74762684 0.1531031 1.6830001 170 175 185 255
0.74953628 0.15255836 1.677 171 177 184 255
0.75051582 0.15183207 1.669 173 178 185 255
0.75190604 0.15119712 1.6620001 175 180 187 255
0.75189477 0.15028967 1.6520001 175 180 187 255
0.75274682 0.1495645 1.6440001 176 182 189 255
0.75309664 0.14874877 1.6350001 178 184 191 255
0.7529363 0.14784244 1.6250001 179 185 192 255
0.75318956 0.14702745 1.6160001 180 185 192 255
0.75480241 0.14648578 1.6100001 182 187 194 255
0.75544178 0.14576255 1.6020001 183 188 195 255
0.75603986 0.14503969 1.5940001 182 187 194 255
0.7551654 0.14404424 1.5830001 184 189 196 255
0.75567263 0.14332214 1.575 185 190 197 255
0.75420851 0.14223641 1.5630001 188 193 200 255
0.75559282 0.14169706 1.557 187 192 199 255
0.75548297 0.1408851 1.5480001 188 193 200 255
0.75728959 0.14043756 1.5430001 187 192 199 255
0.75709748 0.13962635 1.534 188 192 202 255
0.75785136 0.13899757 1.5270001 191 195 205 255
0.75607449 0.13791402 1.5150001 189 194 204 255
0.75674355 0.13728598 1.508 190 195 205 255
-0.7226932 0.16144519 1.8290001 189 192 189 255
-0.71341628 0.16047975 1.8180001 200 204 197 255
-0.70536923 0.15977938 1.8100001 187 191 184 255
-0.6996882 0.15960892 1.8080001 180 184 176 255
-0.69286603 0.15917383 1.8030001 182 187 176 255
-0.68759805 0.15909214 1.802 182 187 176 255
-0.6815784 0.15883411 1.7990001 179 184 173 255
-0.67595184 0.1586646 1.7970001 182 187 176 255
-0.66921639 0.15823045 1.7920001 185 189 181 255
-0.66325015 0.1579731 1.789 182 188 180 255
-0.65803665 0.15789257 1.7880001 179 185 177 255
-0.65429026 0.15816548 1.7910001 177 183 176 255
-0.64944029 0.15817371 1.7910001 182 188 180 255
-0.64315099 0.15782887 1.7870001 187 194 182 255
-0.63724095 0.15757254 1.784 180 187 175 255
-0.63241088 0.15758136 1.784 186 191 177 255
-0.62758112 0.1575904 1.784 161 167 150 255
-0.62205338 0.15742294 1.7820001 134 139 125 255
-0.61653662 0.15725566 1.7800001 176 183 171 255
-0.61103088 0.15708853 1.7780001 177 184 173 255
-0.60587704 0.15700991 1.7770001 181 189 182 255
-0.60072857 0.15693147 1.7760001 142 150 143 255
-0.59558564 0.15685317 1.7750001 161 169 162 255
-0.59111375 0.1569518 1.7760001 145 153 145 255
-0.5866363 0.15705054 1.7770001 171 180 169 255
-0.58182603 0.1570611 1.7770001 165 172 161 255
-0.57636625 0.15689503 1.7750001 154 161 149 255
-0.57123905 0.15681744 1.774 163 170 158 255
-0.56643647 0.15682839 1.774 149 157 140 255
-0.56163365 0.15683949 1.774 148 156 139 255
-0.55651677 0.15676229 1.7730001 146 154 137 255
-0.55140495 0.15668517 1.7720001 159 165 148 255
-0.54722369 0.15687346 1.774 159 165 147 255
-0.54272562 0.15697348 1.7750001 142 148 131 255
-0.53731245 0.15680827 1.7730001 154 162 145 255
-0.53221017 0.15673156 1.7720001 148 156 141 255
-0.52800578 0.15692033 1.774 149 158 146 255
-0.52320027 0.15693226 1.774 147 156 144 255
-0.51839435 0.1569443 1.774 151 159 144 255
-0.51271939 0.156691 1.771 155 163 148 255
-0.50849414 0.15688016 1.7730001 144 150 132 255
-0.50312126 0.15671542 1.771 152 158 141 255
-0.49916548 0.15699323 1.774 153 161 144 255
-0.49491426 0.15718263 1.7760001 146 154 139 255
-0.4903757 0.15728362 1.7770001 150 155 141 255
-0.48555773 0.15729614 1.7770001 150 155 141 255
-0.48046875 0.1572202 1.7760001 147 152 138 255
-0.47645572 0.15749839 1.779 145 150 136 255
-0.47189564 0.15759961 1.7800001 145 150 136 255
-0.46759173 0.15778941 1.7820001 148 156 141 255
-0.46275696 0.15780215 1.7820001 152 157 143 255
-0.45894933 0.15816918 1.7860001 141 149 132 255
-0.45537356 0.15862486 1.7910001 137 143 126 255
-0.45176989 0.15908061 1.7960001 153 159 142 255
-0.44813827 0.15953645 1.8010001 138 144 127 255
-0.444971 0.16016954 1.8080001 150 156 139 255
-0.44176483 0.16080272 1.8150001 149 155 137 255
-0.43876061 0.16152464 1.8230001 142 148 130 255
-0.43666387 0.1626011 1.835 128 134 116 255
-0.43426588 0.16358909 1.8460001 126 133 112 255
-0.43180725 0.16457725 1.8570001 120 127 105 255
-0.42928791 0.16556551 1.868 114 122 97 255
-0.42557248 0.16611072 1.8740001 104 110 84 255
-0.42115042 0.16639006 1.8770001 107 114 85 255
-0.41648936 0.16658074 1.8790001 110 117 88 255
-0.41203555 0.16686007 1.8820001 113 120 91 255
-0.40756443 0.16713943 1.8850001 117 124 93 255
-0.40264907 0.16724141 1.886 116 123 94 255
-0.39751655 0.16725466 1.886 112 119 90 255
-0.39196703 0.16709051 1.8840001 109 116 85 255
-0.38704339 0.16719234 1.8850001 117 124 95 255
-0.38191074 0.16720542 1.8850001 111 117 91 255
-0.376977 0.16730712 1.886 109 115 89 255
-0.3718397 0.16732009 1.886 108 114 88 255
-0.36670145 0.16733295 1.886 107 113 88 255
-0.36156225 0.16734575 1.886 107 113 88 255
-0.35642207 0.16735846 1.886 115 121 96 255
-0.35146716 0.16745982 1.8870001 114 120 95 255
-0.34650582 0.1675611 1.8880001 106 112 87 255
-0.34153807 0.16766231 1.8890001 107 113 87 255
-0.33674198 0.16785218 1.891 111 117 91 255
-0.33158326 0.16786444 1.891 122 128 102 255
-0.32642367 0.1678766 1.891 114 121 92 255
-0.32143295 0.16797742 1.8920001 112 119 90 255
-0.31610149 0.16790056 1.891 112 118 92 255
-0.31110343 0.16800117 1.8920001 108 116 91 255
-0.30609894 0.1681017 1.8930001 110 118 93 255
-0.30108801 0.16820206 1.8940001 114 121 99 255
-0.29638317 0.16847996 1.8970001 98 105 84 255
-0.291354 0.16858011 1.8980001 98 104 86 255
-0.28631842 0.16868016 1.899 104 110 92 255
-0.28157255 0.16895773 1.9020001 100 107 86 255
-0.27666402 0.16914634 1.904 103 108 86 255
-0.27174371 0.16933486 1.9060001 99 104 82 255
-0.2665318 0.16934554 1.9060001 97 102 81 255
-0.26131907 0.16935608 1.9060001 92 97 75 255
-0.25610542 0.16936645 1.9060001 92 99 78 255
-0.25102255 0.16946551 1.9070001 90 97 76 255
-0.24606217 0.1696533 1.909 85 92 71 255
-0.24109006 0.16984096 1.9110001 87 94 72 255
-0.23610613 0.17002845 1.9130001 84 91 69 255
-0.23098972 0.17012693 1.914 80 87 65 255
-0.22586702 0.17022523 1.9150001 80 87 65 255
-0.22062282 0.17023446 1.9150001 78 85 64 255
-0.21537782 0.17024352 1.9150001 59 64 43 255
-0.21013206 0.1702524 1.9150001 54 58 40 255
-0.20499249 0.17035 1.9160001 102 106 88 255
-0.1996382 0.17026959 1.9150001 117 123 106 255
-0.19408561 0.17001115 1.9120001 119 126 104 255
-0.18844999 0.16966358 1.9080001 120 125 114 255
-0.18302767 0.16949363 1.9060001 115 121 114 255
-0.17761558 0.16932346 1.904 110 116 108 255
-0.17239487 0.16933092 1.904 101 108 97 255
-0.16752473 0.16969399 1.9080001 113 120 109 255
-0.16271704 0.17014579 1.9130001 107 115 100 255
-0.1578813 0.17059745 1.9180001 119 127 112 255
-0.15301752 0.17104891 1.9230001 109 116 104 255
-0.14812569 0.17150019 1.9280001 108 115 103 255
-0.1430577 0.1717734 1.9310001 123 131 116 255
-0.13804398 0.17213535 1.9350001 116 122 105 255
-0.13287061 0.17231922 1.937 107 113 95 255
-0.12775156 0.17259184 1.9400001 117 123 105 255
-0.12242622 0.17259733 1.9400001 104 111 90 255
-0.11728147 0.1728695 1.9430001 108 115 93 255
-0.11194693 0.17287455 1.9430001 119 126 105 255
-0.10672168 0.17305736 1.9450001 117 122 101 255
-0.10127652 0.17288402 1.9430001 126 131 109 255
-0.096088819 0.17315534 1.9460001 118 123 102 255
-0.090744346 0.17315949 1.9460001 119 123 105 255
-0.085531168 0.17343035 1.9490001 128 128 110 255
-0.080218881 0.17352304 1.95 141 138 124 255
-0.075169504 0.17423841 1.9580001 32 22 13 255
0.25319764 0.15760702 1.774 90 96 99 255
0.25819317 0.15768577 1.7750001 93 99 101 255
0.26348963 0.15794203 1.7780001 73 79 81 255
0.26819795 0.15784281 1.7770001 83 89 92 255
0.27243897 0.15747705 1.7730001 83 89 92 255
0.2760317 0.15675592 1.7650001 82 87 93 255
0.28069371 0.15665644 1.7640001 109 114 120 255
0.28551123 0.15664564 1.7640001 82 87 93 255
0.29115078 0.15707871 1.7690001 94 97 101 255
0.29564556 0.15689008 1.7670001 83 87 89 255
0.29978845 0.15652379 1.7630001 70 74 76 255
0.30373579 0.15606868 1.7580001 85 89 89 255
0.30818149 0.15587984 1.756 99 103 103 255
0.3129718 0.15586843 1.756 78 84 86 255
0.31776127 0.15585694 1.756 86 92 94 255
0.32199878 0.15557911 1.7530001 79 86 85 255
0.32603258 0.15521249 1.7490001 83 87 87 255
0.33136764 0.155467 1.7520001 94 98 98 255
0.33671814 0.15572138 1.7550001 82 86 86 255
0.34150037 0.15570948 1.7550001 75 77 79 255
0.34509778 0.1551652 1.7490001 86 90 92 255
0.3496618 0.15506446 1.748 88 92 94 255
0.35401675 0.154875 1.7460001 89 93 95 255
0.35897639 0.15495157 1.7470001 86 90 92 255
0.36331591 0.15476201 1.7450001 83 89 91 255
0.36806557 0.1547498 1.7450001 86 89 93 255
0.37260062 0.15464883 1.7440001 86 89 93 255
0.37712938 0.15454784 1.743 83 86 90 255
0.38187096 0.1545355 1.743 79 83 85 255
0.38661167 0.1545231 1.743 82 86 88 255
0.39135149 0.15451068 1.743 81 85 87 255
0.39609051 0.15449823 1.743 80 84 86 255
0.40036881 0.15430848 1.7410001 76 82 84 255
0.40463528 0.15411873 1.7390001 80 84 86 255
0.40912557 0.15401763 1.738 83 87 89 255
0.41408575 0.15409373 1.7390001 77 82 79 255
0.41905066 0.15416983 1.7400001 79 84 81 255
0.42377666 0.1541573 1.7400001 78 83 80 255
0.42874807 0.15423335 1.7410001 78 83 79 255
0.43322623 0.15413223 1.7400001 77 82 78 255
0.43820161 0.15420827 1.7410001 74 79 75 255
0.44318163 0.15428433 1.7420001 77 82 79 255
0.4484235 0.15444893 1.7440001 76 81 77 255
0.45341569 0.154525 1.7450001 73 78 74 255
0.45867512 0.15468958 1.7470001 72 77 73 255
0.46394473 0.15485418 1.7490001 71 76 72 255
0.46922451 0.15501879 1.751 74 78 71 255
0.47424382 0.15509489 1.7520001 70 74 67 255
0.47954133 0.15525952 1.7540001 70 73 69 255
0.48484901 0.15542418 1.756 72 75 71 255
0.48988819 0.15550037 1.7570001 73 76 72 255
0.49465063 0.15548807 1.7570001 72 75 71 255
0.49941254 0.15547588 1.7570001 70 73 70 255
0.50331306 0.15519829 1.7540001 73 76 73 255
0.50719678 0.1549208 1.751 72 75 72 255
0.51164854 0.15482038 1.7500001 71 75 75 255
0.51550424 0.15454315 1.7470001 77 81 81 255
0.51964086 0.15435445 1.7450001 80 86 88 255
0.5231654 0.15398899 1.7410001 87 93 95 255
0.52727419 0.15380056 1.7390001 86 92 94 255
0.53167778 0.15370069 1.738 81 85 87 255
0.53669292 0.15377781 1.7390001 75 79 81 255
0.542647 0.1541203 1.743 82 86 88 255
0.54987872 0.15481649 1.751 81 85 87 255
0.55683666 0.1554243 1.7580001 86 90 90 255
0.56127667 0.15532492 1.7570001 58 62 62 255
0.56442249 0.15487209 1.7520001 45 52 49 255
0.56754094 0.15441945 1.7470001 49 54 51 255
0.57095987 0.1540554 1.743 84 89 86 255
0.57501757 0.15386832 1.7410001 86 90 90 255
0.5810622 0.15421163 1.7450001 87 89 89 255
0.58779985 0.15473177 1.751 86 89 86 255
0.59253961 0.15472186 1.751 41 44 41 255
0.59591508 0.15435867 1.7470001 33 36 32 255
0.59926885 0.15399569 1.743 61 64 61 255
0.60329401 0.15380964 1.7410001 90 93 90 255
0.60835636 0.15388882 1.7420001 80 83 80 255
0.61236835 0.15370314 1.7400001 53 56 53 255
0.61743361 0.15378267 1.7410001 85 90 87 255
0.62107515 0.15350908 1.738 76 81 77 255
0.62506086 0.15332405 1.7360001 71 76 72 255
0.62867332 0.15305093 1.733 85 90 86 255
0.63263535 0.15286635 1.7310001 83 87 87 255
0.6365869 0.15268202 1.7290001 87 90 87 255
0.64015728 0.15240963 1.7260001 89 90 86 255
0.64445901 0.15231407 1.725 33 34 30 255
0.64837962 0.15213047 1.723 25 26 20 255
0.65153193 0.15177053 1.7190001 24 26 18 255
0.65428138 0.15132257 1.7140001 21 26 15 255
0.65777338 0.15105149 1.7110001 20 25 14 255
0.66241121 0.15104549 1.7110001 22 27 16 255
0.66627014 0.15086322 1.7090001 23 28 17 255
0.67051154 0.15076946 1.7080001 23 26 14 255
0.67435318 0.15058774 1.7060001 23 26 14 255
0.67977679 0.15075937 1.7080001 24 27 15 255
0.68360943 0.15057819 1.7060001 24 27 13 255
0.68581855 0.15004428 1.7 23 26 12 255
0.68921447 0.14977543 1.697 23 26 12 255
0.69177759 0.14933042 1.692 29 32 18 255
0.69596106 0.14923874 1.6910001 24 29 17 255
0.6976546 0.14861785 1.6840001 23 28 16 255
0.70097923 0.14835028 1.6810001 23 28 17 255
0.70764673 0.14878903 1.6860001 25 30 19 255
0.71603251 0.14958109 1.6950001 27 29 19 255
0.72361845 0.15019698 1.702 23 28 17 255
0.72867674 0.15028371 1.7030001 27 31 23 255
0.73374194 0.15037076 1.7040001 14 22 15 255
0.73794764 0.15028168 1.7030001 110 117 113 255
0.7425856 0.15028121 1.7030001 160 167 170 255
0.74459267 0.1497516 1.697 164 170 176 255
0.74612749 0.14913414 1.6900001 166 171 178 255
0.74718165 0.1484288 1.682 168 172 182 255
0.74864125 0.14781207 1.6750001 172 177 184 255
0.75006461 0.14719571 1.6680001 172 177 184 255
0.75009447 0.14631496 1.6580001 176 181 188 255
0.75098217 0.14561111 1.6500001 175 181 188 255
0.75137037 0.14481933 1.641 177 183 190 255
0.75263286 0.14420445 1.6340001 177 183 190 255
0.75200599 0.14323694 1.623 177 183 190 255
0.75411773 0.1427993 1.618 180 185 191 255
0.7552669 0.14218555 1.6110001 181 186 193 255
0.75590861 0.1414839 1.603 182 187 194 255
0.75556034 0.14060611 1.5930001 181 186 193 255
0.75468278 0.13964039 1.582 184 189 196 255
0.75518692 0.13893987 1.5740001 185 190 197 255
0.75564975 0.1382397 1.5660001 187 192 199 255
0.75704199 0.13771644 1.5600001 188 193 200 255
0.75693995 0.13692875 1.5510001 188 193 200 255
0.75826353 0.13640626 1.5450001 188 193 200 255
0.75857019 0.1357076 1.5370001 189 194 201 255
0.75982809 0.13518588 1.531 189 193 203 255
0.75955898 0.13439967 1.5220001 190 195 205 255
0.76024711 0.13379042 1.5150001 192 196 206 255
0.75888121 0.13282828 1.5040001 193 197 207 255
-0.72567034 0.1560284 1.8240001 199 202 198 255
-0.71637648 0.15509258 1.8130001 198 202 195 255
-0.710675 0.15492691 1.8110001 171 175 168 255
-0.70420587 0.1545904 1.807 179 183 175 255
-0.69853336 0.15442525 1.8050001 183 187 179 255
-0.69171959 0.15400366 1.8000001 189 193 185 255
-0.68569678 0.15375341 1.7970001 186 190 182 255
-0.68006974 0.15358898 1.7950001 194 198 190 255
-0.67407823 0.15333921 1.7920001 187 191 184 255
-0.66810334 0.15308963 1.789 184 190 183 255
-0.66251618 0.15292583 1.7870001 176 182 175 255
-0.65730834 0.15284786 1.7860001 176 182 175 255
-0.65283698 0.15294124 1.7870001 182 188 181 255
-0.64727271 0.15277807 1.7850001 179 185 178 255
-0.64207971 0.15270071 1.784 179 185 177 255
-0.6361779 0.15245233 1.7810001 177 184 173 255
-0.63135624 0.15246095 1.7810001 163 168 156 255
-0.62583119 0.15229851 1.779 160 165 151 255
-0.61996812 0.15205067 1.7760001 148 153 139 255
-0.6144678 0.15188856 1.774 179 184 172 255
-0.60897839 0.15172662 1.7720001 187 192 180 255
-0.60452282 0.15182173 1.7730001 151 159 144 255
-0.59972364 0.15183137 1.7730001 154 161 149 255
-0.59492457 0.15184118 1.7730001 165 173 158 255
-0.58979249 0.15176551 1.7720001 150 158 143 255
-0.58466578 0.15168995 1.771 172 178 161 255
-0.57987201 0.15170021 1.771 175 181 164 255
-0.57475328 0.15162495 1.7700001 156 162 144 255
-0.57028377 0.15172112 1.771 158 164 146 255
-0.56548947 0.15173179 1.771 159 165 147 255
-0.56069493 0.15174258 1.771 143 151 134 255
-0.55527234 0.15158211 1.7690001 160 168 151 255
-0.55048269 0.15159312 1.7690001 159 166 154 255
-0.54600114 0.15168993 1.7700001 146 153 141 255
-0.54181975 0.15187259 1.7720001 152 159 147 255
-0.53671783 0.15179822 1.771 154 161 150 255
-0.53162116 0.15172394 1.7700001 153 160 148 255
-0.52712458 0.1518212 1.771 142 150 135 255
-0.52203238 0.15174708 1.7700001 158 164 147 255
-0.51723737 0.15175878 1.7700001 160 166 148 255
-0.51215231 0.15168481 1.7690001 163 169 151 255
-0.50821936 0.15195391 1.7720001 145 151 133 255
-0.50313336 0.15188007 1.771 158 164 146 255
-0.49889633 0.15206359 1.7730001 158 164 147 255
-0.49381191 0.15198988 1.7720001 148 154 137 255
-0.48928413 0.15208776 1.7730001 143 149 132 255
-0.4844771 0.15209994 1.7730001 142 148 131 255
-0.47939897 0.15202636 1.7720001 149 155 138 255
-0.47459343 0.15203859 1.7720001 147 152 138 255
-0.47005236 0.1521367 1.7730001 148 153 139 255
-0.46498027 0.15206319 1.7720001 157 162 148 255
-0.46043232 0.15216137 1.7730001 132 137 123 255
-0.45587826 0.15225956 1.774 135 143 126 255
-0.4515723 0.15244363 1.7760001 159 165 148 255
-0.44725475 0.15262777 1.7780001 140 148 131 255
-0.44292557 0.15281191 1.7800001 148 154 137 255
-0.43858469 0.15299608 1.7820001 141 149 134 255
-0.43496245 0.1534379 1.7870001 141 147 130 255
-0.43155295 0.15396565 1.7930001 142 148 131 255
-0.42929983 0.15492286 1.8040001 122 128 110 255
-0.42698613 0.1558802 1.8150001 121 130 111 255
-0.42530939 0.15709537 1.8290001 120 127 106 255
-0.42401534 0.15848251 1.845 115 121 96 255
-0.42217919 0.15969802 1.8590001 118 124 98 255
-0.4189198 0.16039824 1.8670001 120 126 100 255
-0.41495094 0.16084079 1.8720001 106 113 84 255
-0.41073504 0.16119744 1.876 104 111 82 255
-0.4064965 0.1615541 1.8800001 109 116 85 255
-0.40202174 0.16182485 1.8830001 107 114 83 255
-0.39689729 0.16183773 1.8830001 105 112 81 255
-0.39177197 0.16185056 1.8830001 111 116 85 255
-0.38746697 0.16220714 1.8870001 106 109 85 255
-0.38232887 0.1622199 1.8870001 104 109 78 255
-0.37738958 0.16231853 1.8880001 103 107 79 255
-0.37185243 0.16215916 1.886 106 110 82 255
-0.36671409 0.16217169 1.886 109 113 87 255
-0.36138311 0.16209814 1.8850001 111 115 89 255
-0.35605657 0.16202448 1.8840001 113 119 94 255
-0.35110703 0.16212277 1.8850001 104 110 84 255
-0.34651816 0.16239297 1.8880001 104 110 84 255
-0.34155032 0.16249111 1.8890001 107 113 87 255
-0.33675411 0.16267517 1.891 113 120 91 255
-0.33159533 0.16268708 1.891 109 116 87 255
-0.32660821 0.16278495 1.8920001 105 112 81 255
-0.32161468 0.16288272 1.8930001 105 112 81 255
-0.31644756 0.16289434 1.8930001 96 103 72 255
-0.31160834 0.16307794 1.8950001 104 110 84 255
-0.30627209 0.16300325 1.8940001 112 118 92 255
-0.30125836 0.1631006 1.8950001 107 112 90 255
-0.29639444 0.1632839 1.8970001 80 85 64 255
-0.29136518 0.16338101 1.8980001 94 98 80 255
-0.28617865 0.1633919 1.8980001 86 92 74 255
-0.28128734 0.16357486 1.9000001 93 100 79 255
-0.27652952 0.16384378 1.9030001 89 94 73 255
-0.27161175 0.1640265 1.9050001 96 101 79 255
-0.26654229 0.16412298 1.9060001 87 92 71 255
-0.26132938 0.16413321 1.9060001 93 98 77 255
-0.25611556 0.16414329 1.9060001 90 96 78 255
-0.25090089 0.16415322 1.9060001 91 98 77 255
-0.24581425 0.16424912 1.9070001 89 96 75 255
-0.24084741 0.16443101 1.909 82 89 68 255
-0.23574536 0.1645266 1.9100001 82 89 68 255
-0.23051634 0.16453591 1.9100001 87 94 73 255
-0.2251685 0.16445889 1.909 85 92 71 255
-0.21971016 0.16429554 1.9070001 78 84 66 255
-0.21426193 0.16413198 1.9050001 76 82 64 255
-0.20882392 0.16396825 1.9030001 71 77 60 255
-0.20361005 0.16397665 1.9030001 73 79 62 255
-0.19829118 0.16389868 1.9020001 60 65 53 255
-0.19246951 0.16338967 1.8960001 66 71 60 255
-0.18569228 0.16201861 1.8800001 112 117 113 255
-0.17919409 0.16081958 1.8660001 112 116 118 255
-0.17361161 0.16039598 1.8610001 109 117 110 255
-0.16878027 0.16066165 1.8640001 89 95 88 255
-0.16419524 0.16118577 1.8700001 66 72 64 255
-0.15966174 0.16179594 1.8770001 86 92 85 255
-0.15508918 0.16240594 1.8840001 88 94 86 255
-0.15071636 0.16327442 1.8940001 93 99 91 255
-0.14636491 0.16422899 1.9050001 102 108 100 255
-0.14173026 0.16492477 1.9130001 110 117 106 255
-0.13705112 0.16562039 1.9210001 106 113 101 255
-0.13225895 0.16622964 1.9280001 105 110 96 255
-0.12736197 0.16675252 1.9340001 99 107 82 255
-0.12224221 0.16701649 1.937 101 108 87 255
-0.11704513 0.1671941 1.9390001 99 106 85 255
-0.11177895 0.16728522 1.9400001 94 101 80 255
-0.10650686 0.16737615 1.9410001 100 105 84 255
-0.10117669 0.16738062 1.9410001 103 108 87 255
-0.095994271 0.16764359 1.9440001 112 117 96 255
-0.090608433 0.1675614 1.9430001 111 115 97 255
-0.085403271 0.16782393 1.9460001 114 113 97 255
-0.080140129 0.16799998 1.9480001 36 32 18 255
-0.074980855 0.16843456 1.9530001 64 50 40 255
-0.069579929 0.16835147 1.9520001 88 62 54 255
-0.064217098 0.16835438 1.9520001 94 66 57 255
-0.058884155 0.16844331 1.9530001 88 60 51 255
-0.053518072 0.16844577 1.9530001 91 63 54 255
-0.048201077 0.16862048 1.955 89 61 52 255
-0.042807169 0.16853622 1.9540001 87 61 53 255
-0.037476052 0.16871047 1.9560001 83 57 49 255
-0.032100968 0.16871201 1.9560001 83 59 50 255
-0.0267804 0.16905829 1.96 81 59 51 255
-0.021404993 0.16914563 1.9610001 78 56 50 255
-0.016023995 0.1692327 1.9620001 61 36 31 255
-0.010632019 0.16923328 1.9620001 74 49 44 255
-0.005237327 0.16914737 1.9610001 74 52 46 255
0.00015165878 0.16880246 1.9570001 77 55 49 255
0.0055101803 0.16819854 1.95 63 43 37 255
0.010841352 0.1677669 1.9450001 93 76 71 255
0.016144997 0.16733503 1.9400001 79 61 59 255
0.02142109 0.16690294 1.9350001 75 57 56 255
0.026683433 0.16655688 1.9310001 107 89 88 255
0.031890541 0.16603807 1.9250001 101 72 75 255
0.23419385 0.15304264 1.7770001 101 107 110 255
0.2391901 0.1531195 1.7780001 89 95 98 255
0.24432823 0.15328231 1.7800001 162 168 171 255
0.2487765 0.15301442 1.7770001 132 138 140 255
0.25292206 0.15257423 1.7720001 57 63 65 255
0.25733036 0.15230614 1.7690001 95 101 103 255
0.26201785 0.15221015 1.7680001 88 94 96 255
0.26700079 0.15228619 1.7690001 69 75 77 255
0.27168107 0.15218996 1.7680001 87 93 96 255
0.27557299 0.1516632 1.7620001 74 80 83 255
0.28038603 0.15165284 1.7620001 109 114 120 255
0.28471264 0.15138417 1.7590001 76 79 85 255
0.2901741 0.15171781 1.7630001 91 94 98 255
0.29481989 0.15162104 1.7620001 75 79 81 255
0.29945937 0.15152419 1.761 70 72 74 255
0.30305579 0.15091102 1.7540001 81 85 85 255
0.30766615 0.15081401 1.7530001 102 106 106 255
0.31209192 0.15063091 1.751 81 87 89 255
0.31722978 0.15079179 1.7530001 77 83 85 255
0.32127547 0.15043651 1.7490001 80 87 86 255
0.32585764 0.15033919 1.748 74 78 78 255
0.33062264 0.15032782 1.748 96 100 100 255
0.33615425 0.15066034 1.7520001 84 88 88 255
0.3407338 0.15056279 1.751 74 76 76 255
0.344715 0.15020725 1.7470001 87 89 89 255
0.34907356 0.15002361 1.7450001 88 92 92 255
0.35382596 0.15001191 1.7450001 91 95 97 255
0.3581664 0.1498282 1.743 87 91 93 255
0.36270329 0.14973043 1.7420001 85 89 91 255
0.36702293 0.14954667 1.7400001 83 86 90 255
0.37197182 0.14962071 1.7410001 86 89 93 255
0.37670884 0.14960873 1.7410001 81 84 88 255
0.3816641 0.14968267 1.7420001 77 81 83 255
0.38618028 0.1495847 1.7410001 83 85 87 255
0.39113927 0.14965853 1.7420001 79 83 85 255
0.3958756 0.14964643 1.7420001 83 87 89 255
0.40015113 0.14946251 1.7400001 80 84 86 255
0.40441492 0.14927857 1.738 80 84 86 255
0.4089025 0.14918053 1.7370001 81 85 87 255
0.4136219 0.14916839 1.7370001 75 80 77 255
0.41882217 0.14932795 1.7390001 79 84 81 255
0.42305833 0.14914404 1.7370001 78 81 78 255
0.42802161 0.14921771 1.738 79 84 80 255
0.4327406 0.14920554 1.738 74 79 75 255
0.43821394 0.1494509 1.7410001 73 78 74 255
0.44344836 0.14961037 1.743 75 80 77 255
0.44895008 0.14985567 1.7460001 74 79 75 255
0.45394772 0.14992931 1.7470001 72 77 74 255
0.45921251 0.15008877 1.7490001 72 77 73 255
0.46422231 0.15016243 1.7500001 71 74 70 255
0.46950477 0.1503219 1.7520001 72 76 69 255
0.4742561 0.1503098 1.7520001 70 74 67 255
0.47982699 0.15055509 1.7550001 70 74 67 255
0.4848612 0.15062882 1.756 72 75 71 255
0.48990035 0.15070261 1.7570001 72 75 71 255
0.49381816 0.15043336 1.7540001 72 77 73 255
0.49800333 0.15024999 1.7520001 70 73 69 255
0.50217718 0.15006667 1.7500001 73 76 73 255
0.50604993 0.14979774 1.7470001 72 77 74 255
0.51019835 0.14961465 1.7450001 79 83 83 255
0.51433539 0.14943165 1.743 78 84 86 255
0.51786566 0.14907731 1.7390001 84 90 92 255
0.52257586 0.14906599 1.7390001 89 96 95 255
0.52698237 0.14896905 1.738 77 84 83 255
0.53138316 0.14887223 1.7370001 64 68 68 255
0.53546953 0.14868981 1.7350001 66 70 70 255
0.54016739 0.14867891 1.7350001 85 89 91 255
0.54612106 0.14901085 1.7390001 82 86 88 255
0.55272979 0.14951424 1.7450001 84 88 88 255
0.55841231 0.14976065 1.748 83 87 87 255
0.56250006 0.14957879 1.7460001 48 53 50 255
0.56625187 0.14931144 1.743 54 59 56 255
0.56933218 0.14887291 1.738 69 74 71 255
0.57370651 0.14877723 1.7370001 87 92 89 255
0.57974029 0.14910991 1.7410001 89 91 91 255
0.58680266 0.1496996 1.748 88 91 88 255
0.59153414 0.14968996 1.748 43 46 43 255
0.5949012 0.14933793 1.7440001 36 39 35 255
0.59790289 0.14890051 1.7390001 47 50 46 255
0.60191715 0.14872015 1.7370001 83 86 83 255
0.60696834 0.1487968 1.738 78 81 78 255
0.61132127 0.14870244 1.7370001 83 86 82 255
0.61673295 0.14886509 1.7390001 77 80 76 255
0.62072629 0.1486855 1.7370001 79 85 78 255
0.62470901 0.14850613 1.7350001 65 71 64 255
0.62795573 0.14815578 1.7310001 84 90 83 255
0.63154662 0.14789125 1.728 81 86 83 255
0.63585806 0.14779815 1.7270001 84 87 84 255
0.64016455 0.14770524 1.7260001 85 85 83 255
0.64483958 0.14769815 1.7260001 97 98 94 255
0.64838642 0.14743458 1.723 19 20 14 255
0.65153843 0.14708568 1.7190001 26 28 20 255
0.6546694 0.14673705 1.715 23 28 17 255
0.65777946 0.14638871 1.7110001 22 27 16 255
0.66125554 0.14612617 1.7080001 23 28 16 255
0.66588575 0.14612055 1.7080001 22 27 15 255
0.66973174 0.1459441 1.7060001 23 26 14 255
0.67356765 0.14576793 1.7040001 24 27 13 255
0.67898554 0.14593419 1.7060001 24 27 13 255
0.68241173 0.14567301 1.7030001 23 26 12 255
0.68582261 0.14541213 1.7 24 27 13 255
0.68800002 0.14489494 1.6940001 23 26 12 255
0.69259888 0.14489125 1.6940001 23 26 12 255
0.69637585 0.1447168 1.692 27 30 18 255
0.70180029 0.14488475 1.6940001 24 29 17 255
0.70473492 0.14453985 1.6900001 29 31 21 255
0.70890826 0.14445184 1.6890001 25 27 17 255
0.71603453 0.14496279 1.6950001 25 27 19 255
0.7227698 0.14538853 1.7 24 28 20 255
0.72910595 0.14572906 1.7040001 32 36 28 255
0.73417354 0.14581339 1.705 17 25 18 255
0.74011493 0.14606906 1.7080001 105 112 109 255
0.7438941 0.14589749 1.7060001 157 164 167 255
0.74590904 0.14538418 1.7 165 171 177 255
0.74789315 0.14487125 1.6940001 165 170 177 255
0.74895787 0.14418761 1.6860001 168 173 180 255
0.74998099 0.14350434 1.6780001 169 174 181 255
0.75051278 0.14273588 1.669 173 178 185 255
0.75054497 0.14188227 1.659 176 181 188 255
0.75143498 0.14120005 1.651 175 181 188 255
0.75228363 0.14051823 1.6430001 175 181 188 255
0.75355107 0.13992225 1.636 177 183 189 255
0.75431937 0.13924113 1.628 178 183 189 255
0.75597829 0.13873143 1.6220001 179 184 190 255
0.75573158 0.13787997 1.6120001 181 186 193 255
0.75401789 0.13677225 1.5990001 183 188 194 255
0.75460684 0.13609256 1.5910001 184 189 196 255
0.75467747 0.13532767 1.582 184 189 196 255
0.75566089 0.13473424 1.575 184 189 196 255
0.75660866 0.13414118 1.5680001 187 192 199 255
0.75849128 0.13371959 1.5630001 188 193 200 255
0.75937319 0.13312727 1.5560001 189 194 201 255
0.75825626 0.13219309 1.5450001 188 193 200 255
0.75757539 0.1313448 1.5350001 189 194 201 255
0.75882739 0.13083911 1.529 191 196 203 255
0.76054853 0.1304194 1.524 191 196 203 255
0.76174349 0.12991449 1.5180001 192 196 206 255
0.76038563 0.12898204 1.5070001 192 196 206 255
-0.73462903 0.15188146 1.8340001 195 199 192 255
-0.72289032 0.15047839 1.817 194 198 191 255
-0.71440601 0.14973809 1.8080001 178 182 175 255
-0.70832598 0.14949493 1.8050001 182 186 178 255
-0.70304257 0.14941765 1.8040001 189 193 186 255
-0.69737834 0.14925782 1.802 191 195 188 255
-0.69018871 0.14876691 1.7960001 190 194 186 255
-0.6849401 0.14869034 1.7950001 192 196 189 255
-0.67856103 0.14836551 1.7910001 182 186 179 255
-0.67220432 0.14804088 1.7870001 182 188 181 255
-0.66624331 0.1477993 1.784 178 182 175 255
-0.66029918 0.14755793 1.7810001 181 185 177 255
-0.65473968 0.14739959 1.779 176 182 175 255
-0.64992213 0.14740717 1.779 178 184 177 255
-0.64437979 0.14724924 1.7770001 185 191 184 255
-0.6399284 0.1473401 1.7780001 157 163 156 255
-0.6340431 0.14709966 1.7750001 168 174 167 255
-0.62959236 0.14719091 1.7760001 165 169 161 255
-0.6244328 0.14711659 1.7750001 140 145 134 255
-0.6189298 0.14695954 1.7730001 181 186 175 255
-0.61343771 0.14680266 1.771 178 183 171 255
-0.60795665 0.14664592 1.7690001 187 192 178 255
-0.60350943 0.14673804 1.7700001 143 151 134 255
-0.59871852 0.14674743 1.7700001 153 161 144 255
-0.59392768 0.14675696 1.7700001 162 170 153 255
-0.58847106 0.14660081 1.7680001 138 146 129 255
-0.58368558 0.14661065 1.7680001 172 178 161 255
-0.57889986 0.14662059 1.7680001 163 169 152 255
-0.57411408 0.14663069 1.7680001 148 154 137 255
-0.56965017 0.14672387 1.7690001 157 163 146 255
-0.56486142 0.14673422 1.7690001 164 169 155 255
-0.5597558 0.14666177 1.7680001 138 146 131 255
-0.55434138 0.14650643 1.766 163 170 158 255
-0.54956001 0.14651713 1.766 159 166 155 255
-0.54508674 0.1466109 1.7670001 155 162 150 255
-0.54060781 0.14670481 1.7680001 150 157 145 255
-0.53581989 0.14671582 1.7680001 159 166 154 255
-0.53073138 0.14664394 1.7670001 165 171 154 255
-0.52564776 0.14657213 1.766 141 150 131 255
-0.52056915 0.14650039 1.7650001 165 171 153 255
-0.51578778 0.14651175 1.7650001 160 166 148 255
-0.51129538 0.14660616 1.766 144 150 132 255
-0.50708389 0.14678372 1.7680001 155 161 143 255
-0.50229287 0.1467953 1.7680001 154 160 143 255
-0.49778259 0.14688995 1.7690001 147 153 136 255
-0.4927091 0.14681864 1.7680001 145 151 133 255
-0.48764029 0.14674732 1.7670001 139 145 127 255
-0.4828496 0.14675911 1.7670001 153 162 143 255
-0.47832888 0.14685401 1.7680001 149 155 138 255
-0.473802 0.14694895 1.7690001 145 153 136 255
-0.46900395 0.14696087 1.7690001 144 150 133 255
-0.46420524 0.14697282 1.7690001 138 143 129 255
-0.45940569 0.14698479 1.7690001 136 141 127 255
-0.45460555 0.1469968 1.7690001 154 162 145 255
-0.45005897 0.14709194 1.7700001 151 159 142 255
-0.44575763 0.14727019 1.7720001 140 148 131 255
-0.44094712 0.14728224 1.7720001 140 148 131 255
-0.43662801 0.14746056 1.774 141 147 130 255
-0.43205386 0.14755577 1.7750001 141 147 130 255
-0.42819557 0.14790042 1.779 143 149 131 255
-0.42479068 0.14841138 1.7850001 139 145 127 255
-0.42158765 0.14900558 1.7920001 128 134 116 255
-0.41950837 0.15001564 1.8040001 119 124 103 255
-0.41782275 0.15119217 1.8180001 122 125 101 255
-0.41606012 0.15236886 1.8320001 121 125 99 255
-0.41422042 0.15354571 1.8460001 119 123 95 255
-0.41119537 0.15430683 1.8550001 117 122 91 255
-0.40833938 0.15515119 1.8650001 119 124 93 255
-0.40456316 0.15566285 1.8710001 114 119 88 255
-0.40096688 0.15625778 1.8780001 106 111 80 255
-0.39648837 0.15651989 1.881 103 110 79 255
-0.39199263 0.15678199 1.8840001 108 113 82 255
-0.38727424 0.15696086 1.886 99 104 73 255
-0.38234138 0.15705645 1.8870001 93 98 67 255
-0.3770023 0.15698554 1.886 97 101 73 255
-0.37147048 0.15683128 1.8840001 102 105 81 255
-0.36594865 0.15667692 1.8820001 101 106 84 255
-0.36024499 0.1564392 1.8790001 90 95 73 255
-0.35474575 0.15628465 1.8770001 90 97 76 255
-0.34944263 0.15621324 1.876 90 97 75 255
-0.34469467 0.15639156 1.8780001 88 98 75 255
-0.33993489 0.15656982 1.8800001 90 100 75 255
-0.33534124 0.15683129 1.8830001 89 99 73 255
-0.33073023 0.15709271 1.886 94 102 76 255
-0.3261019 0.15735406 1.8890001 82 89 60 255
-0.32162619 0.15769865 1.8930001 84 91 62 255
-0.31645897 0.15770993 1.8930001 88 95 64 255
-0.31178409 0.15797105 1.8960001 85 92 61 255
-0.30660668 0.15798213 1.8960001 66 73 44 255
-0.30158734 0.15807639 1.8970001 76 82 56 255
-0.29624915 0.15800391 1.8960001 75 81 56 255
-0.29106894 0.15801463 1.8960001 81 86 65 255
-0.28573701 0.15794183 1.8950001 78 83 62 255
-0.28085372 0.15811898 1.8970001 83 88 67 255
-0.27610397 0.15837936 1.9000001 86 91 70 255
-0.27133688 0.15863965 1.9030001 78 85 64 255
-0.26599306 0.15856634 1.9020001 67 73 55 255
-0.26065382 0.15849289 1.9010001 74 80 62 255
-0.25531918 0.15841928 1.9000001 73 79 62 255
-0.2502524 0.15851229 1.9010001 76 82 65 255
-0.24492146 0.15843835 1.9000001 76 81 67 255
-0.23972127 0.15844764 1.9000001 79 84 70 255
-0.23414999 0.1582066 1.8970001 76 81 69 255
-0.22847362 0.15788196 1.8930001 93 100 89 255
-0.2225824 0.15739031 1.8870001 102 109 98 255
-0.21649282 0.15673161 1.8790001 101 108 97 255
-0.20999634 0.15573901 1.8670001 94 100 92 255
-0.20389403 0.15499637 1.858 99 105 98 255
-0.1990173 0.15517117 1.8600001 86 92 85 255
-0.19360757 0.15492868 1.8570001 112 117 113 255
-0.18699536 0.15368479 1.8420001 115 120 117 255
-0.18046466 0.15244061 1.8270001 111 115 115 255
-0.17449568 0.15161334 1.817 110 117 116 255
-0.16923393 0.15136991 1.8140001 106 113 112 255
-0.16480295 0.15187734 1.8200001 95 100 97 255
-0.16051404 0.15255155 1.8280001 66 71 67 255
-0.15609556 0.15314217 1.835 48 53 49 255
-0.15155575 0.15364918 1.8410001 91 96 93 255
-0.14698243 0.15415606 1.8470001 91 98 95 255
-0.14268294 0.15499665 1.8570001 91 98 95 255
-0.13862437 0.15617096 1.8710001 94 101 98 255
-0.13455974 0.15742864 1.886 94 98 100 255
-0.13027506 0.15851928 1.899 93 99 92 255
-0.1257209 0.15935934 1.909 92 98 91 255
-0.12092203 0.15994883 1.9160001 96 102 94 255
-0.1160842 0.16053811 1.9230001 101 106 94 255
-0.11097701 0.1607933 1.9260001 99 104 92 255
-0.10590775 0.16113178 1.9300001 108 113 99 255
-0.10060758 0.16113609 1.9300001 106 112 95 255
-0.095504537 0.16147418 1.9340001 101 106 94 255
-0.090239212 0.16156158 1.9350001 106 109 97 255
-0.08518748 0.16206624 1.9410001 115 114 100 255
-0.080020137 0.16240369 1.9450001 34 29 18 255
-0.074830495 0.16274098 1.9490001 69 55 46 255
-0.069404677 0.162577 1.9470001 86 58 50 255
-0.064055368 0.16257983 1.9470001 87 59 50 255
-0.058705784 0.16258243 1.9470001 85 57 48 255
-0.053246338 0.16225079 1.9430001 82 56 48 255
-0.047833305 0.16200238 1.9400001 78 54 46 255
-0.04243657 0.1617538 1.937 71 49 41 255
-0.037094466 0.16167198 1.9360001 74 55 45 255
-0.03170846 0.16133942 1.932 69 49 41 255
-0.02641263 0.16142416 1.9330001 62 44 39 255
-0.021100273 0.16142516 1.9330001 61 43 38 255
-0.015787832 0.16142593 1.9330001 50 32 27 255
-0.010464484 0.16125949 1.9310001 61 34 30 255
-0.0051520858 0.1610928 1.9290001 69 40 35 255
0.00014910787 0.16067535 1.9240001 56 39 33 255
0.005408688 0.15984012 1.914 43 26 21 255
0.010641149 0.15942222 1.909 46 33 28 255
0.015896019 0.15950517 1.9100001 47 31 29 255
0.021145249 0.15950438 1.9100001 41 25 24 255
