ply
format ascii 1.0
comment PCL generated
element vertex 995
property float x
property float y
property float z
property uchar red
property uchar green
property uchar blue
property uchar alpha
element camera 0
property float view_px
property float view_py
property float view_pz
property float x_axisx
property float x_axisy
property float x_axisz
property float y_axisx
property float y_axisy
property float y_axisz
property float z_axisx
property float z_axisy
property float z_axisz
property float focal
property float scalex
property float scaley
property float centerx
property float centery
property int viewportx
property int viewporty
property float k1
property float k2
end_header
0.11958412 -0.10389881 1.6720001 83 86 82 255
0.12424824 -0.10395714 1.6730001 82 87 83 255
0.12876333 -0.10389106 1.6720001 77 82 78 255
0.13343191 -0.10394912 1.6730001 81 86 82 255
0.13810544 -0.10400703 1.674 77 82 78 255
0.14269868 -0.10400268 1.674 80 83 79 255
0.14729133 -0.10399821 1.674 78 81 78 255
0.15197417 -0.10405574 1.6750001 81 84 81 255
0.15703577 -0.10436162 1.6800001 79 82 79 255
0.16183552 -0.10448097 1.682 81 84 81 255
0.16634877 -0.10441388 1.6810001 74 77 74 255
0.17055076 -0.10416031 1.677 76 79 76 255
0.17483461 -0.10396875 1.674 78 81 78 255
0.17953008 -0.10402552 1.6750001 83 86 83 255
0.18401051 -0.10395796 1.674 76 79 76 255
0.18859743 -0.10395239 1.674 74 77 74 255
0.19283745 -0.10376043 1.6710001 88 91 88 255
0.19729656 -0.10369255 1.6700001 85 87 87 255
0.20150772 -0.10350039 1.6670001 82 84 84 255
0.20582536 -0.10337023 1.6650001 110 112 114 255
0.21025762 -0.10330205 1.664 89 91 93 255
0.21468367 -0.10323378 1.6630001 87 87 89 255
0.21949896 -0.10335164 1.6650001 89 91 91 255
0.22445901 -0.10353144 1.6680001 86 89 86 255
0.22929735 -0.10364905 1.6700001 79 82 79 255
0.2344259 -0.10389067 1.674 79 82 78 255
0.23943278 -0.10407011 1.677 80 83 80 255
0.24416424 -0.10412532 1.6780001 68 71 68 255
0.2481591 -0.10387018 1.674 70 70 68 255
0.25228226 -0.10367704 1.6710001 55 58 55 255
0.25684929 -0.10366995 1.6710001 53 55 55 255
0.26188478 -0.10384887 1.674 95 97 97 255
0.26677671 -0.10396568 1.6760001 61 63 63 255
0.27086911 -0.10377222 1.6730001 43 45 45 255
0.27494425 -0.10357872 1.6700001 100 102 102 255
0.27900219 -0.10338517 1.6670001 88 91 88 255
0.28372324 -0.10343961 1.6680001 84 87 84 255
0.28827605 -0.10343198 1.6680001 82 84 84 255
0.29265243 -0.10336227 1.6670001 81 84 81 255
0.29737908 -0.10341651 1.6680001 83 86 83 255
0.3019293 -0.10340866 1.6680001 85 88 85 255
0.30684602 -0.10352474 1.6700001 84 87 84 255
0.31121343 -0.10345478 1.669 79 82 78 255
0.31576365 -0.10344674 1.669 81 84 80 255
0.32050496 -0.10350063 1.6700001 81 84 80 255
0.32505617 -0.10349248 1.6700001 80 83 79 255
0.3296065 -0.10348428 1.6700001 82 85 81 255
0.33395585 -0.10341407 1.669 82 85 81 255
0.33850166 -0.10340578 1.669 81 84 80 255
0.34263554 -0.10327354 1.6670001 81 84 80 255
0.34675765 -0.10314129 1.6650001 83 86 82 255
0.35150096 -0.10319483 1.6660001 84 87 83 255
0.35646251 -0.10331026 1.6680001 84 87 83 255
0.36165059 -0.10348758 1.6710001 82 85 81 255
0.36641571 -0.10354096 1.6720001 81 84 80 255
0.37096363 -0.10353241 1.6720001 81 84 80 255
0.37551069 -0.10352383 1.6720001 82 85 82 255
0.37982959 -0.1034533 1.6710001 81 84 81 255
0.38414222 -0.10338277 1.6700001 81 84 81 255
0.3884486 -0.10331223 1.669 81 84 81 255
0.39298412 -0.10330357 1.669 85 88 85 255
0.39823341 -0.10348058 1.6720001 88 90 90 255
0.40349826 -0.10365756 1.6750001 85 85 83 255
0.40853491 -0.10377261 1.677 83 86 83 255
0.41382799 -0.10394952 1.6800001 83 86 83 255
0.41963464 -0.10425012 1.6850001 86 89 86 255
0.42622304 -0.10473628 1.6930001 88 89 85 255
0.43234506 -0.10509864 1.6990001 82 85 81 255
0.43721306 -0.10515168 1.7 82 85 81 255
0.44208577 -0.10520472 1.7010001 81 82 78 255
0.44696313 -0.10525775 1.702 83 84 80 255
0.45264119 -0.10549632 1.7060001 83 83 81 255
0.45834026 -0.10573485 1.71 83 83 81 255
0.4640604 -0.10597339 1.7140001 89 89 89 255
0.46952805 -0.10615007 1.7170001 87 89 89 255
0.47418281 -0.1061413 1.7170001 86 88 88 255
0.47855815 -0.10607076 1.7160001 82 84 84 255
0.48264584 -0.10593844 1.7140001 79 81 81 255
0.48672208 -0.1058062 1.7120001 76 78 78 255
0.49049994 -0.10561223 1.7090001 78 80 80 255
0.49339175 -0.10523294 1.7030001 77 81 83 255
0.4968355 -0.10497734 1.6990001 80 83 87 255
0.50055218 -0.10478361 1.6960001 81 84 88 255
0.50544351 -0.10483709 1.697 82 85 91 255
0.5079354 -0.10439642 1.6900001 83 84 88 255
0.50978237 -0.10383236 1.6810001 105 107 109 255
0.5124982 -0.10345373 1.6750001 89 91 91 255
0.51734191 -0.10350755 1.6760001 76 78 78 255
0.5218792 -0.10349965 1.6760001 70 73 70 255
0.52578801 -0.10336834 1.674 65 68 65 255
0.529369 -0.10317539 1.6710001 70 73 70 255
0.53261393 -0.1029208 1.6670001 70 75 72 255
0.53583699 -0.10266633 1.6630001 78 82 82 255
0.53936303 -0.10247372 1.6600001 96 100 102 255
0.54385567 -0.10246641 1.6600001 93 97 99 255
0.5486784 -0.10252091 1.6610001 90 92 94 255
0.55583757 -0.10300752 1.669 84 86 86 255
0.56337595 -0.10355589 1.6780001 66 67 63 255
0.56893218 -0.10373403 1.6810001 38 39 33 255
0.57313997 -0.10366541 1.6800001 49 53 46 255
0.57665467 -0.10347352 1.677 59 63 56 255
0.57980657 -0.10322008 1.6730001 60 64 57 255
0.582937 -0.10296679 1.669 69 73 66 255
0.58639789 -0.10277534 1.6660001 75 80 76 255
0.58984262 -0.10258403 1.6630001 76 81 78 255
0.59398615 -0.10251625 1.6620001 79 84 81 255
0.59776431 -0.10238692 1.6600001 86 89 86 255
0.60225761 -0.1023811 1.6600001 72 75 72 255
0.6067512 -0.1023754 1.6600001 67 70 66 255
0.61087692 -0.10230819 1.659 71 74 70 255
0.61499768 -0.10224114 1.6580001 78 79 73 255
0.61873972 -0.10211258 1.6560001 84 85 79 255
0.62247145 -0.10198418 1.654 15 17 9 255
0.62543476 -0.10173263 1.6500001 25 27 17 255
0.6283769 -0.10148127 1.646 26 29 17 255
0.63206702 -0.10135341 1.6440001 21 24 12 255
0.63535964 -0.10116405 1.641 23 26 14 255
0.63824695 -0.10091327 1.6370001 27 30 18 255
0.64072067 -0.10060101 1.6320001 27 29 19 255
0.64553988 -0.10065882 1.6330001 30 32 22 255
0.64917129 -0.10053186 1.631 28 30 20 255
0.65199125 -0.10028184 1.6270001 27 30 18 255
0.65600073 -0.10021692 1.626 25 28 16 255
0.65878737 -0.099967301 1.6220001 23 26 12 255
0.66318882 -0.099964418 1.6220001 24 27 13 255
0.66471016 -0.099530332 1.6150001 22 25 11 255
0.66950911 -0.099589482 1.6160001 22 25 11 255
0.67306352 -0.099463962 1.6140001 24 25 11 255
0.67702806 -0.099400282 1.613 23 24 10 255
0.67972118 -0.099151954 1.6090001 24 25 11 255
0.68409443 -0.099150322 1.6090001 27 28 14 255
0.68932486 -0.099272162 1.6110001 27 28 16 255
0.69155341 -0.098962881 1.6060001 28 29 17 255
0.69592285 -0.09896192 1.6060001 28 28 18 255
0.70116603 -0.099084452 1.608 31 31 21 255
0.7103706 -0.099761784 1.6190001 28 31 19 255
0.71301436 -0.099515066 1.6150001 16 22 14 255
0.71652645 -0.099391833 1.613 63 71 64 255
0.71913564 -0.099145606 1.6090001 118 126 123 255
0.72307384 -0.099084482 1.608 166 174 173 255
0.72565132 -0.098838769 1.6040001 177 183 189 255
0.72638845 -0.098346815 1.5960001 181 186 192 255
0.72662616 -0.097793505 1.5870001 185 190 197 255
0.72773784 -0.097363673 1.58 186 191 198 255
0.73020351 -0.097118989 1.5760001 187 192 199 255
0.73171735 -0.096751302 1.5700001 189 194 200 255
0.7336694 -0.096445493 1.5650001 191 196 202 255
0.73512501 -0.096078336 1.559 190 195 201 255
0.73370445 -0.09534166 1.5470001 192 197 203 255
0.73269761 -0.094666854 1.536 192 197 203 255
0.73019361 -0.093807369 1.5220001 193 198 204 255
0.73195797 -0.093502857 1.5170001 193 198 204 255
0.73224175 -0.093013689 1.5090001 194 199 205 255
0.73346013 -0.092648037 1.503 196 201 207 255
1.050249 -0.094237626 1.5050001 210 215 222 255
1.0710125 -0.095720902 1.5280001 211 216 223 255
1.0616587 -0.094511397 1.508 213 216 223 255
-1.0036401 -0.11971478 1.8570001 20 21 15 255
-0.96493673 -0.11747173 1.8230001 31 33 23 255
-0.96565896 -0.11816888 1.8340001 23 25 15 255
-0.97156245 -0.11951059 1.8550001 20 23 11 255
-0.96068257 -0.11879107 1.8440001 27 28 16 255
-0.94054067 -0.11691268 1.8150001 26 24 13 255
-0.94279081 -0.11843929 1.8390001 28 25 11 255
-0.94280267 -0.11907426 1.8490001 23 16 3 255
-0.93667793 -0.11893684 1.8470001 25 10 0 255
-0.93309015 -0.11912179 1.8500001 97 81 65 255
-0.92597836 -0.11885643 1.8460001 111 93 77 255
-0.92138672 -0.11891344 1.8470001 102 84 68 255
-0.91976994 -0.11935709 1.8540001 81 66 47 255
-0.91663826 -0.119608 1.858 35 20 1 255
-0.91299754 -0.11979489 1.8610001 72 47 25 255
-0.90788025 -0.11978905 1.8610001 72 52 28 255
-0.90373659 -0.11991233 1.863 68 50 26 255
-0.89813823 -0.11984288 1.8620001 56 43 20 255
-0.89158934 -0.1196451 1.8590001 51 37 17 255
-0.88696754 -0.11970513 1.8600001 40 33 13 255
-0.88329136 -0.11989423 1.863 34 28 11 255
-0.88007325 -0.12014803 1.8670001 30 26 9 255
-0.87683594 -0.12040216 1.8710001 28 26 8 255
-0.87357968 -0.12065664 1.8750001 28 25 9 255
-0.86937785 -0.12078273 1.8770001 27 24 8 255
-0.8642469 -0.12078048 1.8770001 29 26 10 255
-0.85728765 -0.12052117 1.8730001 31 27 11 255
-0.85035276 -0.12026221 1.8690001 32 26 9 255
-0.84479886 -0.12019659 1.868 39 28 13 255
-0.83925265 -0.12013131 1.8670001 49 38 23 255
-0.83326745 -0.12000198 1.8650001 32 21 8 255
-0.82063425 -0.11890779 1.848 231 222 211 255
-0.77587795 -0.11311681 1.7580001 209 206 200 255
-0.74214059 -0.10887033 1.692 247 248 242 255
-0.73055941 -0.10784134 1.6760001 207 211 204 255
-0.72383183 -0.10752037 1.6710001 223 229 222 255
-0.71799397 -0.10732833 1.6680001 207 211 204 255
-0.71046311 -0.10687916 1.6610001 217 221 214 255
-0.7033968 -0.10649458 1.6550001 188 194 187 255
-0.69805372 -0.1063676 1.6530001 194 200 193 255
-0.69314247 -0.10630518 1.6520001 167 171 163 255
-0.6886549 -0.10630738 1.6520001 161 166 155 255
-0.68251187 -0.10605237 1.6480001 172 177 165 255
-0.67721462 -0.10592626 1.646 159 162 150 255
-0.6727469 -0.10592909 1.646 189 192 180 255
-0.66828024 -0.10593213 1.646 185 188 176 255
-0.66300803 -0.10580666 1.6440001 184 187 175 255
-0.65774763 -0.10568137 1.6420001 182 185 171 255
-0.65289694 -0.10562063 1.641 177 180 166 255
-0.64844757 -0.10562446 1.641 179 184 170 255
-0.6439991 -0.10562847 1.641 179 183 166 255
-0.63877201 -0.10550392 1.6390001 163 167 150 255
-0.63433045 -0.10550831 1.6390001 157 161 144 255
-0.62912112 -0.10538411 1.6370001 157 161 144 255
-0.62506795 -0.10545321 1.6380001 152 156 138 255
-0.62025207 -0.10539372 1.6370001 158 162 144 255
-0.61619478 -0.10546317 1.6380001 161 165 147 255
-0.61213243 -0.10553278 1.6390001 167 171 153 255
-0.60769439 -0.10553816 1.6390001 167 171 154 255
-0.6028887 -0.10547931 1.6380001 168 172 155 255
-0.59845424 -0.105485 1.6380001 171 175 158 255
-0.59329474 -0.10536201 1.636 178 184 166 255
-0.5885064 -0.1053036 1.6350001 173 179 161 255
-0.58336645 -0.10518088 1.6330001 172 178 160 255
-0.57894665 -0.10518713 1.6330001 165 169 151 255
-0.57452697 -0.10519347 1.6330001 154 158 140 255
-0.57010758 -0.10519999 1.6330001 156 160 142 255
-0.56534177 -0.10514218 1.6320001 149 153 135 255
-0.56092525 -0.10514891 1.6320001 152 156 138 255
-0.55616772 -0.10509133 1.631 164 168 150 255
-0.55175388 -0.10509828 1.631 164 168 151 255
-0.54700458 -0.10504093 1.6300001 174 178 160 255
-0.54259342 -0.10504811 1.6300001 153 159 141 255
-0.53818214 -0.10505538 1.6300001 162 168 150 255
-0.53344339 -0.10499831 1.6290001 165 171 153 255
-0.52870983 -0.10494132 1.628 165 169 151 255
-0.52365941 -0.10481994 1.626 157 161 143 255
-0.51957786 -0.10489205 1.6270001 154 158 140 255
-0.51485723 -0.10483531 1.626 165 169 151 255
-0.51014185 -0.10477864 1.6250001 164 168 150 255
-0.50574279 -0.10478653 1.6250001 163 167 149 255
-0.50134337 -0.10479447 1.6250001 158 162 144 255
-0.49724951 -0.10486699 1.626 155 159 141 255
-0.49254361 -0.10481061 1.6250001 156 162 144 255
-0.48814324 -0.10481878 1.6250001 153 159 141 255
-0.48374233 -0.10482699 1.6250001 143 149 131 255
-0.47934106 -0.10483529 1.6250001 163 169 152 255
-0.47464707 -0.10477909 1.6240001 173 177 159 255
-0.46995801 -0.10472295 1.623 174 178 160 255
-0.46527389 -0.10466687 1.6220001 179 183 165 255
-0.46002644 -0.10448172 1.6190001 181 185 167 255
-0.45479468 -0.1042966 1.6160001 184 188 170 255
-0.44957858 -0.10411148 1.613 168 174 156 255
-0.44437826 -0.10392639 1.6100001 160 166 149 255
-0.43946683 -0.10380583 1.608 163 167 149 255
-0.43456569 -0.10368528 1.6060001 151 155 137 255
-0.43021056 -0.10369387 1.6060001 150 155 133 255
-0.42532444 -0.10357335 1.6040001 153 159 134 255
-0.42097342 -0.10358198 1.6040001 149 155 130 255
-0.4168815 -0.1036552 1.605 139 145 120 255
-0.41304055 -0.10379305 1.6070001 144 150 125 255
-0.408425 -0.10373713 1.6060001 161 166 144 255
-0.40406582 -0.10374582 1.6060001 155 161 136 255
-0.39945707 -0.1036899 1.605 151 157 132 255
-0.39559153 -0.10382782 1.6070001 136 142 117 255
-0.39122751 -0.10383654 1.6070001 136 142 116 255
-0.38710341 -0.10390984 1.608 143 147 121 255
-0.38249716 -0.10385392 1.6070001 142 145 121 255
-0.37813079 -0.1038626 1.6070001 144 147 123 255
-0.37399626 -0.1039359 1.608 146 149 125 255
-0.37008539 -0.10407385 1.6100001 148 153 131 255
-0.36593568 -0.10414716 1.6110001 150 155 133 255
-0.36155531 -0.10415579 1.6110001 154 159 137 255
-0.3567307 -0.10403509 1.6090001 158 163 141 255
-0.35191619 -0.10391435 1.6070001 157 162 141 255
-0.34754422 -0.10392288 1.6070001 156 160 142 255
-0.34338501 -0.10399607 1.608 149 153 135 255
-0.33921951 -0.10406923 1.6090001 171 175 157 255
-0.33483961 -0.10407767 1.6090001 146 150 132 255
-0.33025354 -0.10402139 1.608 150 155 134 255
-0.32567206 -0.10396507 1.6070001 153 158 137 255
-0.3208952 -0.10384396 1.605 152 159 137 255
-0.3163256 -0.10378752 1.6040001 154 161 139 255
-0.31195512 -0.10379571 1.6040001 159 166 144 255
-0.30777556 -0.10386857 1.605 153 159 134 255
-0.3035897 -0.10394141 1.6060001 146 151 129 255
-0.29921117 -0.10394945 1.6060001 154 159 138 255
-0.29501545 -0.10402218 1.6070001 153 157 139 255
-0.29027084 -0.10390063 1.605 153 157 139 255
-0.28571439 -0.10384375 1.6040001 173 177 159 255
-0.28133798 -0.10385153 1.6040001 145 147 129 255
-0.27730602 -0.10398876 1.6060001 144 146 126 255
-0.27343228 -0.10419067 1.6090001 148 151 129 255
-0.2693741 -0.10432778 1.6110001 145 148 126 255
-0.2651397 -0.10440008 1.6120001 146 147 123 255
-0.26106074 -0.10453708 1.6140001 143 146 122 255
-0.25681099 -0.10460924 1.6150001 145 146 122 255
-0.25271127 -0.10474608 1.6170001 140 142 116 255
-0.24813914 -0.10468853 1.6160001 144 145 121 255
-0.24357162 -0.10463089 1.6150001 146 147 125 255
-0.23960112 -0.1048323 1.618 144 145 123 255
-0.23575881 -0.10509846 1.6220001 149 151 133 255
-0.232179 -0.10549413 1.628 149 151 133 255
-0.22870548 -0.10595459 1.6350001 153 155 137 255
-0.22629005 -0.10693346 1.6500001 153 157 139 255
-0.22419499 -0.10810679 1.6680001 153 157 140 255
-0.2217373 -0.10915053 1.6840001 71 75 58 255
-0.21815974 -0.10967572 1.692 41 46 34 255
-0.2140328 -0.10994159 1.6960001 59 61 51 255
-0.20938937 -0.10994805 1.6960001 61 63 55 255
-0.20474517 -0.10995439 1.6960001 63 65 57 255
-0.20010023 -0.10996062 1.6960001 59 60 54 255
-0.19533929 -0.10990189 1.6950001 61 63 55 255
-0.19092062 -0.11003756 1.697 66 68 60 255
-0.18627077 -0.11004344 1.697 57 61 54 255
-0.18151319 -0.10998435 1.6960001 57 61 54 255
-0.17696896 -0.11005482 1.697 52 56 48 255
-0.17221551 -0.10999548 1.6960001 46 50 42 255
-0.16766447 -0.11006571 1.697 58 62 55 255
-0.16291519 -0.11000608 1.6960001 62 66 59 255
-0.15807745 -0.10988148 1.6940001 67 71 64 255
-0.15334062 -0.10982159 1.6930001 67 71 64 255
-0.14869651 -0.10982642 1.6930001 72 76 69 255
-0.14413691 -0.109896 1.6940001 81 85 78 255
-0.13957123 -0.10996544 1.6950001 82 86 79 255
-0.13476074 -0.10984012 1.6930001 84 88 81 255
-0.12996066 -0.10971466 1.6910001 82 86 79 255
-0.12524515 -0.10965391 1.6900001 79 83 76 255
-0.120606 -0.10965791 1.6900001 75 79 72 255
-0.11596636 -0.10966178 1.6900001 68 69 63 255
-0.11126038 -0.10960063 1.6890001 65 66 60 255
-0.10649629 -0.10947439 1.687 62 63 57 255
-0.10186352 -0.10947783 1.687 61 62 56 255
-0.097345605 -0.10961092 1.6890001 63 62 56 255
-0.092706524 -0.10961405 1.6890001 63 62 56 255
-0.088119194 -0.10968193 1.6900001 60 59 53 255
-0.083377823 -0.10955497 1.6880001 60 59 53 255
-0.078740388 -0.10955767 1.6880001 60 61 55 255
-0.074146524 -0.10962511 1.6890001 61 65 58 255
-0.069546849 -0.1096924 1.6900001 65 69 62 255
-0.065018199 -0.10988937 1.6930001 66 70 63 255
-0.060294509 -0.10976165 1.6910001 69 73 66 255
-0.055647369 -0.10976359 1.6910001 89 93 86 255
-0.050909515 -0.10957063 1.6880001 93 94 88 255
-0.046242759 -0.10950735 1.687 90 91 85 255
-0.041556641 -0.10937899 1.6850001 91 92 88 255
-0.036859423 -0.10918557 1.682 81 82 78 255
-0.032197714 -0.1090569 1.6800001 76 79 75 255
-0.027530439 -0.10886315 1.677 75 78 74 255
-0.022906879 -0.1087991 1.6760001 75 78 74 255
-0.018299635 -0.10879979 1.6760001 73 77 70 255
-0.013716823 -0.10899507 1.6790001 72 73 67 255
-0.0091120368 -0.10912528 1.6810001 69 70 64 255
-0.0044962168 -0.10925535 1.6830001 67 68 62 255
0.00013046437 -0.10925543 1.6830001 66 67 61 255
0.0047627976 -0.10938517 1.6850001 67 68 62 255
0.0094005326 -0.10944986 1.6860001 69 70 64 255
0.014027075 -0.10938454 1.6850001 68 69 63 255
0.01864806 -0.10931909 1.6840001 70 71 67 255
0.023291109 -0.10938329 1.6850001 69 70 66 255
0.027922986 -0.10938242 1.6850001 73 74 68 255
0.032554746 -0.10938141 1.6850001 74 75 69 255
0.037164304 -0.10931534 1.6840001 76 77 71 255
0.041768201 -0.10924909 1.6830001 79 80 74 255
0.046421554 -0.10931252 1.6840001 78 79 73 255
0.051019583 -0.10924599 1.6830001 78 82 75 255
0.05561189 -0.10917928 1.682 78 81 77 255
0.060198471 -0.10911244 1.6810001 78 81 78 255
0.064779304 -0.10904545 1.6800001 82 85 82 255
0.069354363 -0.1089783 1.6790001 83 86 83 255
0.073967703 -0.10897592 1.6790001 84 87 84 255
0.078580715 -0.10897338 1.6790001 87 90 87 255
0.083193414 -0.1089707 1.6790001 87 90 87 255
0.087805748 -0.10896786 1.6790001 84 87 84 255
0.092362687 -0.10889999 1.6780001 86 89 86 255
0.096913747 -0.10883196 1.677 86 89 86 255
0.10139838 -0.10869891 1.6750001 94 97 94 255
0.10587159 -0.10856571 1.6730001 89 92 89 255
0.11033342 -0.10843237 1.6710001 87 90 87 255
0.11499009 -0.10849357 1.6720001 86 89 85 255
0.11958031 -0.10848975 1.6720001 80 85 81 255
0.12417002 -0.10848577 1.6720001 83 89 82 255
0.12860522 -0.1083519 1.6700001 82 87 83 255
0.13326818 -0.10841254 1.6710001 84 87 83 255
0.13793607 -0.10847303 1.6720001 81 84 80 255
0.14260896 -0.1085334 1.6730001 79 82 78 255
0.14728671 -0.10859359 1.674 80 83 80 255
0.15206015 -0.10871856 1.6760001 80 83 80 255
0.15712433 -0.10903795 1.6810001 79 82 79 255
0.16173428 -0.10903288 1.6810001 78 81 78 255
0.1661457 -0.10889795 1.6790001 79 82 79 255
0.17044379 -0.10869806 1.6760001 79 82 79 255
0.17482921 -0.10856289 1.674 80 83 80 255
0.17941739 -0.10855734 1.674 82 85 82 255
0.18400487 -0.10855164 1.674 79 82 78 255
0.18847904 -0.10848101 1.6730001 74 77 73 255
0.19283161 -0.10834543 1.6710001 82 85 82 255
0.1972906 -0.10827455 1.6700001 84 87 84 255
0.20162258 -0.10813875 1.6680001 92 94 94 255
0.2060664 -0.10806767 1.6670001 109 109 111 255
0.21037772 -0.10793168 1.6650001 91 91 93 255
0.21493548 -0.10792521 1.6650001 88 88 88 255
0.2196243 -0.10798346 1.6660001 89 91 91 255
0.22418329 -0.10797679 1.6660001 84 87 84 255
0.22887874 -0.10803481 1.6670001 81 84 81 255
0.2337189 -0.10815753 1.669 84 87 84 255
0.23899752 -0.10847453 1.674 82 85 82 255
0.24372071 -0.10853222 1.6750001 74 74 72 255
0.2478555 -0.10833062 1.6720001 72 73 69 255
0.25182214 -0.10806417 1.6680001 47 48 44 255
0.25653458 -0.10812158 1.669 69 72 69 255
0.26093879 -0.10804935 1.6680001 99 101 101 255
0.26565501 -0.10810656 1.669 74 76 76 255
0.26972824 -0.10790461 1.6660001 67 69 69 255
0.2742781 -0.10789691 1.6660001 98 100 100 255
0.27865979 -0.10782436 1.6650001 80 83 80 255
0.28354537 -0.10794601 1.6670001 79 82 79 255
0.28809541 -0.10793806 1.6670001 80 83 80 255
0.29264453 -0.10793003 1.6670001 79 82 79 255
0.29683626 -0.10779246 1.6650001 81 84 81 255
0.30137822 -0.10778432 1.6650001 84 87 84 255
0.30610299 -0.10784083 1.6660001 82 85 81 255
0.31101879 -0.10796198 1.6680001 84 87 83 255
0.31556627 -0.10795362 1.6680001 80 83 79 255
0.32030472 -0.1080099 1.669 80 83 79 255
0.32465857 -0.10793672 1.6680001 80 83 79 255
0.3292034 -0.10792819 1.6680001 80 83 79 255
0.3335472 -0.1078549 1.6670001 81 85 78 255
0.33808756 -0.10784628 1.6670001 76 82 75 255
0.34201038 -0.10764353 1.664 83 86 82 255
0.34654084 -0.10763484 1.664 78 83 79 255
0.35107037 -0.1076261 1.664 78 83 79 255
0.35624015 -0.10781135 1.6670001 83 86 82 255
0.36120901 -0.10793185 1.669 83 86 82 255
0.36596873 -0.10798765 1.6700001 80 83 79 255
0.37051114 -0.10797874 1.6700001 81 84 80 255
0.37505275 -0.10796981 1.6700001 79 82 78 255
0.37913889 -0.10783156 1.6680001 80 83 79 255
0.38344336 -0.10775796 1.6670001 82 85 82 255
0.38750878 -0.10761969 1.6650001 84 87 84 255
0.39226896 -0.10767535 1.6660001 85 87 87 255
0.39727187 -0.10779559 1.6680001 83 85 85 255
0.402044 -0.10785118 1.669 83 85 85 255
0.40657714 -0.10784215 1.669 85 88 85 255
0.41135585 -0.10789771 1.6700001 86 89 86 255
0.41713539 -0.1082117 1.6750001 85 88 84 255
0.42319307 -0.10859022 1.6810001 82 85 81 255
0.42928249 -0.1089687 1.687 85 88 84 255
0.43488944 -0.10921793 1.6910001 85 88 84 255
0.43999761 -0.10933796 1.6930001 82 83 79 255
0.44459066 -0.10932884 1.6930001 83 84 80 255
0.44918311 -0.10931975 1.6930001 78 81 77 255
0.45431083 -0.10943979 1.6950001 79 82 79 255
0.45971954 -0.10962439 1.6980001 78 81 78 255
0.46541727 -0.10987356 1.702 79 82 79 255
0.47058374 -0.10999362 1.7040001 83 86 83 255
0.47603941 -0.11017823 1.7070001 85 88 85 255
0.48122913 -0.11029832 1.7090001 81 86 83 255
0.48557606 -0.11022481 1.7080001 82 84 84 255
0.48934314 -0.11002231 1.705 79 81 81 255
0.49193457 -0.10956179 1.6980001 81 85 87 255
0.49507234 -0.10923042 1.6930001 81 84 88 255
0.49906802 -0.10909272 1.6910001 84 87 91 255
0.50245667 -0.10882606 1.687 81 84 88 255
0.50462103 -0.1083015 1.6790001 101 104 108 255
0.50734806 -0.10790608 1.6730001 98 100 102 255
0.51218408 -0.10796224 1.674 79 81 81 255
0.51733381 -0.10808296 1.6760001 73 76 73 255
0.52155983 -0.10801027 1.6750001 67 70 66 255
0.52515197 -0.10780869 1.6720001 65 68 64 255
0.52872759 -0.10760726 1.669 68 71 67 255
0.53196716 -0.10734145 1.6650001 68 73 70 255
0.53550714 -0.10714024 1.6620001 82 86 86 255
0.53870571 -0.10687469 1.6580001 97 101 101 255
0.54286534 -0.10680263 1.6570001 96 100 102 255
0.54734975 -0.10679514 1.6570001 90 94 96 255
0.55316615 -0.10704554 1.6610001 90 92 92 255
0.56001139 -0.10748933 1.6680001 88 91 87 255
0.56621748 -0.10780428 1.6730001 35 39 32 255
0.57074493 -0.10779714 1.6730001 46 50 43 255
0.57424086 -0.10759683 1.6700001 60 61 55 255
0.57737404 -0.10733225 1.6660001 60 64 57 255
0.58083481 -0.10713224 1.6630001 71 75 68 255
0.58463156 -0.10699679 1.6610001 80 83 79 255
0.58841759 -0.10686149 1.659 79 82 78 255
0.59183562 -0.10666195 1.6560001 80 83 80 255
0.59559774 -0.10652695 1.654 85 88 84 255
0.60043776 -0.10658534 1.6550001 73 76 72 255
0.60564893 -0.10670824 1.6570001 75 78 74 255
0.61013496 -0.1067025 1.6570001 72 75 71 255
0.61462134 -0.1066969 1.6570001 74 78 71 255
0.61873454 -0.10662709 1.6560001 80 81 75 255
0.62284267 -0.10655742 1.6550001 42 44 36 255
0.62505078 -0.10616602 1.649 23 25 15 255
0.62760866 -0.10583922 1.6440001 24 27 15 255
0.63052464 -0.10557698 1.6400001 21 24 12 255
0.63419384 -0.10544368 1.6380001 28 31 19 255
0.63785285 -0.10531057 1.636 27 30 18 255
0.64150178 -0.10517766 1.6340001 29 32 20 255
0.64474535 -0.10498057 1.631 28 30 20 255
0.64876962 -0.10491243 1.6300001 26 28 18 255
0.65118641 -0.10458703 1.6250001 28 31 19 255
0.65478712 -0.10445491 1.623 27 28 16 255
0.65715969 -0.10412994 1.618 27 28 14 255
0.66195935 -0.10419133 1.6190001 26 27 13 255
0.66429597 -0.1038668 1.6140001 25 26 12 255
0.66950667 -0.10399295 1.6160001 26 27 13 255
0.67306131 -0.10386192 1.6140001 23 24 10 255
0.6782853 -0.1039885 1.6160001 24 25 11 255
0.68014187 -0.10360052 1.6100001 23 24 10 255
0.6849432 -0.1036632 1.6110001 25 26 12 255
0.68761206 -0.10340439 1.6070001 27 28 16 255
0.6889686 -0.10295277 1.6 32 33 21 255
0.69028878 -0.1025014 1.5930001 34 35 21 255
0.69898522 -0.10314415 1.603 29 32 18 255
0.71037024 -0.1041732 1.6190001 25 30 16 255
0.71389723 -0.10404429 1.6170001 18 25 14 255
0.71741503 -0.10391563 1.6150001 66 74 66 255
0.71958303 -0.10359423 1.6100001 123 131 128 255
0.72307456 -0.10346609 1.608 168 176 175 255
0.72565228 -0.10320955 1.6040001 179 185 191 255
0.72684479 -0.10276023 1.5970001 181 186 192 255
0.72754329 -0.10224682 1.5890001 183 188 195 255
0.72820014 -0.10173368 1.5810001 188 193 200 255
0.73020554 -0.10141386 1.5760001 188 193 200 255
0.73171955 -0.10102995 1.5700001 190 195 201 255
0.73367202 -0.10071067 1.5650001 191 196 202 255
0.73607093 -0.10045601 1.5610001 191 196 202 255
0.73560464 -0.099815503 1.5510001 191 196 202 255
0.73365498 -0.098982178 1.5380001 194 199 205 255
0.73163652 -0.098149098 1.5250001 194 199 205 255
0.73196191 -0.097638071 1.5170001 193 198 204 255
0.73273116 -0.097191662 1.5100001 194 199 205 255
0.7334646 -0.096745521 1.503 196 201 207 255
1.0598418 -0.098911151 1.5120001 211 214 221 255
-1.0166256 -0.12639892 1.881 37 38 32 255
-1.0049216 -0.12557806 1.8690001 19 20 14 255
-0.98545462 -0.12440862 1.8520001 31 33 25 255
-0.9723593 -0.12338825 1.8370001 33 35 25 255
-0.95619285 -0.12196559 1.8160001 26 28 18 255
-0.96633613 -0.12390146 1.845 24 27 15 255
-0.96225649 -0.12402443 1.8470001 23 24 12 255
-0.94417846 -0.12233498 1.8220001 25 26 14 255
-0.93706775 -0.12205615 1.8180001 26 23 9 255
-0.93818617 -0.12285194 1.83 26 22 11 255
-0.9387325 -0.12358093 1.8410001 27 22 11 255
-0.93668664 -0.12397464 1.8470001 20 17 3 255
-0.93562019 -0.12450296 1.8550001 16 13 0 255
-0.93050063 -0.12449475 1.8550001 15 12 0 255
-0.92538488 -0.12448698 1.8550001 15 14 0 255
-0.92176139 -0.12468094 1.858 15 15 0 255
-0.91713822 -0.1247411 1.8590001 19 17 0 255
-0.91202253 -0.12473455 1.8590001 31 23 6 255
-0.90691036 -0.12472841 1.8590001 36 28 11 255
-0.90083146 -0.12458853 1.8570001 37 29 12 255
-0.89621383 -0.12465028 1.858 37 31 14 255
-0.89111429 -0.12464533 1.858 35 29 12 255
-0.88887918 -0.12504326 1.8640001 30 28 10 255
-0.88756245 -0.12557574 1.8720001 30 27 11 255
-0.88196224 -0.12550481 1.8710001 28 27 13 255
-0.8791824 -0.12583673 1.876 25 24 10 255
-0.87498033 -0.12596779 1.8780001 22 21 7 255
-0.87076992 -0.12609917 1.8800001 22 21 7 255
-0.86102599 -0.12542604 1.8700001 25 24 10 255
-0.85317004 -0.12502155 1.8640001 26 23 9 255
-0.8476243 -0.12495279 1.863 25 22 8 255
-0.84344321 -0.12508558 1.8650001 28 24 10 255
-0.83700591 -0.12488333 1.8620001 24 20 6 255
-0.82835317 -0.12434607 1.8540001 29 22 9 255
-0.7408244 -0.11327945 1.6890001 251 253 245 255
-0.7301228 -0.11234097 1.6750001 171 172 166 255
-0.72253144 -0.11187223 1.6680001 219 223 216 255
-0.71799284 -0.11187324 1.6680001 223 227 220 255
-0.71046174 -0.11140501 1.6610001 219 223 216 255
-0.70297021 -0.11093702 1.654 209 213 206 255
-0.69762963 -0.11080463 1.6520001 191 196 185 255
-0.69397962 -0.11094077 1.654 187 192 180 255
-0.68948621 -0.11094299 1.654 155 160 146 255
-0.68333757 -0.11067715 1.6500001 163 167 150 255
-0.67762339 -0.1104786 1.6470001 156 160 143 255
-0.67274392 -0.11041444 1.646 155 159 142 255
-0.66787106 -0.11035047 1.6450001 160 164 147 255
-0.66300458 -0.11028672 1.6440001 178 180 163 255
-0.65814453 -0.11022318 1.6430001 178 180 163 255
-0.65329099 -0.11015986 1.6420001 184 188 171 255
-0.64883876 -0.1101638 1.6420001 174 178 161 255
-0.64438736 -0.11016796 1.6420001 191 195 178 255
-0.63954705 -0.11010519 1.641 190 194 177 255
-0.63432598 -0.10997553 1.6390001 190 193 179 255
-0.62950069 -0.10991315 1.6380001 174 178 161 255
-0.62544453 -0.10998513 1.6390001 161 165 147 255
-0.62062591 -0.10992309 1.6380001 156 160 142 255
-0.61618954 -0.10992834 1.6380001 162 166 148 255
-0.61212707 -0.11000086 1.6390001 158 162 144 255
-0.60805964 -0.11007356 1.6400001 163 167 149 255
-0.60288298 -0.10994504 1.6380001 161 165 147 255
-0.5984484 -0.10995095 1.6380001 159 163 145 255
-0.59365141 -0.10988986 1.6370001 161 165 147 255
-0.58886015 -0.10982891 1.636 162 168 150 255
-0.58371735 -0.10970098 1.6340001 173 177 159 255
-0.57894027 -0.10964031 1.6330001 175 181 163 255
-0.57452047 -0.10964692 1.6330001 175 181 163 255
-0.57045001 -0.1097208 1.6340001 175 181 163 255
-0.56533492 -0.10959336 1.6320001 155 161 143 255
-0.56057453 -0.10953318 1.631 151 157 139 255
-0.55581969 -0.10947313 1.6300001 154 158 140 255
-0.55174667 -0.1095475 1.631 169 173 155 255
-0.54733288 -0.10955486 1.631 178 182 164 255
-0.54258603 -0.10949514 1.6300001 169 173 155 255
-0.53817469 -0.10950269 1.6300001 167 171 153 255
-0.53310829 -0.10937598 1.628 163 167 149 255
-0.52870214 -0.10938373 1.628 164 168 150 255
-0.52365172 -0.10925718 1.626 159 163 145 255
-0.51988935 -0.10939952 1.628 149 153 135 255
-0.51484931 -0.10927314 1.626 150 154 136 255
-0.51013386 -0.10921405 1.6250001 149 153 135 255
-0.50542349 -0.10915501 1.6240001 152 156 138 255
-0.50102669 -0.10916327 1.6240001 158 162 144 255
-0.49693552 -0.10923883 1.6250001 155 159 141 255
-0.49253535 -0.10924724 1.6250001 155 159 141 255
-0.48813486 -0.10925571 1.6250001 159 163 145 255
-0.48403162 -0.10933148 1.626 157 161 143 255
-0.47962755 -0.10934009 1.626 157 161 143 255
-0.47493085 -0.10928153 1.6250001 156 158 138 255
-0.47023901 -0.10922298 1.6240001 163 165 145 255
-0.46555215 -0.10916448 1.623 163 165 145 255
-0.46115428 -0.10917328 1.623 165 170 149 255
-0.45647451 -0.10911486 1.6220001 174 178 160 255
-0.45124218 -0.10892192 1.6190001 167 171 153 255
-0.44657755 -0.10886353 1.618 181 185 167 255
-0.44109783 -0.10860333 1.6140001 166 170 152 255
-0.43590987 -0.10841039 1.6110001 180 185 164 255
-0.43127325 -0.10835205 1.6100001 159 165 140 255
-0.42637631 -0.1082264 1.608 153 159 134 255
-0.42148951 -0.10810077 1.6060001 159 165 140 255
-0.41661292 -0.10797514 1.6040001 147 153 128 255
-0.41251764 -0.10805146 1.605 141 146 124 255
-0.40816185 -0.10806047 1.605 142 147 125 255
-0.40405697 -0.10813683 1.6060001 141 146 124 255
-0.3996971 -0.10814586 1.6060001 149 155 130 255
-0.39533651 -0.10815489 1.6060001 148 154 129 255
-0.39121863 -0.10823129 1.6070001 146 150 124 255
-0.38685384 -0.10824033 1.6070001 132 136 110 255
-0.38272628 -0.10831671 1.608 140 144 118 255
-0.37812197 -0.10825839 1.6070001 140 143 119 255
-0.37398744 -0.10833476 1.608 142 145 121 255
-0.3698467 -0.10841115 1.6090001 141 147 122 255
-0.36592686 -0.1085549 1.6110001 143 148 126 255
-0.36154655 -0.10856389 1.6110001 148 153 131 255
-0.35672194 -0.10843804 1.6090001 155 161 136 255
-0.35212642 -0.10837957 1.608 155 160 138 255
-0.34775177 -0.10838844 1.608 153 158 136 255
-0.34380344 -0.10853212 1.6100001 152 154 134 255
-0.33963251 -0.10860837 1.6110001 149 151 131 255
-0.33524722 -0.10861716 1.6110001 159 161 141 255
-0.33086112 -0.10862591 1.6110001 149 151 131 255
-0.32586619 -0.10843232 1.608 154 159 138 255
-0.32148653 -0.10844097 1.608 158 163 141 255
-0.31690887 -0.10838213 1.6070001 157 162 140 255
-0.31311366 -0.10859301 1.6100001 155 161 136 255
-0.30891782 -0.10866898 1.6110001 146 152 127 255
-0.3045266 -0.10867742 1.6110001 151 156 134 255
-0.29994822 -0.10861835 1.6100001 149 154 132 255
-0.29537445 -0.1085592 1.6090001 153 158 137 255
-0.29098615 -0.10856746 1.6090001 160 162 142 255
-0.28695324 -0.1087106 1.6110001 163 165 145 255
-0.28308395 -0.10892119 1.6140001 144 145 123 255
-0.27937013 -0.10919923 1.618 143 144 122 255
-0.2752938 -0.10934224 1.6200001 141 142 118 255
-0.27120563 -0.10948518 1.6220001 144 145 121 255
-0.2667768 -0.10949307 1.6220001 149 151 125 255
-0.26250884 -0.10956837 1.623 148 150 124 255
-0.25823465 -0.10964362 1.6240001 142 144 118 255
-0.25379783 -0.10965125 1.6240001 143 145 117 255
-0.24920665 -0.10959128 1.623 143 145 119 255
-0.24522337 -0.10980132 1.626 142 145 123 255
-0.24225943 -0.11048402 1.636 151 151 133 255
-0.23967607 -0.11136933 1.649 153 155 137 255
-0.23702081 -0.11225465 1.6620001 151 154 142 255
-0.23429359 -0.11313999 1.6750001 60 63 51 255
-0.23108311 -0.1138227 1.6850001 56 61 50 255
-0.22754826 -0.11437026 1.6930001 47 52 41 255
-0.22344214 -0.11464754 1.697 49 54 43 255
-0.21918446 -0.11485719 1.7 58 62 54 255
-0.21453092 -0.11486404 1.7 62 66 59 255
-0.20975319 -0.1148032 1.6990001 61 65 58 255
-0.20485945 -0.11467465 1.697 64 68 61 255
-0.20009391 -0.11461356 1.6960001 57 61 54 255
-0.19556358 -0.11468749 1.697 60 64 56 255
-0.19113958 -0.11482891 1.6990001 67 71 63 255
-0.18648438 -0.11483504 1.6990001 67 71 63 255
-0.18172142 -0.11477343 1.6980001 61 65 57 255
-0.17706758 -0.11477929 1.6980001 73 77 70 255
-0.17220996 -0.11464982 1.6960001 67 71 64 255
-0.16756025 -0.11465539 1.6960001 70 74 67 255
-0.16281386 -0.11459324 1.6950001 68 72 65 255
-0.1581656 -0.11459856 1.6950001 70 74 67 255
-0.1534262 -0.11453612 1.6940001 66 70 63 255
-0.14877947 -0.11454116 1.6940001 57 61 54 255
-0.14413218 -0.11454606 1.6940001 60 64 57 255
-0.13964897 -0.11468604 1.6960001 68 72 65 255
-0.13515425 -0.1148259 1.6980001 82 86 79 255
-0.13049433 -0.1148304 1.6980001 86 89 85 255
-0.12568565 -0.11469948 1.6960001 88 91 87 255
-0.12081608 -0.11450075 1.6930001 91 95 88 255
-0.11609973 -0.11443713 1.692 88 92 85 255
-0.11132252 -0.11430573 1.6900001 82 86 79 255
-0.10661898 -0.11424183 1.6890001 75 76 70 255
-0.1018601 -0.1141101 1.687 70 71 65 255
-0.097342327 -0.1142488 1.6890001 64 65 59 255
-0.092648506 -0.11418442 1.6880001 62 63 57 255
-0.088064075 -0.11425518 1.6890001 62 63 57 255
-0.083473787 -0.11432578 1.6900001 64 65 59 255
-0.07887765 -0.11439623 1.6910001 56 57 51 255
-0.074231803 -0.11439887 1.6910001 57 58 52 255
-0.069544494 -0.11433371 1.6900001 61 62 56 255
-0.064939179 -0.1144037 1.6910001 64 65 59 255
-0.060328107 -0.11447353 1.692 69 70 64 255
-0.055711284 -0.11454321 1.6930001 69 70 64 255
-0.051088732 -0.11461272 1.6940001 70 71 65 255
-0.046405639 -0.11454675 1.6930001 86 89 85 255
-0.041752513 -0.1145483 1.6930001 90 93 89 255
-0.03701156 -0.11427904 1.6890001 95 98 94 255
-0.032330766 -0.11414492 1.687 91 94 90 255
-0.027595164 -0.11374 1.6810001 84 87 84 255
-0.022960762 -0.11367322 1.6800001 83 86 83 255
-0.018320844 -0.11353861 1.6780001 78 81 78 255
-0.013724522 -0.11367451 1.6800001 79 82 78 255
-0.0091117248 -0.11374256 1.6810001 73 76 72 255
-0.0044907192 -0.11374281 1.6810001 72 76 69 255
0.00013038235 -0.11381053 1.682 66 70 63 255
0.0047626346 -0.11401345 1.6850001 68 72 65 255
0.0093946336 -0.1140132 1.6850001 70 71 65 255
0.014034919 -0.11408047 1.6860001 69 70 64 255
0.018658493 -0.11401222 1.6850001 70 71 67 255
0.023317957 -0.11414681 1.687 70 71 67 255
0.027938604 -0.11407825 1.6860001 69 70 66 255
0.032553632 -0.11400954 1.6850001 71 72 66 255
0.037140958 -0.113873 1.6830001 72 73 67 255
0.04176677 -0.11387162 1.6830001 74 75 69 255
0.046364833 -0.11380241 1.682 76 77 71 255
0.050987519 -0.11380072 1.682 79 83 76 255
0.055609997 -0.11379886 1.682 80 83 79 255
0.06023223 -0.11379685 1.682 79 82 78 255
0.064815655 -0.11372703 1.6810001 83 86 82 255
0.069475926 -0.11379235 1.682 82 85 81 255
0.074141398 -0.11385752 1.6830001 83 86 82 255
0.078765258 -0.11385488 1.6830001 84 87 83 255
0.08328969 -0.11371679 1.6810001 86 89 85 255
0.087907374 -0.11371385 1.6810001 82 85 81 255
0.092469655 -0.11364309 1.6800001 85 88 84 255
0.097026058 -0.11357218 1.6790001 87 92 88 255
0.10151604 -0.1134335 1.677 88 93 90 255
0.1059946 -0.11329467 1.6750001 89 94 91 255
0.11046177 -0.11315571 1.6730001 87 92 89 255
0.11505503 -0.11315186 1.6730001 89 92 89 255
0.11964786 -0.11314789 1.6730001 86 89 86 255
0.12424016 -0.11314375 1.6730001 84 87 83 255
0.12860097 -0.11293659 1.6700001 85 88 84 255
0.13326378 -0.11299982 1.6710001 80 83 79 255
0.13784905 -0.11299526 1.6710001 82 85 81 255
0.14243379 -0.11299055 1.6710001 80 83 79 255
0.14710592 -0.11305332 1.6720001 81 84 81 255
0.15205517 -0.11331882 1.6760001 77 80 77 255
0.15711923 -0.11365174 1.6810001 78 81 78 255
0.16182525 -0.11371406 1.682 77 80 77 255
0.16614033 -0.11350585 1.6790001 78 81 78 255
0.17043832 -0.1132975 1.6760001 81 84 81 255
0.17482361 -0.11315663 1.674 77 80 77 255
0.17941168 -0.11315086 1.674 82 85 82 255
0.18410894 -0.11321254 1.6750001 82 85 81 255
0.1885857 -0.11313891 1.674 75 78 74 255
0.19282548 -0.11293001 1.6710001 80 83 80 255
0.19740254 -0.11292375 1.6710001 80 83 80 255
0.20161623 -0.11271463 1.6680001 101 104 101 255
0.2063072 -0.11277569 1.669 98 98 98 255
0.21062388 -0.11263394 1.6670001 88 88 88 255
0.215187 -0.11262722 1.6670001 82 82 80 255
0.21974935 -0.11262039 1.6670001 86 86 84 255
0.22417639 -0.11254589 1.6660001 91 94 91 255
0.22859716 -0.11247128 1.6650001 87 90 87 255
0.23329173 -0.11253168 1.6660001 85 88 85 255
0.23841928 -0.11279459 1.6700001 85 85 83 255
0.24342237 -0.11298981 1.6730001 75 75 73 255
0.24784812 -0.11291479 1.6720001 70 71 67 255
0.25181466 -0.11263707 1.6680001 46 49 45 255
0.25621963 -0.11256189 1.6670001 63 66 62 255
0.26046184 -0.11241911 1.6650001 105 108 105 255
0.2645331 -0.11220871 1.6620001 92 94 94 255
0.26907286 -0.11220082 1.6620001 88 90 90 255
0.27394095 -0.11232781 1.664 81 83 83 255
0.27881917 -0.11245474 1.6660001 77 77 75 255
0.28353733 -0.11251405 1.6670001 80 80 78 255
0.28774163 -0.1123708 1.6650001 78 78 76 255
0.2924608 -0.11242996 1.6660001 77 80 76 255
0.29682794 -0.11235406 1.6650001 79 82 79 255
0.30136985 -0.11234558 1.6650001 81 84 81 255
0.30591083 -0.11233703 1.6650001 82 85 82 255
0.31045094 -0.11232844 1.6650001 84 87 84 255
0.31536853 -0.11245467 1.6670001 83 86 83 255
0.31991234 -0.11244593 1.6670001 80 83 79 255
0.3246499 -0.11250456 1.6680001 81 84 80 255
0.32919466 -0.11249568 1.6680001 80 84 77 255
0.33373857 -0.11248677 1.6680001 77 83 76 255
0.33787593 -0.11234294 1.6660001 80 86 79 255
0.34200159 -0.11219907 1.664 81 87 80 255
0.34653196 -0.11219003 1.664 78 83 79 255
0.35127243 -0.11224836 1.6650001 79 84 80 255
0.35601747 -0.11230663 1.6660001 83 86 82 255
0.36119995 -0.11249967 1.669 82 85 81 255
0.36595964 -0.11255786 1.6700001 78 81 77 255
0.37028018 -0.1124812 1.669 78 81 77 255
0.37436989 -0.11233715 1.6670001 80 83 79 255
0.37844783 -0.11219309 1.6650001 82 85 81 255
0.38251418 -0.11204904 1.6630001 84 87 84 255
0.38703418 -0.11203972 1.6630001 87 90 87 255
0.39178884 -0.11209776 1.664 84 86 86 255
0.39654818 -0.11215578 1.6650001 88 90 90 255
0.40083039 -0.11207905 1.664 84 86 86 255
0.40510637 -0.11200235 1.6630001 85 88 85 255
0.40962243 -0.11199299 1.6630001 85 88 85 255
0.41538292 -0.11232033 1.6680001 84 87 84 255
0.42091802 -0.11258026 1.6720001 84 87 83 255
0.42647415 -0.11284018 1.6760001 83 86 82 255
0.43179405 -0.11303274 1.6790001 83 86 82 255
0.43738946 -0.11329259 1.6830001 82 85 81 255
0.44248056 -0.11341777 1.6850001 82 85 81 255
0.44758189 -0.11354296 1.687 79 82 78 255
0.45242545 -0.11360087 1.6880001 79 82 79 255
0.45700297 -0.11359148 1.6880001 81 84 81 255
0.4621267 -0.11371671 1.6900001 77 80 77 255
0.46753678 -0.11390922 1.6930001 79 82 79 255
0.47324148 -0.11416901 1.697 79 82 79 255
0.47896725 -0.11442882 1.7010001 74 79 76 255
0.48329264 -0.11435227 1.7 79 82 79 255
0.48761213 -0.11427579 1.6990001 79 82 79 255
0.49076673 -0.11393035 1.6940001 74 78 78 255
0.49418625 -0.11365226 1.6900001 76 80 82 255
0.4975836 -0.11337429 1.6860001 86 89 93 255
0.50006527 -0.11289469 1.6790001 90 91 95 255
0.50250858 -0.11241522 1.6720001 109 111 113 255
0.50673306 -0.11233929 1.6710001 86 88 90 255
0.51217562 -0.1125323 1.674 81 81 79 255
0.51763409 -0.11272538 1.677 67 68 64 255
0.52092874 -0.112448 1.6730001 65 66 62 255
0.52451557 -0.11223795 1.6700001 66 67 63 255
0.52808589 -0.11202803 1.6670001 66 69 65 255
0.53227872 -0.11195261 1.6660001 65 70 67 255
0.53582144 -0.11174291 1.6630001 72 76 76 255
0.5386979 -0.11139895 1.6580001 94 98 100 255
0.54220247 -0.11118951 1.6550001 95 98 102 255
0.54635119 -0.11111456 1.654 94 97 101 255
0.55116045 -0.11117408 1.6550001 95 97 99 255
0.55765384 -0.11156955 1.6610001 86 89 86 255
0.5638411 -0.11189791 1.6660001 80 83 79 255
0.56937319 -0.11209201 1.669 43 47 40 255
0.57320219 -0.11195043 1.6670001 51 52 46 255
0.57632738 -0.1116747 1.6630001 59 63 56 255
0.57978022 -0.11146627 1.6600001 60 64 57 255
0.58356899 -0.11132514 1.6580001 70 73 69 255
0.58699232 -0.11111701 1.6550001 77 80 76 255
0.59039974 -0.11090907 1.6520001 80 83 79 255
0.59451121 -0.11083554 1.651 82 85 81 255
0.59934324 -0.11089644 1.6520001 82 85 81 255
0.60491204 -0.11109173 1.6550001 75 79 72 255
0.61012918 -0.11122003 1.6570001 72 76 69 255
0.61461568 -0.11121423 1.6570001 76 80 73 255
0.618729 -0.11114149 1.6560001 75 76 70 255
0.62283748 -0.11106892 1.6550001 85 87 79 255
0.62542474 -0.11072809 1.6500001 16 18 10 255
0.62836725 -0.11045458 1.646 22 25 13 255
0.63090432 -0.11011416 1.641 26 29 17 255
0.63496363 -0.11004238 1.6400001 27 30 18 255
0.63901812 -0.10997076 1.6390001 27 30 18 255
0.64189029 -0.10969805 1.6350001 27 30 18 255
0.64553213 -0.10955976 1.6330001 25 28 16 255
0.64956194 -0.10948876 1.6320001 26 29 17 255
0.6531865 -0.10935086 1.6300001 27 30 18 255
0.65599412 -0.10907901 1.626 29 30 18 255
0.65837502 -0.10874031 1.6210001 27 28 16 255
0.66236538 -0.10867018 1.6200001 25 26 12 255
0.66470492 -0.10833194 1.6150001 25 26 12 255
0.66908991 -0.10832932 1.6150001 23 24 10 255
0.67264205 -0.10819277 1.613 26 27 13 255
0.67828327 -0.10839183 1.6160001 23 24 10 255
0.68140733 -0.10818866 1.613 22 23 9 255
0.68579197 -0.10818698 1.613 25 26 12 255
0.68846649 -0.10791724 1.6090001 25 26 12 255
0.6902594 -0.10751361 1.603 32 33 19 255
0.69288796 -0.10724438 1.5990001 30 31 17 255
0.70203698 -0.10798145 1.6100001 32 35 21 255
0.71036988 -0.10858461 1.6190001 25 30 16 255
0.71478009 -0.10858442 1.6190001 17 24 13 255
0.71830368 -0.10845038 1.6170001 85 93 85 255
0.72092426 -0.10818245 1.613 136 144 141 255
0.72442424 -0.10804893 1.6110001 167 174 176 255
0.72610563 -0.10764743 1.605 180 185 191 255
0.72730118 -0.10717911 1.598 181 186 192 255
0.72846055 -0.10671109 1.5910001 185 190 197 255
0.73004436 -0.1063104 1.585 185 190 197 255
0.73067093 -0.10577586 1.577 187 192 199 255
0.73125601 -0.10524158 1.5690001 188 193 199 255
0.73179954 -0.10470759 1.5610001 190 195 201 255
0.73513085 -0.10457633 1.559 191 196 202 255
0.7341851 -0.10384165 1.5480001 193 198 204 255
0.73413551 -0.10324139 1.539 193 198 204 255
0.73307967 -0.10250725 1.5280001 193 198 204 255
0.73341346 -0.10197463 1.5200001 194 199 205 255
0.73225033 -0.101241 1.5090001 195 200 207 255
0.73346931 -0.1008431 1.503 196 201 208 255
-0.96407187 -0.12536782 1.7930001 25 26 20 255
-0.97993112 -0.12808041 1.8320001 29 30 24 255
-0.98653215 -0.12960453 1.8540001 36 35 29 255
-0.95172834 -0.12567678 1.7980001 31 33 25 255
-0.94883347 -0.12594382 1.802 27 29 19 255
-0.97158563 -0.12963562 1.8550001 27 27 17 255
-0.96643579 -0.12962371 1.8550001 25 26 14 255
-0.94418913 -0.12730651 1.8220001 26 27 15 255
-0.92006838 -0.12471074 1.7850001 25 23 12 255
-0.93614542 -0.12756494 1.8260001 23 21 10 255
-0.94231129 -0.12909192 1.848 25 21 10 255
-0.93720263 -0.12908243 1.848 24 20 9 255
-0.93260252 -0.12914327 1.8490001 24 20 9 255
-0.92499107 -0.12878551 1.8440001 23 19 8 255
-0.92090285 -0.12891707 1.8460001 22 18 7 255
-0.9202804 -0.12953788 1.8550001 24 21 7 255
-0.91369164 -0.12932113 1.8520001 23 20 6 255
-0.90957612 -0.12945394 1.8540001 23 20 6 255
-0.90301365 -0.12923805 1.8510001 25 22 8 255
-0.89550096 -0.12888299 1.8460001 26 23 7 255
-0.88898367 -0.12866797 1.8430001 26 23 7 255
-0.8906396 -0.12964019 1.8570001 26 23 7 255
-0.88745302 -0.12991461 1.8610001 27 24 8 255
-0.89041132 -0.13109694 1.8780001 29 26 12 255
-0.88573712 -0.13116269 1.8790001 26 25 11 255
-0.87731123 -0.13067038 1.8720001 23 21 10 255
-0.86799461 -0.1300389 1.863 25 23 12 255
-0.86753029 -0.13073398 1.8730001 23 22 8 255
-0.85596347 -0.12975428 1.8590001 23 22 8 255
-0.84996802 -0.12961252 1.8570001 25 24 10 255
-0.84262115 -0.12926172 1.8520001 27 24 10 255
-0.83575624 -0.12898108 1.848 27 24 10 255
-0.82621825 -0.12828203 1.8380001 29 26 12 255
-0.81360966 -0.12709476 1.8210001 35 31 17 255
-0.79265845 -0.12458174 1.7850001 21 16 6 255
-0.76131344 -0.12039399 1.725 156 151 144 255
-0.7417013 -0.11802118 1.6910001 255 255 248 255
-0.73142987 -0.11711433 1.6780001 235 237 229 255
-0.72426325 -0.11669629 1.6720001 145 149 141 255
-0.7192831 -0.11662751 1.6710001 169 173 165 255
-0.7121712 -0.11621001 1.6650001 235 237 229 255
-0.70466858 -0.11572297 1.6580001 228 230 222 255
-0.69847232 -0.11544556 1.654 147 152 141 255
-0.6931383 -0.115308 1.6520001 186 189 177 255
-0.68865019 -0.11531027 1.6520001 207 211 194 255
-0.68333501 -0.11517318 1.6500001 195 199 181 255
-0.67803192 -0.11503633 1.6480001 167 171 153 255
-0.67274082 -0.1148997 1.646 157 161 143 255
-0.66786784 -0.11483312 1.6450001 158 162 144 255
-0.66300112 -0.11476674 1.6440001 163 165 147 255
-0.65774035 -0.11463076 1.6420001 165 167 149 255
-0.65288919 -0.11456481 1.641 169 171 153 255
-0.64843947 -0.11456887 1.641 172 176 159 255
-0.64399064 -0.11457314 1.641 171 173 156 255
-0.63954258 -0.11457762 1.641 176 177 163 255
-0.63470829 -0.11451247 1.6400001 183 186 174 255
-0.63026446 -0.11451735 1.6400001 188 191 177 255
-0.62543952 -0.11445256 1.6390001 179 183 166 255
-0.62099963 -0.1144578 1.6390001 153 157 140 255
-0.61656028 -0.11446321 1.6390001 154 158 140 255
-0.61249489 -0.11453865 1.6400001 148 152 134 255
-0.60842466 -0.11461425 1.641 165 169 151 255
-0.60324514 -0.1144805 1.6390001 165 167 149 255
-0.59844232 -0.11441676 1.6380001 163 165 147 255
-0.59400785 -0.11442301 1.6380001 171 175 157 255
-0.58921373 -0.11435955 1.6370001 175 179 161 255
-0.58406812 -0.11422639 1.6350001 169 173 155 255
-0.57928807 -0.11416322 1.6340001 174 178 160 255
-0.5748654 -0.11417004 1.6340001 168 174 156 255
-0.5707922 -0.1142469 1.6350001 166 172 154 255
-0.56567436 -0.11411425 1.6330001 161 167 149 255
-0.5612548 -0.1141215 1.6330001 151 157 139 255
-0.55615336 -0.11398908 1.631 151 155 137 255
-0.55173934 -0.11399656 1.631 159 163 145 255
-0.5469898 -0.11393427 1.6300001 160 164 147 255
-0.5425784 -0.11394198 1.6300001 163 167 149 255
-0.53783673 -0.1138799 1.6290001 165 169 151 255
-0.53310049 -0.11381792 1.628 168 172 154 255
-0.52869421 -0.11382593 1.628 162 166 148 255
-0.52364373 -0.11369423 1.626 166 170 152 255
-0.51956195 -0.11377238 1.6270001 161 165 147 255
-0.51484108 -0.11371075 1.626 163 167 149 255
-0.51012552 -0.11364922 1.6250001 159 163 145 255
-0.50541508 -0.11358776 1.6240001 159 163 145 255
-0.50101823 -0.11359631 1.6240001 159 163 145 255
-0.49692699 -0.11367492 1.6250001 159 163 145 255
-0.49252671 -0.11368363 1.6250001 154 158 140 255
-0.48812619 -0.11369242 1.6250001 160 164 146 255
