ply
format ascii 1.0
comment PCL generated
element vertex 1012
property float x
property float y
property float z
property uchar red
property uchar green
property uchar blue
property uchar alpha
element camera 0
property float view_px
property float view_py
property float view_pz
property float x_axisx
property float x_axisy
property float x_axisz
property float y_axisx
property float y_axisy
property float y_axisz
property float z_axisx
property float z_axisy
property float z_axisz
property float focal
property float scalex
property float scaley
property float centerx
property float centery
property int viewportx
property int viewporty
property float k1
property float k2
end_header
0.31718609 0.093392521 1.5230001 72 79 68 255
0.32133186 0.093384922 1.5230001 75 81 73 255
0.32569054 0.093438588 1.524 71 79 71 255
0.32983747 0.093430907 1.524 70 78 70 255
0.33420274 0.093484506 1.5250001 73 79 71 255
0.3383508 0.093476772 1.5250001 68 74 66 255
0.34249806 0.093469001 1.5250001 67 73 65 255
0.34641725 0.093399942 1.524 67 73 65 255
0.35079035 0.09345343 1.5250001 67 73 65 255
0.35493535 0.093445614 1.5250001 69 75 67 255
0.35931501 0.093499057 1.526 68 72 64 255
0.36346123 0.093491212 1.526 69 75 67 255
0.36808854 0.093605891 1.5280001 70 74 66 255
0.37223876 0.093598031 1.5280001 68 74 66 255
0.37688088 0.093712658 1.5300001 71 75 67 255
0.38103506 0.093704768 1.5300001 70 74 66 255
0.38518858 0.093696892 1.5300001 70 74 66 255
0.38959584 0.093750246 1.531 69 74 63 255
0.39375073 0.093742371 1.531 67 72 60 255
0.3981649 0.093795747 1.5320001 65 70 56 255
0.40232113 0.093787879 1.5320001 68 73 59 255
0.40647674 0.093780048 1.5320001 66 71 57 255
0.41116783 0.093894653 1.534 65 72 60 255
0.4153277 0.093886837 1.534 65 72 60 255
0.41948697 0.093879052 1.534 62 69 57 255
0.42364565 0.093871295 1.534 62 69 58 255
0.42808264 0.093924761 1.5350001 64 71 59 255
0.4328061 0.094039425 1.5370001 65 72 60 255
0.43697128 0.094031751 1.5370001 69 76 65 255
0.44113597 0.094024107 1.5370001 69 76 64 255
0.44558984 0.094077684 1.5380001 70 77 66 255
0.45034114 0.094192453 1.5400001 67 74 63 255
0.4548077 0.094246089 1.5410001 68 75 64 255
0.45957699 0.094360918 1.5430001 69 74 63 255
0.46435684 0.094475783 1.5450001 64 69 58 255
0.46884379 0.094529547 1.5460001 64 69 57 255
0.47302985 0.094522215 1.5460001 64 71 59 255
0.47721559 0.094514951 1.5460001 65 73 58 255
0.48140094 0.094507746 1.5460001 64 71 59 255
0.48590013 0.094561726 1.5470001 64 71 59 255
0.49040449 0.09461578 1.5480001 63 70 58 255
0.49363595 0.094425432 1.5450001 61 69 54 255
0.49685103 0.094235189 1.5420001 59 66 54 255
0.50004953 0.094045036 1.539 61 70 58 255
0.50421464 0.094038315 1.539 64 73 62 255
0.50705832 0.09378729 1.5350001 70 79 68 255
0.50921404 0.093414195 1.529 79 87 79 255
0.51268029 0.093285605 1.5270001 72 81 70 255
0.51748937 0.093401469 1.529 70 77 66 255
0.52299166 0.093639582 1.5330001 67 74 62 255
0.52645242 0.093511291 1.531 58 65 53 255
0.52920914 0.093260966 1.5270001 45 52 40 255
0.53124589 0.092888646 1.521 70 77 65 255
0.53465825 0.092760757 1.5190001 71 78 66 255
0.53983313 0.092938296 1.5220001 69 74 62 255
0.54752636 0.093543358 1.5320001 72 75 61 255
0.55419356 0.093965292 1.539 68 71 57 255
0.55908501 0.094082065 1.5410001 28 32 15 255
0.56179434 0.093832627 1.5370001 38 42 25 255
0.56521881 0.093705446 1.5350001 45 49 32 255
0.56752008 0.093395293 1.5300001 46 51 37 255
0.57091552 0.093268417 1.5280001 46 51 39 255
0.57392424 0.093080662 1.5250001 46 53 42 255
0.57653815 0.092832021 1.521 54 60 52 255
0.57913083 0.092583567 1.5170001 68 75 64 255
0.58247143 0.092457339 1.5150001 70 77 66 255
0.58696336 0.092514344 1.516 70 76 68 255
0.59146124 0.092571504 1.5170001 69 76 65 255
0.59596527 0.092628814 1.5180001 68 75 64 255
0.59968477 0.092564248 1.5170001 69 76 65 255
0.60220563 0.092316814 1.5130001 73 82 71 255
0.60630852 0.092313603 1.5130001 72 81 70 255
0.61000878 0.092249572 1.5120001 72 79 68 255
0.61573529 0.092490748 1.516 75 80 69 255
0.62025791 0.092549086 1.5170001 80 85 73 255
0.62602168 0.092790611 1.521 14 17 5 255
0.62932247 0.092666291 1.5190001 19 22 10 255
0.63136238 0.092359155 1.5140001 19 22 10 255
0.6337961 0.092113227 1.5100001 17 20 8 255
0.63578683 0.091806516 1.5050001 19 22 10 255
0.6394521 0.091743991 1.5040001 21 24 10 255
0.64225769 0.091559693 1.501 21 24 10 255
0.71378422 0.091816351 1.5050001 13 21 6 255
0.71647829 0.091636337 1.5020001 11 21 6 255
-0.92553508 0.098980516 1.6950001 16 18 10 255
-0.89417511 0.096107356 1.646 15 17 9 255
-0.87369066 0.094859146 1.6250001 15 17 9 255
-0.87611276 0.095607512 1.6380001 17 17 9 255
-0.87953103 0.096472815 1.6530001 19 19 9 255
-0.86169821 0.095004067 1.628 19 19 9 255
-0.88402438 0.09797065 1.6790001 18 18 8 255
-0.89297771 0.099478394 1.705 19 19 9 255
-0.89501858 0.10022784 1.7180001 19 19 9 255
-0.88973671 0.10016084 1.7170001 17 19 11 255
-0.87312543 0.098810978 1.6940001 14 16 8 255
-0.87715155 0.099794701 1.7110001 16 18 10 255
-0.87802809 0.10042872 1.7220001 16 18 10 255
-0.86261982 0.099196859 1.7010001 14 16 8 255
-0.85994035 0.099423349 1.705 15 17 9 255
-0.87229067 0.10139943 1.7390001 16 16 8 255
-0.87647527 0.10244272 1.7570001 15 17 9 255
-0.86816198 0.10202867 1.7500001 18 18 10 255
-0.83867705 0.099108167 1.7 16 18 8 255
-0.83301896 0.098986499 1.6980001 17 19 9 255
-0.83274126 0.099506408 1.7070001 16 18 8 255
-0.8304767 0.099793404 1.7120001 18 20 10 255
-0.82529366 0.099730968 1.7110001 19 21 11 255
-0.81388426 0.098911129 1.697 20 20 10 255
-0.77346623 0.094536357 1.6220001 24 22 12 255
-0.77044314 0.094708137 1.6250001 5 3 0 255
-0.75656444 0.093539745 1.605 231 232 220 255
-0.74420381 0.092546545 1.5880001 137 143 118 255
-0.73287028 0.0916702 1.5730001 168 178 155 255
-0.72301066 0.090968996 1.5610001 204 212 187 255
-0.71644199 0.090675995 1.5560001 155 163 137 255
-0.7112757 0.090558074 1.554 133 140 109 255
-0.70703238 0.090556942 1.554 128 134 99 255
-0.70188659 0.090439521 1.552 134 139 99 255
-0.69720328 0.090380609 1.5510001 132 137 95 255
-0.69252712 0.090321913 1.5500001 129 133 97 255
-0.68741417 0.090205207 1.5480001 184 187 155 255
-0.68231386 0.090088703 1.5460001 137 142 111 255
-0.67722601 0.089972422 1.544 122 126 98 255
-0.67302251 0.089972906 1.544 121 127 102 255
-0.66838747 0.089915343 1.5430001 164 172 147 255
-0.66375935 0.089857981 1.5420001 153 161 135 255
-0.65913802 0.08980082 1.5410001 171 179 153 255
-0.65409851 0.089685582 1.539 163 173 147 255
-0.64864886 0.089512266 1.536 160 170 144 255
-0.64321691 0.089339152 1.5330001 154 164 139 255
-0.63863605 0.089282766 1.5320001 143 153 130 255
-0.63406181 0.089226566 1.531 153 163 140 255
-0.62990552 0.089228824 1.531 152 162 139 255
-0.62493294 0.089114703 1.529 156 166 143 255
-0.62078422 0.089117326 1.529 160 170 147 255
-0.61623311 0.089061834 1.5280001 152 162 139 255
-0.61168826 0.089006498 1.5270001 167 176 155 255
-0.60675192 0.088893041 1.5250001 142 151 130 255
-0.60143209 0.088721454 1.5220001 139 148 127 255
-0.59691405 0.088666581 1.521 146 155 134 255
-0.59240234 0.088611886 1.5200001 152 162 139 255
-0.58867067 0.088673919 1.521 152 162 139 255
-0.58454996 0.088677801 1.521 149 159 136 255
-0.58004814 0.088623539 1.5200001 153 163 140 255
-0.57517344 0.088511102 1.5180001 149 159 136 255
-0.57031012 0.088398784 1.516 148 157 136 255
-0.56583148 0.088344909 1.5150001 153 162 141 255
-0.56172955 0.088349476 1.5150001 139 149 126 255
-0.55689186 0.088237546 1.5130001 145 152 130 255
-0.55316138 0.088300683 1.5140001 142 149 127 255
-0.54870057 0.088247292 1.5130001 139 149 126 255
-0.54460531 0.088252358 1.5130001 144 153 132 255
-0.54015303 0.088199191 1.5120001 139 148 127 255
-0.53677011 0.088321157 1.5140001 135 145 122 255
-0.53196913 0.088209882 1.5120001 149 159 136 255
-0.52787733 0.088215381 1.5120001 148 158 135 255
-0.52274644 0.088045947 1.5090001 153 162 141 255
-0.51866299 0.088051647 1.5090001 162 171 150 255
-0.51321554 0.087824032 1.5050001 165 174 153 255
-0.50880462 0.087771535 1.5040001 154 163 142 255
-0.50372797 0.087602422 1.501 146 156 131 255
-0.49966612 0.087608457 1.501 139 147 121 255
-0.49527404 0.087556221 1.5000001 128 136 110 255
-0.49121475 0.087562427 1.5000001 130 140 114 255
-0.48715532 0.087568715 1.5000001 135 145 119 255
-0.48309571 0.087575078 1.5000001 134 144 119 255
-0.47903591 0.087581515 1.5000001 138 148 123 255
-0.33280313 0.087898038 1.501 132 141 112 255
-0.32850131 0.087846771 1.5000001 127 136 107 255
-0.3170996 0.08810278 1.5040001 138 146 120 255
-0.31383792 0.088344306 1.508 135 143 117 255
-0.31096447 0.088703014 1.5140001 132 140 114 255
-0.3082602 0.089120343 1.521 144 152 126 255
-0.30551702 0.089537688 1.5280001 146 156 131 255
-0.30273485 0.089955062 1.5350001 150 160 135 255
-0.29971927 0.090313859 1.5410001 148 158 135 255
-0.29686192 0.090731271 1.5480001 154 161 139 255
-0.29377651 0.091090068 1.554 143 150 128 255
-0.29047126 0.091390267 1.559 109 116 94 255
-0.28713796 0.091690473 1.5640001 49 56 35 255
-0.2843191 0.092166536 1.572 0 5 0 255
-0.28109947 0.092525341 1.5780001 60 69 50 255
-0.27767089 0.09282551 1.5830001 62 70 53 255
-0.27386886 0.093008377 1.5860001 61 69 54 255
-0.26987961 0.093132548 1.5880001 63 71 56 255
-0.26537696 0.093080722 1.5870001 75 82 70 255
-0.26087898 0.093028829 1.5860001 54 61 49 255
-0.2565473 0.093035497 1.5860001 48 55 44 255
-0.25205585 0.092983432 1.585 47 54 43 255
-0.24772537 0.092989966 1.585 47 54 43 255
-0.24354762 0.093055092 1.5860001 52 61 50 255
-0.23906188 0.093002789 1.585 71 80 69 255
-0.23472896 0.093009077 1.585 57 64 53 255
-0.2302499 0.092956603 1.5840001 52 59 47 255
-0.22577551 0.092904039 1.5830001 54 62 47 255
-0.22130577 0.092851378 1.582 54 62 47 255
-0.21670362 0.092739932 1.58 39 47 32 255
-0.21238051 0.092745781 1.58 49 56 44 255
-0.20779328 0.092634134 1.5780001 57 64 52 255
-0.20334522 0.092581093 1.577 61 70 58 255
-0.19877562 0.092469223 1.575 63 72 60 255
-0.19433981 0.092415981 1.5740001 53 62 50 255
-0.19002947 0.092421338 1.5740001 61 70 59 255
-0.1856004 0.092367873 1.5730001 59 68 57 255
-0.18129143 0.092373043 1.5730001 49 58 47 255
-0.17686924 0.092319369 1.572 67 76 65 255
-0.17256165 0.092324324 1.572 51 60 49 255
-0.16825339 0.092329167 1.572 56 65 54 255
-0.16373594 0.092216447 1.5700001 49 56 45 255
-0.15933035 0.092162341 1.5690001 55 62 51 255
-0.15512726 0.092225604 1.5700001 64 71 60 255
-0.15082201 0.092230022 1.5700001 58 65 54 255
-0.14651619 0.092234336 1.5700001 55 62 51 255
-0.14220978 0.092238531 1.5700001 61 68 57 255
-0.1379028 0.092242606 1.5700001 51 60 49 255
-0.13351022 0.092187829 1.5690001 63 72 61 255
-0.12912256 0.092132926 1.5680001 63 70 59 255
-0.12473988 0.092077889 1.567 63 70 59 255
-0.12043905 0.09208151 1.567 60 67 56 255
-0.11621185 0.092143781 1.5680001 51 58 47 255
-0.1119073 0.092147164 1.5680001 54 61 50 255
-0.10760231 0.09215042 1.5680001 53 60 49 255
-0.103231 0.092094779 1.567 45 52 41 255
-0.098864757 0.092039034 1.5660001 50 57 45 255
-0.094503604 0.091983147 1.5650001 62 69 58 255
-0.090147555 0.091927148 1.5640001 49 55 47 255
-0.085851505 0.091929786 1.5640001 51 55 47 255
-0.081555106 0.091932304 1.5640001 51 55 47 255
-0.077208966 0.091875918 1.5630001 51 55 47 255
-0.072914645 0.091878183 1.5630001 90 97 86 255
-0.068620034 0.091880329 1.5630001 82 89 78 255
-0.064407423 0.091999911 1.5650001 57 64 52 255
-0.060183559 0.092119373 1.567 54 59 47 255
-0.055984095 0.092297502 1.5700001 54 59 47 255
-0.051636275 0.092240348 1.5690001 55 60 48 255
-0.04732389 0.092241853 1.5690001 52 57 46 255
-0.043011304 0.092243239 1.5690001 56 61 50 255
-0.038723193 0.092303269 1.5700001 53 58 47 255
-0.034407508 0.092304386 1.5700001 53 60 48 255
-0.030110847 0.09236417 1.5710001 55 62 50 255
-0.025792139 0.092365026 1.5710001 55 62 50 255
-0.021445982 0.092248157 1.5690001 56 63 51 255
-0.017121648 0.092189953 1.5680001 55 62 50 255
-0.01281091 0.092190415 1.5680001 56 63 51 255
-0.0085001178 0.092190728 1.5680001 56 63 51 255
-0.0041866167 0.092132129 1.567 57 64 52 255
0.00012140335 0.092073403 1.5660001 57 64 53 255
0.0044267513 0.092073329 1.5660001 58 67 56 255
0.0087376554 0.09213192 1.567 59 67 59 255
0.013037372 0.0920728 1.5660001 63 69 61 255
0.017331533 0.09201353 1.5650001 62 68 60 255
0.021620121 0.091954149 1.5640001 66 72 64 255
0.025903119 0.091894627 1.5630001 67 73 65 255
0.030161185 0.091776185 1.5610001 70 79 68 255
0.034474339 0.091833986 1.562 67 76 65 255
0.038792845 0.091891669 1.5630001 63 72 61 255
0.043116681 0.09194921 1.5640001 66 73 62 255
0.047415514 0.091947824 1.5640001 66 72 64 255
0.051681072 0.091887526 1.5630001 61 67 59 255
0.055940926 0.091827102 1.562 65 71 63 255
0.06019504 0.091766544 1.5610001 66 73 62 255
0.064567335 0.091882229 1.5630001 65 72 61 255
0.068862237 0.09188021 1.5630001 62 69 58 255
0.073156841 0.091878064 1.5630001 64 71 60 255
0.077401586 0.091817006 1.562 64 71 60 255
0.081692822 0.091814607 1.562 62 68 60 255
0.085983701 0.091812082 1.562 67 73 65 255
0.090158649 0.091691881 1.5600001 67 73 65 255
0.094261691 0.091512792 1.557 77 83 76 255
0.098474428 0.091451138 1.5560001 80 86 79 255
0.10268127 0.091389351 1.5550001 74 80 73 255
0.10701977 0.091445014 1.5560001 67 73 65 255
0.1112918 0.091441765 1.5560001 61 68 57 255
0.11548908 0.091379635 1.5550001 64 70 62 255
0.11960342 0.091258638 1.5530001 81 87 79 255
0.12362651 0.091078758 1.5500001 82 88 81 255
0.12796266 0.091133818 1.5510001 74 80 73 255
0.13238904 0.091247521 1.5530001 68 74 66 255
0.13700184 0.091478594 1.557 64 71 60 255
0.14163606 0.091709532 1.5610001 63 70 59 255
0.14601122 0.091764107 1.562 61 69 54 255
0.15029508 0.091759816 1.562 63 70 58 255
0.15438043 0.091637932 1.5600001 63 70 58 255
0.15845421 0.091515943 1.5580001 62 69 57 255
0.16251643 0.091393881 1.5560001 63 70 59 255
0.16645986 0.091212966 1.5530001 66 73 62 255
0.17049615 0.091090724 1.5510001 65 74 63 255
0.17474617 0.091085814 1.5510001 70 79 68 255
0.1787647 0.090963379 1.549 72 81 70 255
0.18312606 0.091017015 1.5500001 69 78 66 255
0.18737134 0.091011822 1.5500001 67 74 62 255
0.19173954 0.091065258 1.5510001 66 73 61 255
0.19611253 0.091118574 1.552 65 72 60 255
0.20010298 0.090995684 1.5500001 61 68 56 255
0.20408177 0.09087272 1.5480001 66 73 62 255
0.20777977 0.090632275 1.544 66 73 62 255
0.21186702 0.090567857 1.5430001 72 81 70 255
0.21580806 0.090444677 1.5410001 79 85 77 255
0.22073683 0.090732232 1.5460001 84 90 82 255
0.22540118 0.090902299 1.549 64 71 60 255
0.22963642 0.090896226 1.549 58 62 54 255
0.23341794 0.090714052 1.5460001 57 63 55 255
0.23718229 0.090531804 1.5430001 64 70 62 255
0.24124233 0.090466842 1.5420001 67 73 66 255
0.24513701 0.090343177 1.5400001 63 69 62 255
0.24901989 0.090219431 1.5380001 55 63 55 255
0.25322035 0.090212949 1.5380001 58 66 58 255
0.25691792 0.090030454 1.5350001 69 77 69 255
0.26110861 0.090023853 1.5350001 77 83 75 255
0.26529849 0.090017185 1.5350001 68 74 66 255
0.26966313 0.0900691 1.536 61 68 57 255
0.27367577 0.090003669 1.5350001 54 61 50 255
0.27732018 0.089820936 1.5320001 64 73 62 255
0.28094739 0.089638174 1.529 67 76 65 255
0.28474391 0.08951401 1.5270001 78 87 76 255
0.28890705 0.089507036 1.5270001 74 81 70 255
0.2938371 0.089734457 1.531 70 76 68 255
0.29839891 0.089844599 1.5330001 70 76 68 255
0.30218121 0.089720249 1.531 71 76 65 255
0.30575174 0.089537285 1.5280001 72 78 70 255
0.30971074 0.089471489 1.5270001 66 72 64 255
0.31345797 0.089347079 1.5250001 65 71 63 255
0.31740177 0.089281239 1.524 70 76 68 255
0.32176125 0.089332521 1.5250001 71 79 71 255
0.32633919 0.08944235 1.5270001 69 78 67 255
0.33071074 0.089493558 1.5280001 70 76 68 255
0.33508685 0.089544713 1.529 69 75 67 255
0.33880213 0.089420177 1.5270001 69 75 67 255
0.34273025 0.08935418 1.526 72 78 70 255
0.34665218 0.089288168 1.5250001 73 77 69 255
0.35102803 0.089339249 1.526 70 76 68 255
0.35517573 0.089331754 1.526 72 78 70 255
0.35955817 0.08938279 1.5270001 71 78 67 255
0.36394531 0.089433804 1.5280001 70 76 68 255
0.36857808 0.089543335 1.5300001 72 78 70 255
0.37297729 0.089594297 1.531 70 76 68 255
0.37738124 0.089645259 1.5320001 70 76 69 255
0.38154089 0.089637704 1.5320001 72 76 69 255
0.38544804 0.089571632 1.531 72 76 68 255
0.3893491 0.089505583 1.5300001 70 74 66 255
0.39375842 0.089556545 1.531 70 74 66 255
0.39817259 0.089607514 1.5320001 72 74 64 255
0.40232885 0.089599989 1.5320001 68 73 61 255
0.40648443 0.089592472 1.5320001 68 73 62 255
0.41117552 0.089701936 1.534 68 73 62 255
0.41560611 0.089752927 1.5350001 65 72 61 255
0.42031497 0.089862384 1.5370001 65 71 63 255
0.42448172 0.089854941 1.5370001 62 68 60 255
0.42892686 0.089905985 1.5380001 65 71 63 255
0.43337685 0.089957036 1.539 65 72 61 255
0.43754739 0.089949675 1.539 63 70 59 255
0.44171745 0.089942344 1.539 68 73 62 255
0.44646645 0.090051934 1.5410001 67 72 60 255
0.45122585 0.09016154 1.5430001 67 74 63 255
0.45570046 0.09021274 1.544 67 74 63 255
0.46018004 0.090263993 1.5450001 69 74 62 255
0.46496516 0.090373687 1.5470001 65 70 58 255
0.46945754 0.090425022 1.5480001 65 70 58 255
0.47395489 0.090476379 1.549 63 68 56 255
0.47814873 0.090469413 1.549 63 68 54 255
0.48296493 0.090579286 1.5510001 67 72 60 255
0.48747757 0.090630822 1.552 64 69 57 255
0.49231219 0.0907408 1.554 63 70 58 255
0.49492082 0.090442128 1.549 62 70 55 255
0.49846882 0.090318725 1.5470001 62 69 57 255
0.50103092 0.090020262 1.5420001 63 70 59 255
0.50520408 0.09001381 1.5420001 64 72 64 255
0.50772536 0.089715578 1.5370001 73 81 73 255
0.51121861 0.089592583 1.5350001 79 85 77 255
0.51570821 0.089644767 1.536 74 81 70 255
0.52121848 0.089872114 1.5400001 70 77 65 255
0.52709156 0.090157881 1.5450001 66 71 57 255
0.53196019 0.090268649 1.5470001 50 55 41 255
0.53545326 0.090146124 1.5450001 38 43 29 255
0.53684002 0.089673646 1.5370001 28 36 21 255
0.5378316 0.089143008 1.5280001 57 64 52 255
0.5423215 0.089195892 1.529 77 82 70 255
0.54931879 0.089657217 1.5370001 71 76 64 255
0.55563933 0.090001933 1.5430001 70 73 61 255
0.55945295 0.089938454 1.5420001 28 31 17 255
0.56253046 0.089758463 1.539 39 43 26 255
0.56559193 0.089578606 1.536 41 45 28 255
0.56863761 0.089398913 1.5330001 45 50 36 255
0.57166743 0.089219354 1.5300001 45 50 38 255
0.57430506 0.088981636 1.526 45 52 40 255
0.57692152 0.088744089 1.5220001 59 66 55 255
0.58066207 0.088681608 1.521 69 76 64 255
0.58439785 0.088619284 1.5200001 67 74 62 255
0.58929026 0.088731997 1.5220001 68 75 63 255
0.59263462 0.088611677 1.5200001 64 71 59 255
0.59675407 0.088608101 1.5200001 60 67 55 255
0.59968823 0.088429801 1.5170001 73 80 68 255
0.60260683 0.088251665 1.5140001 67 76 65 255
0.60631162 0.088190302 1.5130001 79 86 75 255
0.61081856 0.08824566 1.5140001 77 84 73 255
0.61655045 0.088476054 1.5180001 77 82 71 255
0.62189597 0.088648304 1.521 84 89 78 255
0.6264357 0.088704169 1.5220001 13 16 4 255
0.62808174 0.088352241 1.516 19 22 10 255
0.63094741 0.088175371 1.5130001 19 22 10 255
0.63547683 0.088231772 1.5140001 18 21 9 255
0.63874555 0.088113561 1.5120001 21 24 12 255
0.64200461 0.087995529 1.5100001 20 23 9 255
0.64439833 0.087761156 1.506 20 23 9 255
0.64634091 0.087468699 1.501 23 24 10 255
0.71188432 0.087481335 1.501 15 23 8 255
0.71552122 0.087425895 1.5000001 12 22 7 255
-0.90149778 0.091901742 1.651 17 19 9 255
-0.92730123 0.09500733 1.7070001 18 20 10 255
-0.9230724 0.09505178 1.7080001 17 19 9 255
-0.90701467 0.093872428 1.687 16 18 8 255
-0.90231079 0.093862131 1.687 18 20 10 255
-0.87809712 0.092285141 1.659 18 18 8 255
-0.87874997 0.092832349 1.669 18 18 8 255
-0.89244521 0.09477023 1.7040001 16 16 6 255
-0.90178245 0.096263215 1.7310001 17 17 9 255
-0.88506484 0.094975978 1.7080001 17 17 9 255
-0.8689943 0.093744919 1.6860001 14 16 8 255
-0.86945426 0.094293527 1.6960001 15 17 9 255
-0.87139255 0.095009178 1.7090001 14 16 8 255
-0.86565584 0.094891213 1.7070001 14 16 8 255
-0.85942966 0.094718024 1.7040001 14 16 8 255
-0.86676681 0.096045904 1.728 14 16 8 255
-0.8724786 0.097207211 1.7490001 16 18 10 255
-0.86170727 0.096534707 1.7370001 17 19 11 255
-0.84557879 0.095251322 1.7140001 15 17 9 255
-0.83693892 0.094801918 1.7060001 14 16 6 255
-0.83078533 0.094630703 1.7030001 18 18 8 255
-0.8285321 0.094904326 1.7080001 21 22 10 255
-0.81998408 0.09445592 1.7 19 20 8 255
-0.82251352 0.095285714 1.715 24 20 10 255
-0.78872252 0.091893338 1.654 29 25 15 255
-0.76522505 0.089668132 1.6140001 5 3 0 255
-0.75231957 0.088665545 1.5960001 214 215 201 255
-0.74045241 0.087774374 1.58 139 145 127 255
-0.73007292 0.087050162 1.567 203 214 193 255
-0.72115618 0.086492874 1.557 185 193 167 255
-0.71598005 0.086380266 1.5550001 127 136 107 255
-0.71035904 0.08621233 1.552 126 133 102 255
-0.7061215 0.086211294 1.552 124 129 98 255
-0.70143366 0.08615493 1.5510001 130 135 104 255
-0.69630367 0.086043246 1.549 129 136 105 255
-0.69073969 0.085876249 1.5460001 190 197 168 255
-0.68519378 0.08570946 1.5430001 141 148 119 255
-0.68098998 0.085709535 1.5430001 118 124 98 255
-0.67678785 0.085709818 1.5430001 136 142 117 255
-0.67258734 0.085710309 1.5430001 157 164 142 255
-0.66752195 0.085599907 1.5410001 171 181 158 255
-0.66203856 0.085434161 1.5380001 165 175 152 255
-0.65700048 0.085324131 1.536 165 175 152 255
-0.65154982 0.085158773 1.5330001 156 166 143 255
-0.64653897 0.08504913 1.531 146 156 133 255
-0.64195991 0.084995233 1.5300001 150 160 137 255
-0.63780427 0.08499705 1.5300001 148 158 135 255
-0.63323563 0.084943511 1.529 152 163 142 255
-0.62867367 0.084890142 1.5280001 147 156 135 255
-0.62370926 0.084781364 1.526 167 176 155 255
-0.61956882 0.084783882 1.526 161 171 148 255
-0.615026 0.084731005 1.5250001 165 172 150 255
-0.610089 0.084622726 1.5230001 141 148 126 255
-0.60516357 0.084514581 1.521 148 155 133 255
-0.60064507 0.084462166 1.5200001 147 157 134 255
-0.59613264 0.084409878 1.5190001 156 166 141 255
-0.59162647 0.084357761 1.5180001 159 169 144 255
-0.58712631 0.084305771 1.5170001 157 167 142 255
-0.58301651 0.084309489 1.5170001 148 158 132 255
-0.57814413 0.084202193 1.5150001 152 162 136 255
-0.57404089 0.084206186 1.5150001 152 162 137 255
-0.56880957 0.084043548 1.5120001 150 160 135 255
-0.56471539 0.084047794 1.5120001 148 158 133 255
-0.56025094 0.083996572 1.511 140 150 125 255
-0.55579221 0.083945468 1.5100001 149 157 131 255
-0.55207002 0.084005676 1.511 140 148 122 255
-0.5476175 0.083954804 1.5100001 142 150 124 255
-0.54389036 0.084015243 1.511 153 161 136 255
-0.53944367 0.083964586 1.5100001 153 160 138 255
-0.53535718 0.083969653 1.5100001 158 168 143 255
-0.53056705 0.083863571 1.508 160 170 145 255
-0.52613717 0.083813213 1.5070001 162 172 147 255
-0.5213663 0.083707333 1.5050001 160 170 147 255
-0.51660627 0.083601527 1.503 157 167 142 255
-0.51185721 0.083495796 1.501 145 155 132 255
-0.50745726 0.08344578 1.5000001 137 147 124 255
-0.29583895 0.083795525 1.5000001 141 151 126 255
-0.29233521 0.083969802 1.503 136 146 121 255
-0.29015672 0.084535167 1.5130001 134 142 117 255
-0.28716674 0.084877074 1.5190001 132 140 115 255
-0.28395686 0.085163094 1.524 144 151 129 255
-0.28016815 0.085281461 1.526 152 159 137 255
-0.27691033 0.085567459 1.531 155 162 141 255
-0.27451515 0.086132929 1.5410001 150 157 136 255
-0.27206451 0.08669842 1.5510001 152 158 140 255
-0.26955852 0.087263927 1.5610001 105 114 95 255
-0.26614735 0.087549932 1.5660001 59 68 49 255
-0.26254082 0.087780006 1.5700001 58 66 49 255
-0.25858262 0.087898217 1.572 36 44 29 255
-0.25477442 0.088072293 1.575 43 51 36 255
-0.25094908 0.088246331 1.5780001 41 48 36 255
-0.24710651 0.088420317 1.5810001 46 53 41 255
-0.24324672 0.08859425 1.5840001 58 65 53 255
-0.23876643 0.088544406 1.5830001 70 77 66 255
-0.2344389 0.088550411 1.5830001 65 72 61 255
-0.22996517 0.088500388 1.582 52 59 47 255
-0.22563879 0.088506222 1.582 52 59 47 255
-0.22117175 0.08845605 1.5810001 56 63 51 255
-0.21670939 0.088405773 1.58 36 45 33 255
-0.21238621 0.088411354 1.58 56 65 53 255
-0.20779887 0.088304937 1.5780001 55 64 52 255
-0.20347963 0.088310339 1.5780001 43 52 40 255
-0.19903344 0.08825969 1.577 56 66 51 255
-0.19446856 0.088152967 1.575 54 63 51 255
-0.19003467 0.088102132 1.5740001 60 69 57 255
-0.18548751 0.087995194 1.572 61 70 59 255
-0.18118115 0.088000119 1.572 49 58 47 255
-0.17676161 0.087948963 1.5710001 57 66 55 255
-0.17256644 0.088009678 1.572 55 64 53 255
-0.16815105 0.087958328 1.5710001 52 61 50 255
-0.16384482 0.087962866 1.5710001 49 56 45 255
-0.15943637 0.087911293 1.5700001 53 60 49 255
-0.15503283 0.087859623 1.5690001 50 55 44 255
-0.15063415 0.087807834 1.5680001 50 55 44 255
-0.14633369 0.087811947 1.5680001 42 49 37 255
-0.14203267 0.087815948 1.5680001 43 50 38 255
-0.13773108 0.087819844 1.5680001 47 54 43 255
-0.13334383 0.087767616 1.567 44 53 42 255
-0.12904391 0.087771297 1.567 53 60 49 255
-0.12466387 0.087718844 1.5660001 69 76 65 255
-0.12036566 0.087722294 1.5660001 70 77 66 255
-0.11606698 0.087725639 1.5660001 69 76 65 255
-0.11176781 0.087728873 1.5660001 69 76 65 255
-0.10753682 0.087787993 1.567 64 71 60 255
-0.10316814 0.087734975 1.5660001 59 66 55 255
-0.098804526 0.087681822 1.5650001 61 66 54 255
-0.094385594 0.08757253 1.5630001 55 60 49 255
-0.09003491 0.087519139 1.562 49 53 45 255
-0.085799135 0.087577693 1.5630001 53 57 49 255
-0.081557512 0.087636136 1.5640001 60 64 56 255
-0.077211246 0.087582387 1.5630001 89 93 85 255
-0.07287015 0.087528512 1.562 76 83 72 255
-0.06862206 0.087586597 1.5630001 59 66 54 255
-0.064491645 0.08781267 1.567 55 60 48 255
-0.060262159 0.087926559 1.5690001 53 58 46 255
-0.05598576 0.087984286 1.5700001 53 58 46 255
-0.051604897 0.087873764 1.5680001 54 59 48 255
-0.047295135 0.087875202 1.5680001 54 59 48 255
-0.042985171 0.087876521 1.5680001 56 61 50 255
-0.038675018 0.087877706 1.5680001 57 62 51 255
-0.034342788 0.087822728 1.567 53 60 48 255
-0.030054247 0.087879717 1.5680001 53 60 48 255
-0.025743658 0.087880529 1.5680001 57 64 52 255
-0.021432953 0.087881207 1.5680001 57 64 52 255
-0.01711124 0.087825723 1.567 56 63 51 255
-0.012811294 0.087882221 1.5680001 56 63 51 255
-0.0085003721 0.087882526 1.5680001 60 67 55 255
-0.004189414 0.087882712 1.5680001 58 65 53 255
0.00012140697 0.087770678 1.5660001 59 68 57 255
0.004424057 0.087714568 1.5650001 59 65 57 255
0.0087156128 0.087602273 1.5630001 64 70 62 255
0.012996136 0.087489866 1.5610001 67 73 65 255
0.017298827 0.087545462 1.562 64 70 62 255
0.02159312 0.087544896 1.562 69 75 67 255
0.02590389 0.087600246 1.5630001 68 74 66 255
0.030181408 0.087543383 1.562 64 73 62 255
0.034453299 0.087486409 1.5610001 67 76 65 255
0.038794 0.087597422 1.5630001 63 72 61 255
0.043117967 0.087652281 1.5640001 59 68 57 255
0.047416925 0.087650962 1.5640001 61 68 57 255
0.051649548 0.08753743 1.562 63 69 61 255
0.055906773 0.08747983 1.5610001 62 68 60 255
0.060158264 0.087422095 1.5600001 64 73 62 255
0.064527936 0.087532371 1.562 64 73 62 255
0.068864271 0.087586477 1.5630001 63 72 61 255
0.073159002 0.087584436 1.5630001 67 74 63 255
0.077354327 0.087470196 1.5610001 64 71 60 255
0.081590623 0.087411866 1.5600001 68 75 64 255
0.08576604 0.087297402 1.5580001 67 73 65 255
0.089987904 0.087238841 1.557 71 77 69 255
0.094143353 0.087124147 1.5550001 74 82 75 255
0.098414011 0.087121397 1.5550001 77 85 78 255
0.10261823 0.0870625 1.554 71 79 72 255
0.10695411 0.087115549 1.5550001 70 76 68 255
0.11115196 0.087056428 1.554 68 75 64 255
0.1152696 0.086941183 1.552 68 74 66 255
0.11937582 0.08682584 1.5500001 85 91 83 255
0.12370984 0.086878434 1.5510001 77 83 75 255
0.12813134 0.086986922 1.5530001 71 77 69 255
0.13273382 0.087207302 1.557 67 72 61 255
0.13718171 0.087315552 1.559 64 69 57 255
0.14164008 0.08742369 1.5610001 64 69 57 255
0.14592189 0.087419704 1.5610001 63 71 56 255
0.15010688 0.0873596 1.5600001 61 69 54 255
0.15438479 0.087355405 1.5600001 61 69 54 255
0.15845867 0.087239116 1.5580001 62 69 57 255
0.16262542 0.087178729 1.557 63 70 58 255
0.16657169 0.087006263 1.554 66 73 61 255
0.17061082 0.086889707 1.552 65 74 63 255
0.17486367 0.086885035 1.552 70 79 68 255
0.17900045 0.086824276 1.5510001 75 84 72 255
0.18313107 0.086763434 1.5500001 72 81 69 255
0.18725555 0.086702496 1.549 66 75 63 255
0.19149749 0.086697452 1.549 68 75 63 255
0.19573875 0.086692326 1.549 65 72 60 255
0.19997926 0.086687095 1.549 61 68 56 255
0.20395538 0.086569868 1.5470001 63 72 61 255
0.20765072 0.086340658 1.5430001 68 77 66 255
0.21146074 0.086167343 1.5400001 66 75 64 255
0.21581376 0.086217761 1.5410001 80 86 78 255
0.2208854 0.086547807 1.5470001 81 87 79 255
0.22584362 0.086821809 1.552 59 66 55 255
0.23008715 0.086815991 1.552 55 62 51 255
0.23357496 0.086530417 1.5470001 58 64 56 255
0.2373421 0.086356692 1.544 61 67 59 255
0.241405 0.086294763 1.5430001 65 71 63 255
0.24546158 0.086232767 1.5420001 64 70 62 255
0.24935001 0.086114787 1.5400001 55 63 55 255
0.25355601 0.086108588 1.5400001 53 61 53 255
0.2572591 0.085934594 1.5370001 75 83 75 255
0.2614553 0.085928276 1.5370001 78 86 78 255
0.26582354 0.085977808 1.5380001 74 80 72 255
0.27037197 0.086083174 1.5400001 56 62 54 255
0.27403903 0.085908979 1.5370001 54 61 50 255
0.27768895 0.085734762 1.534 60 67 56 255
0.28150538 0.085616402 1.5320001 61 68 57 255
0.28549656 0.085553885 1.531 78 85 74 255
0.28967074 0.085547224 1.531 74 81 70 255
0.29422787 0.08565224 1.5330001 70 77 66 255
0.29860049 0.085701331 1.534 70 77 66 255
0.30258295 0.085638635 1.5330001 71 78 67 255
0.30615899 0.085464209 1.5300001 71 77 69 255
0.31012347 0.085401461 1.529 67 73 65 255
0.31387618 0.08528284 1.5270001 72 78 70 255
0.3180337 0.085275896 1.5270001 71 77 69 255
0.3226124 0.085380591 1.529 72 78 70 255
0.32720122 0.085485242 1.531 70 79 68 255
0.33180016 0.085589863 1.5330001 72 78 70 255
0.33597082 0.08558277 1.5330001 70 76 68 255
0.33969688 0.085463993 1.531 68 74 66 255
0.34318677 0.085289434 1.5280001 74 78 71 255
0.34734145 0.085282296 1.5280001 76 80 73 255
0.35149541 0.085275136 1.5280001 71 77 69 255
0.35564858 0.085267976 1.5280001 72 78 70 255
0.35980099 0.085260794 1.5280001 71 78 67 255
0.36466721 0.085420989 1.531 72 79 68 255
0.36906722 0.085469566 1.5320001 71 77 69 255
0.37347195 0.085518129 1.5330001 72 78 70 255
0.37763497 0.085510902 1.5330001 72 78 71 255
0.38154826 0.085447893 1.5320001 74 78 71 255
0.38545549 0.085384905 1.531 69 73 65 255
0.38935649 0.085321926 1.5300001 71 75 67 255
0.39402303 0.085426241 1.5320001 73 75 65 255
0.39843985 0.085474804 1.5330001 73 75 65 255
0.40286142 0.085523352 1.534 72 77 66 255
0.40702248 0.08551617 1.534 70 74 66 255
0.41171888 0.085620478 1.536 72 76 68 255
0.41615492 0.085669063 1.5370001 68 74 66 255
0.42059577 0.085717648 1.5380001 69 75 67 255
0.42504132 0.085766248 1.539 66 72 64 255
0.42949185 0.085814871 1.5400001 67 73 65 255
0.43366563 0.085807793 1.5400001 67 74 63 255
0.43783885 0.085800745 1.5400001 65 72 61 255
0.44229862 0.085849449 1.5410001 64 71 60 255
0.44705302 0.085953884 1.5430001 70 75 64 255
0.45181778 0.086058341 1.5450001 65 72 61 255
0.45629781 0.08610712 1.5460001 69 76 65 255
0.46108061 0.086211629 1.5480001 69 74 62 255
0.46617445 0.086371869 1.5510001 67 72 60 255
0.47098082 0.08647643 1.5530001 65 70 58 255
0.47518572 0.086469688 1.5530001 64 69 57 255
0.47969896 0.08651866 1.554 63 68 54 255
0.4842172 0.086567692 1.5550001 64 69 57 255
0.48874071 0.086616777 1.5560001 63 68 56 255
0.49326926 0.086665913 1.557 62 69 57 255
0.49620536 0.086436823 1.5530001 58 65 53 255
0.49944189 0.086263493 1.5500001 63 70 59 255
0.50201213 0.085978962 1.5450001 62 68 60 255
0.50619328 0.085972764 1.5450001 64 72 65 255
0.50938326 0.085799731 1.5420001 70 78 71 255
0.51355594 0.085793711 1.5420001 74 82 74 255
0.51840025 0.085899048 1.544 74 81 70 255
0.52427047 0.086171336 1.549 68 75 64 255
0.53016794 0.086443692 1.554 67 72 60 255
0.53574854 0.086660482 1.5580001 41 46 32 255
0.54031104 0.086710468 1.559 38 43 29 255
0.54313266 0.086482473 1.5550001 26 34 19 255
0.54241288 0.0856985 1.5410001 31 38 26 255
0.54551905 0.085526407 1.5380001 74 79 67 255
0.55039614 0.085632473 1.5400001 80 85 74 255
0.55600446 0.085849836 1.544 51 56 44 255
0.5594579 0.085733697 1.5420001 29 32 18 255
0.56326634 0.085673288 1.5410001 37 41 24 255
0.56633317 0.08550182 1.5380001 39 45 28 255
0.56975496 0.085386068 1.536 38 43 29 255
0.57204551 0.085103706 1.531 44 52 37 255
0.57430929 0.084821492 1.526 46 53 41 255
0.57730478 0.084650606 1.5230001 68 75 63 255
0.58219314 0.084757753 1.5250001 67 74 62 255
0.58709306 0.084865041 1.5270001 66 74 59 255
0.59161717 0.084916875 1.5280001 66 74 59 255
0.59380788 0.084635414 1.5230001 63 70 58 255
0.59715003 0.084520832 1.521 64 71 59 255
0.60048211 0.084406413 1.5190001 69 76 64 255
0.60380405 0.084292151 1.5170001 63 70 59 255
0.60751671 0.084233612 1.516 75 82 71 255
0.61162817 0.084230796 1.516 71 78 66 255
0.61736536 0.084450394 1.5200001 76 81 70 255
0.62271613 0.08461456 1.5230001 44 46 36 255
0.62643796 0.084556669 1.5220001 17 19 9 255
0.62766957 0.084165625 1.5150001 17 19 9 255
0.63053232 0.083996989 1.5120001 17 20 8 255
0.63379961 0.083884083 1.5100001 19 22 10 255
0.63747972 0.083826914 1.5090001 20 23 11 255
0.64115554 0.083769932 1.508 21 24 12 255
0.64568311 0.08382424 1.5090001 21 24 10 255
0.64763373 0.083545439 1.5040001 21 24 10 255
0.65085864 0.083433487 1.5020001 21 24 10 255
0.71188164 0.083390392 1.501 13 21 6 255
0.71551836 0.083337523 1.5000001 13 23 8 255
-0.99290383 0.093450844 1.7640001 19 20 8 255
-0.89930248 0.087180801 1.6470001 14 16 6 255
-0.94847596 0.092409924 1.7460001 16 18 8 255
-0.92738509 0.090811446 1.7160001 16 18 8 255
-0.91614437 0.090166174 1.7040001 17 19 9 255
-0.89973068 0.089459099 1.6910001 19 19 9 255
-0.88232249 0.08818049 1.6670001 19 19 9 255
-0.88084739 0.088489279 1.6730001 19 19 11 255
-0.89138907 0.090014756 1.702 15 15 7 255
-0.90073234 0.091434546 1.7290001 17 17 9 255
-0.90163898 0.092008375 1.7400001 16 16 8 255
-0.88290298 0.090573221 1.7130001 17 17 9 255
-0.87303567 0.090037435 1.7030001 17 17 9 255
-0.86730665 0.089924991 1.7010001 17 17 9 255
-0.86362094 0.090024322 1.7030001 16 16 8 255
-0.86144096 0.090282537 1.7080001 16 16 8 255
-0.87027216 0.091703862 1.7350001 13 15 7 255
-0.8734706 0.092543937 1.751 13 15 7 255
-0.87757677 0.093489937 1.7690001 14 16 8 255
-0.85149384 0.091212511 1.7260001 17 19 11 255
-0.84085906 0.090573788 1.7140001 18 18 8 255
-0.83419597 0.090358138 1.71 18 18 8 255
-0.83483434 0.090935387 1.7210001 21 19 8 255
-0.83348596 0.091301523 1.728 23 20 6 255
-0.8234694 0.090716891 1.7170001 31 26 15 255
-0.79873353 0.088494778 1.6750001 38 33 22 255
-0.7661705 0.085374936 1.6160001 241 237 226 255
-0.74807477 0.083840437 1.5870001 208 209 195 255
-0.73623258 0.082993023 1.5710001 198 207 188 255
-0.72727561 0.082462847 1.5610001 182 193 172 255
-0.72022837 0.082144246 1.5550001 144 152 126 255
-0.71505785 0.082037181 1.5530001 131 140 111 255
-0.71035796 0.081983164 1.552 130 134 106 255
-0.70612061 0.081982195 1.552 130 134 106 255
-0.701433 0.081928626 1.5510001 144 151 122 255
-0.69585365 0.08176963 1.5480001 191 197 171 255
-0.6898458 0.081558019 1.544 166 174 148 255
-0.68474966 0.081452273 1.5420001 127 135 109 255
-0.68099022 0.081505187 1.5430001 124 132 107 255
-0.67678821 0.081505477 1.5430001 172 179 157 255
-0.67171609 0.081400327 1.5410001 175 182 160 255
-0.66579002 0.081189707 1.5370001 161 171 148 255
-0.66031766 0.081032105 1.534 158 168 145 255
-0.65614617 0.081033163 1.534 176 186 163 255
-0.65112615 0.08092875 1.5320001 142 152 129 255
-0.64611822 0.080824517 1.5300001 150 160 137 255
-0.64154208 0.080773287 1.529 165 175 152 255
-0.6373893 0.080775037 1.529 153 162 141 255
-0.63282359 0.08072415 1.5280001 155 166 145 255
-0.62826437 0.080673404 1.5270001 153 162 141 255
-0.62330294 0.080569997 1.5250001 160 169 148 255
-0.61875933 0.080519579 1.524 146 156 133 255
-0.61422217 0.080469318 1.5230001 143 150 128 255
-0.6092906 0.080366351 1.521 156 163 141 255
-0.60437083 0.08026354 1.5190001 140 147 125 255
-0.60025299 0.08026655 1.5190001 151 161 138 255
-0.59535104 0.080164023 1.5170001 150 160 137 255
-0.59124011 0.080167308 1.5170001 152 162 137 255
-0.58596873 0.080012187 1.5140001 161 171 146 255
-0.58186728 0.080015749 1.5140001 142 152 126 255
-0.57700312 0.079913728 1.5120001 151 161 135 255
-0.57252914 0.079864681 1.511 148 156 130 255
-0.56768507 0.079762898 1.5090001 151 161 136 255
-0.56359917 0.079766944 1.5090001 142 152 127 255
-0.55951375 0.079771124 1.5090001 150 160 135 255
-0.55506051 0.079722531 1.508 137 147 121 255
-0.55134392 0.079779804 1.5090001 141 149 124 255
-0.54689682 0.079731442 1.508 157 164 142 255
-0.54281527 0.079736046 1.508 157 164 143 255
-0.53837681 0.079687893 1.5070001 153 160 139 255
-0.53394401 0.079639837 1.506 162 171 150 255
-0.5295167 0.079591878 1.5050001 149 159 136 255
-0.52509499 0.079543993 1.5040001 146 156 133 255
-0.51998585 0.079390414 1.501 143 153 128 255
-0.51558053 0.079342708 1.5000001 143 153 128 255
-0.51152164 0.079347968 1.5000001 135 145 120 255
-0.275401 0.079718173 1.5000001 144 152 127 255
-0.27149051 0.079777442 1.501 143 153 128 255
-0.2684646 0.080102466 1.5070001 143 153 128 255
-0.26558045 0.08048062 1.5140001 138 148 123 255
-0.2631754 0.081018277 1.524 135 145 120 255
-0.26037505 0.08144962 1.5320001 137 147 124 255
-0.25769746 0.081934147 1.5410001 140 147 125 255
-0.2544764 0.082259148 1.5470001 146 153 131 255
-0.25138351 0.082637317 1.554 124 131 110 255
-0.24809258 0.082962297 1.5600001 111 120 101 255
-0.24476802 0.083287254 1.5660001 53 62 43 255
-0.24125633 0.083558999 1.5710001 47 58 39 255
-0.23726396 0.08367113 1.5730001 66 76 59 255
-0.23355611 0.083889596 1.577 48 58 41 255
-0.22938946 0.083948411 1.5780001 48 58 43 255
-0.22521657 0.084007174 1.5790001 46 56 41 255
-0.22089756 0.084012665 1.5790001 57 67 52 255
-0.21644059 0.083964847 1.5780001 40 50 35 255
-0.21212275 0.083970159 1.5780001 51 61 46 255
-0.20754081 0.083868966 1.5760001 39 49 34 255
-0.20335591 0.083927318 1.577 58 68 53 255
-0.19891238 0.083879165 1.5760001 55 65 50 255
-0.19435014 0.083777688 1.5740001 44 51 39 255
-0.18979813 0.083676107 1.572 35 42 30 255
-0.18537438 0.083627664 1.5710001 30 37 25 255
-0.18118592 0.083685584 1.572 35 42 31 255
-0.17676629 0.083636954 1.5710001 48 57 46 255
-0.17246126 0.083641455 1.5710001 46 53 42 255
-0.1680485 0.083592623 1.5700001 44 53 42 255
-0.16374488 0.083596937 1.5700001 41 48 37 255
-0.15933912 0.083547913 1.5690001 44 51 40 255
-0.15503702 0.083552025 1.5690001 54 59 47 255
-0.15063821 0.083502777 1.5680001 54 59 47 255
-0.14624432 0.083453439 1.567 51 58 46 255
-0.14185536 0.083404005 1.5660001 60 67 55 255
-0.13764699 0.083460964 1.567 55 62 51 255
-0.1332624 0.083411314 1.5660001 62 69 58 255
-0.12896509 0.083414808 1.5660001 71 78 67 255
-0.12450809 0.08331167 1.5640001 73 78 67 255
-0.12021524 0.083314948 1.5640001 59 65 57 255
-0.11584783 0.08326485 1.5630001 59 66 55 255
-0.11169953 0.08337447 1.5650001 60 65 54 255
-0.10747118 0.0834307 1.5660001 54 61 50 255
-0.10310511 0.083380274 1.5650001 49 56 45 255
-0.098617867 0.083223186 1.562 51 56 45 255
-0.094207071 0.083119258 1.5600001 51 56 45 255
-0.089922145 0.083121762 1.5600001 46 52 44 255
-0.085746638 0.083230719 1.562 62 66 58 255
-0.081507646 0.0832863 1.5630001 90 94 86 255
-0.077164017 0.083235197 1.562 87 92 81 255
-0.072825551 0.083183974 1.5610001 55 60 48 255
-0.06871181 0.08339908 1.5650001 54 59 47 255
-0.064575791 0.083614081 1.5690001 53 58 44 255
-0.06034068 0.083722383 1.5710001 56 59 45 255
-0.055951692 0.083617412 1.5690001 51 56 42 255
-0.051606365 0.0835656 1.5680001 52 57 45 255
-0.047296479 0.083566979 1.5680001 56 61 49 255
-0.042958971 0.083514921 1.567 51 58 46 255
-0.03862679 0.08346276 1.5660001 54 61 49 255
-0.034299932 0.083410479 1.5650001 54 61 49 255
-0.029997598 0.083411366 1.5650001 55 62 50 255
-0.025695134 0.083412141 1.5650001 54 61 49 255
-0.021392558 0.083412804 1.5650001 55 62 50 255
-0.01708989 0.08341334 1.5650001 55 62 50 255
-0.01279532 0.083467059 1.5660001 59 66 54 255
-0.0084897727 0.083467349 1.5660001 58 65 53 255
-0.0041841902 0.083467528 1.5660001 58 65 53 255
0.00012117786 0.083307683 1.5630001 61 68 56 255
0.0044157021 0.083254315 1.562 62 69 58 255
0.0086991331 0.083147533 1.5600001 65 71 63 255
0.012971528 0.083040632 1.5580001 64 70 62 255
0.017266095 0.083093509 1.559 67 73 65 255
0.021552261 0.083092965 1.559 69 75 67 255
0.025838336 0.083092317 1.559 71 77 69 255
0.030124297 0.083091527 1.559 68 74 66 255
0.03443221 0.083143935 1.5600001 63 72 61 255
0.038795106 0.083302811 1.5630001 64 71 60 255
0.043119196 0.083354972 1.5640001 65 72 61 255
0.047418274 0.083353713 1.5640001 62 69 58 255
0.051617943 0.08319246 1.5610001 63 70 59 255
0.055872541 0.083137676 1.5600001 61 68 57 255
0.060082838 0.083029494 1.5580001 64 73 62 255
0.064447135 0.083134346 1.5600001 66 75 64 255
0.068734035 0.08313252 1.5600001 66 75 64 255
0.073114254 0.083237141 1.562 64 71 59 255
0.077257387 0.083075218 1.559 64 71 60 255
0.081540614 0.083073042 1.559 69 76 65 255
0.085658349 0.082910888 1.5560001 71 77 69 255
0.089874826 0.082855202 1.5550001 71 79 71 255
0.094085447 0.082799412 1.554 76 84 77 255
0.098290175 0.082743518 1.5530001 78 86 79 255
0.10242299 0.08263424 1.5510001 73 81 73 255
0.10668194 0.082631402 1.5510001 71 79 71 255
0.11086893 0.082575187 1.5500001 70 79 68 255
0.11519852 0.082625411 1.5510001 73 80 69 255
0.11945613 0.082622252 1.5510001 71 78 67 255
0.12387276 0.082725525 1.5530001 68 74 66 255
0.12829986 0.082828678 1.5550001 68 72 64 255
0.13282269 0.082984991 1.5580001 68 73 62 255
0.13718547 0.083034664 1.559 61 68 56 255
0.14164393 0.083137482 1.5610001 63 70 58 255
0.14592582 0.083133683 1.5610001 61 69 54 255
0.15020716 0.083129786 1.5610001 62 70 55 255
0.15438893 0.083072528 1.5600001 63 70 58 255
0.15846291 0.082961932 1.5580001 65 72 60 255
0.16242085 0.082798004 1.5550001 67 74 62 255
0.16646893 0.082687244 1.5530001 67 74 63 255
0.17061532 0.082629621 1.552 62 71 60 255
0.1747556 0.082571939 1.5510001 68 77 66 255
0.17888974 0.082514159 1.5500001 72 81 70 255
0.1830177 0.082456291 1.549 75 84 73 255
0.18713956 0.08239834 1.5480001 71 80 69 255
0.19137883 0.082393542 1.5480001 64 73 61 255
0.1957438 0.082441874 1.549 63 70 58 255
0.19998442 0.082436897 1.549 61 68 56 255
0.20382878 0.082272194 1.5460001 63 72 61 255
0.20765601 0.08210741 1.5430001 70 79 68 255
0.21146609 0.081942588 1.5400001 76 85 74 255
0.21609929 0.082096934 1.5430001 75 81 73 255
0.22117651 0.082410783 1.549 77 84 73 255
0.22614031 0.082671329 1.554 63 70 59 255
0.23038939 0.082665786 1.554 54 61 50 255
0.23388273 0.082394198 1.549 53 60 49 255
0.23765539 0.082228966 1.5460001 59 66 55 255
0.24188025 0.082223237 1.5460001 58 64 56 255
0.24562676 0.082057893 1.5430001 57 65 57 255
0.24951798 0.081945688 1.5410001 55 63 55 255
0.25339746 0.08183343 1.539 64 72 64 255
0.25743261 0.081774302 1.5380001 75 83 75 255
0.26180172 0.081821434 1.539 75 83 75 255
0.26634833 0.081921689 1.5410001 72 78 70 255
0.27090502 0.082021855 1.5430001 47 54 43 255
0.27458033 0.081856191 1.5400001 47 54 43 255
0.27841946 0.081743628 1.5380001 56 62 54 255
0.28224686 0.081631042 1.536 58 64 56 255
0.28587607 0.081465296 1.5330001 78 84 76 255
0.29024488 0.081512056 1.534 73 80 69 255
0.29442641 0.081505634 1.534 71 77 69 255
0.29899645 0.08160542 1.536 69 76 65 255
0.30258965 0.08143954 1.5330001 72 79 68 255
0.306766 0.081433006 1.5330001 70 76 68 255
0.31033301 0.081267074 1.5300001 67 73 65 255
0.31408849 0.081154257 1.5280001 70 76 68 255
0.31845704 0.081200741 1.529 72 78 70 255
0.32346326 0.081406489 1.5330001 72 79 68 255
0.32849041 0.081612177 1.5370001 73 80 69 255
0.33288926 0.081658512 1.5380001 70 77 66 255
0.3368544 0.081598647 1.5370001 70 76 68 255
0.34014764 0.08137951 1.5330001 69 75 67 255
0.3434183 0.081160374 1.529 74 78 71 255
0.34757572 0.081153572 1.529 71 75 68 255
0.35196251 0.081199832 1.5300001 72 78 70 255
0.35635385 0.081246056 1.531 73 79 71 255
0.3607499 0.081292264 1.5320001 74 81 70 255
0.36562702 0.081444561 1.5350001 73 80 69 255
0.37003791 0.081490733 1.536 69 76 65 255
0.37420982 0.081483826 1.536 72 78 70 255
0.37838104 0.081476927 1.536 72 78 70 255
0.38230249 0.081416979 1.5350001 75 79 71 255
0.38621783 0.081357047 1.534 72 76 68 255
0.39038149 0.081350155 1.534 74 79 68 255
0.39531606 0.081502356 1.5370001 70 75 64 255
0.39974645 0.08154849 1.5380001 75 80 69 255
0.40391895 0.081541613 1.5380001 72 76 68 255
0.40809083 0.081534736 1.5380001 70 74 66 255
0.41253009 0.081580885 1.539 70 76 68 255
0.41724497 0.081680052 1.5410001 69 75 67 255
0.42142317 0.081673235 1.5410001 71 78 67 255
0.42587683 0.081719413 1.5420001 71 78 67 255
0.43033549 0.081765629 1.5430001 68 75 64 255
0.43451741 0.081758864 1.5430001 68 75 64 255
0.43869871 0.081752129 1.5430001 71 78 67 255
0.44316652 0.081798404 1.544 68 75 64 255
0.44821876 0.081950665 1.5470001 71 76 65 255
0.45240945 0.081944019 1.5470001 66 73 62 255
0.45718995 0.08204335 1.549 65 72 61 255
0.46168301 0.082089745 1.5500001 66 71 59 255
0.46648163 0.08218912 1.552 67 72 60 255
0.47129068 0.082288541 1.554 64 69 57 255
0.47580421 0.082335047 1.5550001 64 69 57 255
0.48063153 0.082434542 1.557 61 66 54 255
0.48515788 0.082481138 1.5580001 62 67 55 255
0.48968938 0.082527786 1.559 64 69 57 255
0.49454284 0.082627416 1.5610001 61 68 56 255
0.49717024 0.082356602 1.5560001 59 66 55 255
0.50041479 0.082191736 1.5530001 62 68 60 255
0.50266802 0.081868194 1.5470001 63 69 61 255
0.50685453 0.081862278 1.5470001 64 72 65 255
0.51104093 0.081856452 1.5470001 69 77 70 255
0.51655924 0.082062319 1.5510001 75 81 74 255
0.52310658 0.082426973 1.5580001 74 81 70 255
0.530707 0.082950346 1.5680001 69 76 65 255
0.53563219 0.083050556 1.5700001 50 55 43 255
0.53988051 0.083045043 1.5700001 31 36 22 255
0.54378229 0.08298675 1.5690001 28 33 19 255
0.54628158 0.082716987 1.5640001 21 26 14 255
0.54593801 0.082024291 1.5510001 41 48 36 255
0.54871637 0.081807695 1.5470001 78 83 72 255
0.55290306 0.081802763 1.5470001 83 88 76 255
0.55708969 0.08179792 1.5470001 26 31 19 255
0.56018829 0.081634574 1.544 31 34 20 255
0.56400204 0.081577107 1.5430001 31 36 22 255
0.56707412 0.081414014 1.5400001 33 39 22 255
0.56975937 0.081198186 1.536 32 40 25 255
0.57167614 0.080876797 1.5300001 50 57 45 255
0.57544249 0.08081983 1.529 64 71 59 255
0.57920402 0.080763012 1.5280001 67 74 62 255
0.58448768 0.080917723 1.531 67 72 58 255
0.58863461 0.080913998 1.531 66 71 57 255
0.59239513 0.080857567 1.5300001 64 69 55 255
0.59459108 0.08058989 1.5250001 63 71 56 255
0.5979386 0.080480903 1.5230001 65 72 60 255
0.60127586 0.080372058 1.521 66 73 61 255
0.60460311 0.080263384 1.5190001 67 74 62 255
0.60832113 0.080207698 1.5180001 67 74 63 255
0.61284125 0.080257818 1.5190001 71 76 65 255
0.61818016 0.080413774 1.5220001 71 73 63 255
0.62394518 0.080622703 1.526 11 13 3 255
0.6260286 0.0803563 1.521 17 19 9 255
