ply
format ascii 1.0
comment PCL generated
element vertex 976
property float x
property float y
property float z
property uchar red
property uchar green
property uchar blue
property uchar alpha
element camera 0
property float view_px
property float view_py
property float view_pz
property float x_axisx
property float x_axisy
property float x_axisz
property float y_axisx
property float y_axisy
property float y_axisz
property float z_axisx
property float z_axisy
property float z_axisz
property float focal
property float scalex
property float scaley
property float centerx
property float centery
property int viewportx
property int viewporty
property float k1
property float k2
end_header
-0.88061637 -0.16188687 1.8790001 88 70 36 255
-0.87686902 -0.16214083 1.8820001 82 65 35 255
-0.87264478 -0.16230907 1.8840001 77 62 33 255
-0.86933345 -0.16265008 1.8880001 76 61 32 255
-0.86325634 -0.16247463 1.886 69 54 24 255
-0.85901278 -0.16264424 1.8880001 64 51 22 255
-0.85476071 -0.16281424 1.8900001 64 49 19 255
-0.85094965 -0.16307083 1.8930001 77 60 30 255
-0.84399688 -0.16272482 1.8890001 84 65 35 255
-0.83706826 -0.16237926 1.8850001 92 71 41 255
-0.83104628 -0.16220638 1.8830001 101 78 46 255
-0.82547599 -0.16212007 1.8820001 102 79 47 255
-0.81991303 -0.16203414 1.881 106 85 55 255
-0.81349123 -0.1617763 1.8780001 106 87 58 255
-0.80751795 -0.16160499 1.876 87 75 46 255
-0.80070192 -0.16126177 1.8720001 210 204 177 255
-0.79518455 -0.16117732 1.8710001 191 195 169 255
-0.78882962 -0.16092099 1.868 185 189 161 255
-0.78249258 -0.16066496 1.8650001 177 186 157 255
-0.77617335 -0.16040929 1.8620001 174 183 154 255
-0.77070016 -0.16032624 1.8610001 132 140 114 255
-0.76523387 -0.16024353 1.8600001 163 170 148 255
-0.75895685 -0.15998884 1.8570001 198 207 188 255
-0.75188553 -0.15956213 1.8520001 201 209 192 255
-0.74322939 -0.15879107 1.8430001 198 208 193 255
-0.73542428 -0.15819257 1.8360001 201 211 196 255
-0.72765845 -0.15759438 1.8290001 194 204 189 255
-0.72072172 -0.15716876 1.8240001 196 206 189 255
-0.71342069 -0.15665722 1.8180001 198 209 190 255
-0.7057634 -0.15605976 1.8110001 196 207 188 255
-0.69891894 -0.15563487 1.8060001 191 202 183 255
-0.6917181 -0.15512401 1.8000001 191 202 183 255
-0.68607688 -0.15495813 1.7980001 181 192 173 255
-0.67968941 -0.15462011 1.794 182 193 174 255
-0.67370039 -0.15436848 1.7910001 195 206 187 255
-0.66735482 -0.15403089 1.7870001 208 219 200 255
-0.66029006 -0.15352108 1.7810001 194 205 186 255
-0.65436226 -0.15327007 1.7780001 178 189 170 255
-0.64845121 -0.15301925 1.7750001 162 173 154 255
-0.64328212 -0.15294105 1.774 195 206 187 255
-0.63631928 -0.15243198 1.7680001 186 197 176 255
-0.63010347 -0.15209547 1.7640001 168 179 158 255
-0.6242643 -0.15184535 1.761 179 190 169 255
-0.61914521 -0.15176789 1.7600001 188 198 175 255
-0.61438078 -0.15177684 1.7600001 183 193 170 255
-0.60927004 -0.15169968 1.7590001 178 188 165 255
-0.60382122 -0.15153648 1.7570001 184 194 169 255
-0.59838343 -0.15137343 1.7550001 176 186 161 255
-0.59329468 -0.15129678 1.7540001 167 178 149 255
-0.58888245 -0.15139279 1.7550001 177 186 155 255
-0.58479762 -0.15157525 1.7570001 98 106 71 255
-0.58004171 -0.15158534 1.7570001 133 139 104 255
-0.57495821 -0.15150928 1.756 143 147 111 255
-0.56988007 -0.15143336 1.7550001 146 149 117 255
-0.56545115 -0.15153015 1.756 142 148 113 255
-0.5613361 -0.1517134 1.7580001 135 141 106 255
-0.55689323 -0.15181047 1.7590001 136 142 106 255
-0.55275875 -0.15199399 1.761 141 147 111 255
-0.54830188 -0.15209132 1.7620001 144 151 112 255
-0.54414773 -0.15227512 1.7640001 139 146 107 255
-0.53998256 -0.15245904 1.766 136 144 108 255
-0.53580612 -0.1526431 1.7680001 132 140 104 255
-0.53071743 -0.15256824 1.7670001 135 141 106 255
-0.52622902 -0.15266617 1.7680001 135 141 106 255
-0.52202976 -0.15285057 1.7700001 135 141 105 255
-0.51781917 -0.15303504 1.7720001 136 143 104 255
-0.51301813 -0.15304691 1.7720001 136 143 103 255
-0.50821668 -0.15305884 1.7720001 131 138 98 255
-0.50341469 -0.15307084 1.7720001 133 140 100 255
-0.49945635 -0.1533421 1.7750001 135 142 103 255
-0.49492386 -0.15344065 1.7760001 126 132 96 255
-0.49038517 -0.15353924 1.7770001 119 127 92 255
-0.48556736 -0.15355152 1.7770001 118 126 91 255
-0.48101947 -0.15365027 1.7780001 123 130 98 255
-0.47646537 -0.15374905 1.779 123 130 98 255
-0.47270066 -0.15410718 1.7830001 128 138 105 255
-0.46838871 -0.15429252 1.7850001 131 140 109 255
-0.46354574 -0.15430503 1.7850001 141 150 119 255
-0.45793122 -0.15405822 1.7820001 147 156 125 255
-0.45207798 -0.15372492 1.7780001 146 155 124 255
-0.44700032 -0.15365097 1.7770001 145 156 125 255
-0.44217619 -0.15366349 1.7770001 141 152 121 255
-0.43735126 -0.15367602 1.7770001 151 162 131 255
-0.43203875 -0.15351559 1.7750001 154 167 138 255
-0.42673633 -0.15335512 1.7730001 157 170 143 255
-0.42144391 -0.15319461 1.771 156 169 140 255
-0.41569108 -0.15286103 1.7670001 155 168 139 255
-0.40972662 -0.15244089 1.7620001 158 171 142 255
-0.40378851 -0.15202066 1.7570001 151 164 137 255
-0.39810383 -0.15168686 1.7530001 146 159 132 255
-0.39288875 -0.15152603 1.751 142 155 128 255
-0.38812709 -0.15153827 1.751 138 148 123 255
-0.38292664 -0.15137734 1.7490001 143 153 127 255
-0.37816873 -0.15138948 1.7490001 131 142 113 255
-0.37319639 -0.151315 1.748 134 145 116 255
-0.36886096 -0.15150018 1.7500001 131 142 111 255
-0.36347345 -0.15125245 1.7470001 131 142 111 255
-0.35871741 -0.15126437 1.7470001 145 154 123 255
-0.35375789 -0.15118964 1.7460001 125 134 103 255
-0.34960243 -0.15146124 1.7490001 122 131 100 255
-0.34483823 -0.15147299 1.7490001 124 134 101 255
-0.34085095 -0.15183112 1.7530001 123 131 96 255
-0.33722433 -0.15236247 1.7590001 114 120 84 255
-0.33356416 -0.15289383 1.7650001 93 99 63 255
-0.32893902 -0.15299203 1.766 96 103 64 255
-0.32412401 -0.15300351 1.766 95 101 65 255
-0.31930804 -0.15301487 1.766 92 97 65 255
-0.31413507 -0.15285289 1.7640001 98 102 76 255
-0.30862138 -0.15251747 1.7600001 20 23 0 255
-0.30278337 -0.15200855 1.7540001 24 26 8 255
-0.29748684 -0.15175946 1.751 24 26 9 255
-0.292373 -0.15159692 1.7490001 24 23 9 255
-0.2875981 -0.15160762 1.7490001 25 22 8 255
-0.28298396 -0.15170489 1.7500001 26 23 9 255
-0.27820456 -0.15171537 1.7500001 25 22 8 255
-0.27326798 -0.15163903 1.7490001 27 24 10 255
-0.26818258 -0.15147585 1.7470001 25 22 8 255
-0.26386106 -0.15174609 1.7500001 24 25 11 255
-0.2592262 -0.15184277 1.751 17 18 4 255
-0.25458509 -0.15193938 1.7520001 83 86 74 255
-0.24979506 -0.15194912 1.7520001 51 58 47 255
-0.24514402 -0.15204547 1.7530001 67 73 65 255
-0.24034961 -0.15205495 1.7530001 95 103 95 255
-0.23488249 -0.15163054 1.748 92 100 92 255
-0.22957358 -0.15129271 1.7440001 86 94 86 255
-0.22454357 -0.15112819 1.7420001 60 69 58 255
-0.21977599 -0.15113704 1.7420001 68 75 63 255
-0.21500769 -0.15114573 1.7420001 75 82 70 255
-0.20999727 -0.15098073 1.7400001 81 88 77 255
-0.20511496 -0.15090233 1.7390001 68 75 63 255
-0.20023739 -0.15082374 1.738 72 79 68 255
-0.19558953 -0.15091857 1.7390001 56 63 52 255
-0.19093549 -0.15101327 1.7400001 50 58 50 255
-0.18606126 -0.15093419 1.7390001 64 72 64 255
-0.18129608 -0.15094174 1.7390001 76 84 76 255
-0.17642872 -0.15086234 1.738 76 85 74 255
-0.17186248 -0.15104315 1.7400001 82 89 78 255
-0.1671886 -0.15113701 1.7410001 54 61 50 255
-0.16241534 -0.15114389 1.7410001 58 65 53 255
-0.1575509 -0.15106377 1.7400001 63 70 59 255
-0.15269133 -0.15098348 1.7390001 74 81 70 255
-0.14775161 -0.15081616 1.7370001 74 81 70 255
-0.14298689 -0.15082231 1.7370001 73 80 68 255
-0.13806251 -0.1506546 1.7350001 74 81 69 255
-0.13337901 -0.15074719 1.7360001 73 81 66 255
-0.12868953 -0.15083961 1.7370001 66 74 59 255
-0.12399404 -0.15093185 1.738 68 73 61 255
-0.11929256 -0.15102389 1.7390001 82 89 77 255
-0.11458514 -0.15111576 1.7400001 69 74 63 255
-0.10993487 -0.15129431 1.7420001 67 74 63 255
-0.10521281 -0.15138578 1.743 61 68 57 255
-0.10031199 -0.15121652 1.7410001 66 73 62 255
-0.095421739 -0.15104705 1.7390001 75 80 69 255
-0.090594202 -0.15096422 1.738 71 76 65 255
-0.085919939 -0.15114176 1.7400001 71 76 65 255
-0.08114107 -0.15114541 1.7400001 74 79 67 255
-0.07636188 -0.15114884 1.7400001 74 79 67 255
-0.07158237 -0.15115209 1.7400001 68 76 61 255
-0.066840954 -0.15124197 1.7410001 69 77 62 255
-0.062058117 -0.15124479 1.7410001 64 72 57 255
-0.057340823 -0.15142114 1.743 66 74 59 255
-0.052582152 -0.15151043 1.7440001 66 73 61 255
-0.04784517 -0.1516864 1.7460001 64 71 59 255
-0.043047693 -0.1516884 1.7460001 64 71 59 255
-0.038315754 -0.15195082 1.7490001 66 74 59 255
-0.033586331 -0.15229991 1.7530001 66 71 57 255
-0.028818373 -0.15256193 1.756 64 72 57 255
-0.024020141 -0.15273687 1.7580001 62 70 55 255
-0.019232644 -0.15308534 1.7620001 61 69 54 255
-0.01441492 -0.15334673 1.7650001 62 70 55 255
-0.0095914816 -0.15378167 1.7700001 61 68 56 255
-0.0047378498 -0.15412951 1.774 60 67 55 255
0.00013786319 -0.15456402 1.779 61 66 52 255
0.005038233 -0.15491146 1.7830001 60 65 51 255
0.0099661406 -0.15534553 1.7880001 64 69 55 255
0.014921488 -0.15577939 1.7930001 63 68 54 255
0.019871047 -0.15595238 1.7950001 64 69 55 255
0.024831511 -0.15612517 1.7970001 64 69 55 255
0.029786298 -0.15621084 1.7980001 63 68 54 255
0.034843031 -0.15673071 1.8040001 58 66 51 255
0.039866406 -0.15698969 1.807 54 61 49 255
0.73878849 -0.16104597 1.8690001 152 160 153 255
0.7378881 -0.1597482 1.8540001 156 164 157 255
0.74091458 -0.15931241 1.8490001 156 164 157 255
0.74149424 -0.15836 1.8380001 157 165 157 255
0.74160939 -0.15732181 1.8260001 159 167 160 255
0.73879844 -0.15568087 1.807 160 168 161 255
0.7400015 -0.15490188 1.7980001 159 167 160 255
0.73949963 -0.15377861 1.7850001 162 170 163 255
0.73726046 -0.15231113 1.7680001 164 172 165 255
0.73618948 -0.15110245 1.7540001 163 171 164 255
0.73546636 -0.14998031 1.7410001 166 174 167 255
0.7363745 -0.14920309 1.7320001 167 175 168 255
0.73466808 -0.14790936 1.7170001 167 175 168 255
0.73546511 -0.14713284 1.7080001 169 177 170 255
0.73621488 -0.14635669 1.6990001 171 180 173 255
0.73648125 -0.14549474 1.6890001 172 181 176 255
0.73581731 -0.14446087 1.677 169 178 173 255
0.7372973 -0.14385806 1.6700001 172 181 176 255
0.73696399 -0.142911 1.659 171 180 175 255
0.73746663 -0.14213663 1.6500001 173 182 177 255
0.73567373 -0.14093187 1.636 175 184 177 255
0.73697317 -0.14033048 1.6290001 176 185 180 255
0.73687106 -0.13947098 1.6190001 177 186 179 255
0.7380901 -0.13887028 1.6120001 178 185 181 255
0.7378912 -0.13801152 1.6020001 179 186 182 255
0.73810321 -0.13723923 1.5930001 180 187 183 255
0.73686999 -0.13620885 1.5810001 178 185 181 255
0.73744869 -0.13552341 1.5730001 180 187 183 255
0.73751444 -0.13475217 1.5640001 181 188 184 255
0.73753321 -0.13398127 1.5550001 181 188 184 255
0.73750526 -0.13321075 1.5460001 182 189 185 255
0.73599106 -0.13218205 1.534 182 189 185 255
0.73393106 -0.13106748 1.521 181 188 184 255
0.73228759 -0.13003942 1.5090001 182 189 185 255
0.73253304 -0.1293564 1.501 184 191 187 255
-0.97790504 -0.16274579 1.8280001 39 42 28 255
-0.99302912 -0.16611043 1.8660001 27 30 16 255
-0.99206489 -0.16680466 1.8740001 26 28 11 255
-0.98948145 -0.16723244 1.8790001 23 25 8 255
-0.97482723 -0.16561395 1.8610001 28 27 11 255
-0.98059851 -0.16746677 1.8820001 28 27 11 255
-0.95982629 -0.16478218 1.8520001 32 31 15 255
-0.95572084 -0.1649456 1.8540001 27 26 10 255
-0.94545615 -0.16404213 1.8440001 25 26 12 255
-0.95415521 -0.16915093 1.9020001 21 18 4 255
-0.93294102 -0.16629405 1.8700001 28 20 3 255
-0.92927229 -0.16655037 1.8730001 48 36 19 255
-0.92509729 -0.16671827 1.8750001 79 63 39 255
-0.92140567 -0.16697563 1.8780001 96 79 50 255
-0.91721314 -0.1671446 1.8800001 110 89 59 255
-0.91252804 -0.16722521 1.881 108 85 55 255
-0.90735847 -0.16721743 1.881 104 79 47 255
-0.90075338 -0.16694349 1.8780001 105 80 48 255
-0.89321417 -0.16649233 1.8730001 101 79 45 255
-0.88760197 -0.16639724 1.8720001 97 75 41 255
-0.88576961 -0.16701372 1.8790001 80 59 27 255
-0.88483912 -0.16780844 1.8880001 75 57 24 255
-0.88386226 -0.16860357 1.8970001 78 61 31 255
-0.87913346 -0.16868818 1.8980001 73 58 29 255
-0.87486231 -0.1688621 1.9000001 71 56 27 255
-0.86829424 -0.16859211 1.8970001 67 52 22 255
-0.86174524 -0.16832259 1.8940001 64 52 21 255
-0.85566735 -0.16814245 1.8920001 75 60 30 255
-0.85005224 -0.16805159 1.891 74 59 29 255
-0.84399819 -0.16787231 1.8890001 79 62 33 255
-0.83662504 -0.16742685 1.8840001 83 64 34 255
-0.83148813 -0.16742617 1.8840001 85 66 36 255
-0.82723045 -0.16760361 1.886 90 71 41 255
-0.82165623 -0.16751489 1.8850001 95 78 49 255
-0.81478989 -0.16715996 1.881 76 61 32 255
-0.80708635 -0.16662768 1.8750001 221 213 186 255
-0.8002727 -0.1662735 1.8710001 201 197 172 255
-0.79475766 -0.16618635 1.8700001 192 196 170 255
-0.78840506 -0.16592178 1.8670001 184 191 162 255
-0.78249002 -0.16574648 1.8650001 176 185 156 255
-0.77700418 -0.16566038 1.8640001 146 154 128 255
-0.77235347 -0.1657524 1.8650001 157 165 140 255
-0.76646447 -0.1655781 1.863 193 202 181 255
-0.75895292 -0.16504864 1.8570001 201 210 191 255
-0.75025731 -0.16425283 1.848 201 211 196 255
-0.74080527 -0.16327955 1.8370001 205 215 200 255
-0.73341674 -0.16275094 1.8310001 202 212 197 255
-0.72606194 -0.16222261 1.825 199 209 194 255
-0.71953094 -0.16187234 1.8210001 205 215 198 255
-0.7118454 -0.16125566 1.8140001 203 214 195 255
-0.70419866 -0.1606392 1.807 185 196 177 255
-0.69736475 -0.16020077 1.802 185 196 177 255
-0.69094318 -0.15985152 1.7980001 193 202 183 255
-0.68568861 -0.15976921 1.7970001 190 201 182 255
-0.67930359 -0.15942042 1.7930001 203 212 193 255
-0.67331713 -0.15916078 1.7900001 197 208 189 255
-0.66585374 -0.15854567 1.7830001 210 221 202 255
-0.65954095 -0.15819749 1.779 178 189 170 255
-0.65361851 -0.1579385 1.7760001 168 179 160 255
-0.64771259 -0.15767966 1.7730001 176 187 168 255
-0.64182353 -0.15742102 1.7700001 199 210 191 255
-0.63487124 -0.15689576 1.7640001 192 203 184 255
-0.62902331 -0.15663747 1.761 172 183 164 255
-0.62354666 -0.15646835 1.7590001 178 187 166 255
-0.61843264 -0.15638834 1.7580001 186 196 173 255
-0.61367351 -0.15639749 1.7580001 184 194 171 255
-0.60787529 -0.1561399 1.7550001 180 190 167 255
-0.60243714 -0.15597145 1.7530001 178 188 163 255
-0.59700996 -0.15580314 1.751 169 182 155 255
-0.59294665 -0.15599094 1.7530001 172 183 154 255
-0.58853698 -0.15608993 1.7540001 94 103 72 255
-0.58445472 -0.15627809 1.756 119 127 92 255
-0.57937115 -0.15619943 1.7550001 129 137 94 255
-0.57494783 -0.15629891 1.756 142 146 108 255
-0.56986958 -0.15622054 1.7550001 144 150 114 255
-0.56511849 -0.15623128 1.7550001 141 147 111 255
-0.56068665 -0.15633121 1.756 144 150 115 255
-0.55624902 -0.15643127 1.7570001 141 147 111 255
-0.55180597 -0.1565315 1.7580001 142 148 112 255
-0.54766834 -0.15672089 1.7600001 138 144 109 255
-0.54321098 -0.15682136 1.761 137 145 109 255
-0.5390538 -0.15701102 1.7630001 141 149 113 255
-0.53488541 -0.15720083 1.7650001 137 143 107 255
-0.53010505 -0.15721259 1.7650001 139 145 109 255
-0.52532434 -0.15722446 1.7650001 135 142 103 255
-0.52113307 -0.1574146 1.7670001 135 142 103 255
-0.5172227 -0.15769394 1.7700001 133 140 101 255
-0.51271659 -0.15779519 1.771 134 141 102 255
-0.50820452 -0.15789653 1.7720001 132 139 100 255
-0.50368661 -0.15799798 1.7730001 132 138 102 255
-0.49944407 -0.15818861 1.7750001 130 138 103 255
-0.49491146 -0.15829024 1.7760001 121 129 94 255
-0.49064881 -0.15848105 1.7780001 122 130 94 255
-0.48610133 -0.15858278 1.779 118 126 90 255
-0.48127741 -0.15859544 1.779 122 130 94 255
-0.47672063 -0.15869731 1.7800001 125 134 95 255
-0.47242293 -0.1588884 1.7820001 123 131 95 255
-0.46837598 -0.15916871 1.7850001 129 137 102 255
-0.46379277 -0.15927075 1.7860001 134 144 111 255
-0.45843244 -0.15910524 1.784 141 151 118 255
-0.45333657 -0.15902895 1.7830001 145 154 123 255
-0.44774225 -0.15877426 1.7800001 147 156 125 255
-0.44266114 -0.15869793 1.779 143 154 123 255
-0.43758467 -0.15862162 1.7780001 149 160 129 255
-0.43275625 -0.1586345 1.7780001 156 167 138 255
-0.42768636 -0.15855816 1.7770001 152 165 138 255
-0.42238313 -0.15839256 1.7750001 156 169 142 255
-0.41685468 -0.15813766 1.7720001 155 168 139 255
-0.41110921 -0.15779349 1.7680001 155 168 141 255
-0.40515485 -0.15735997 1.7630001 150 163 136 255
-0.39945388 -0.15701561 1.7590001 152 165 138 255
-0.39399824 -0.15676044 1.756 147 160 133 255
-0.38900134 -0.15668376 1.7550001 150 162 137 255
-0.38379008 -0.15651774 1.7530001 146 159 132 255
-0.37837264 -0.15626237 1.7500001 142 153 124 255
-0.37297064 -0.15600689 1.7470001 133 144 115 255
-0.3682164 -0.15601926 1.7470001 133 144 113 255
-0.36304522 -0.15585296 1.7450001 130 141 110 255
-0.35870537 -0.15604384 1.7470001 135 144 113 255
-0.35394847 -0.15605602 1.7470001 126 135 104 255
-0.34959048 -0.15624684 1.7490001 122 131 100 255
-0.34502351 -0.15634824 1.7500001 122 132 99 255
-0.34083909 -0.15662831 1.7530001 121 129 94 255
-0.33702081 -0.15708704 1.7580001 110 118 83 255
-0.33336341 -0.15763514 1.7640001 94 100 64 255
-0.32874107 -0.15773639 1.7650001 94 100 64 255
-0.32374534 -0.1576588 1.7640001 90 96 61 255
-0.31893495 -0.15767051 1.7640001 98 103 71 255
-0.31376752 -0.15750335 1.7620001 65 69 43 255
-0.30843472 -0.15724665 1.7590001 25 28 4 255
-0.30259958 -0.15672162 1.7530001 25 27 9 255
-0.29730594 -0.15646462 1.7500001 26 25 9 255
-0.2920278 -0.1562075 1.7470001 25 24 10 255
-0.28742284 -0.15630789 1.748 26 23 9 255
-0.2826499 -0.15631878 1.748 22 19 5 255
-0.27787605 -0.15632954 1.748 28 25 11 255
-0.27278885 -0.15616129 1.7460001 26 23 9 255
-0.26801878 -0.1561718 1.7460001 27 24 10 255
-0.2635493 -0.15636107 1.748 24 25 11 255
-0.25906813 -0.15655026 1.7500001 17 18 4 255
-0.2542845 -0.15656038 1.7500001 80 83 71 255
-0.24950011 -0.15657039 1.7500001 45 52 41 255
-0.24471484 -0.15658027 1.7500001 83 90 79 255
-0.23992874 -0.15658998 1.7500001 94 102 94 255
-0.23473872 -0.15633111 1.7470001 94 102 94 255
-0.22943273 -0.15598255 1.743 83 91 83 255
-0.22453451 -0.1559023 1.7420001 62 71 60 255
-0.21951477 -0.15573239 1.7400001 74 83 71 255
-0.21475211 -0.15574132 1.7400001 80 89 77 255
-0.20974731 -0.15557107 1.738 83 90 78 255
-0.2047527 -0.15540063 1.7360001 58 65 53 255
-0.19999874 -0.15540907 1.7360001 66 75 63 255
-0.19535652 -0.15550686 1.7370001 56 65 54 255
-0.19059838 -0.15551497 1.7370001 47 56 45 255
-0.18573254 -0.15543336 1.7360001 70 78 70 255
-0.18087152 -0.15535158 1.7350001 75 83 75 255
-0.17621829 -0.15544869 1.7360001 82 91 80 255
-0.17155896 -0.15554567 1.7370001 60 67 56 255
-0.16698951 -0.15573199 1.7390001 56 63 51 255
-0.1621286 -0.15564951 1.738 60 67 55 255
-0.15709148 -0.15538771 1.7350001 67 74 62 255
-0.15233362 -0.15539439 1.7350001 77 86 75 255
-0.14757515 -0.15540089 1.7350001 74 83 71 255
-0.14289844 -0.15549676 1.7360001 71 78 66 255
-0.13805655 -0.15541331 1.7350001 71 78 66 255
-0.13314278 -0.15524009 1.733 68 76 61 255
-0.12846172 -0.15533541 1.7340001 64 72 57 255
-0.12377464 -0.15543053 1.7350001 63 70 58 255
-0.11915019 -0.15561505 1.7370001 82 89 77 255
-0.11438259 -0.15562019 1.7370001 65 72 61 255
-0.10974076 -0.15580435 1.7390001 65 72 61 255
-0.10496676 -0.1558091 1.7390001 60 67 56 255
-0.10013474 -0.15572406 1.738 68 75 64 255
-0.095252939 -0.15554923 1.7360001 73 78 67 255
-0.090485975 -0.15555336 1.7360001 71 76 65 255
-0.085768022 -0.15564691 1.7370001 72 77 65 255
-0.080997594 -0.15565063 1.7370001 73 78 66 255
-0.076226853 -0.15565418 1.7370001 72 77 63 255
-0.071414642 -0.15556785 1.7360001 70 75 61 255
-0.066646032 -0.15557097 1.7360001 69 74 60 255
-0.061984073 -0.15584271 1.7390001 63 71 56 255
-0.057305377 -0.15611425 1.7420001 66 74 59 255
-0.052579809 -0.15629597 1.7440001 62 69 57 255
-0.04781564 -0.15638787 1.7450001 64 71 59 255
-0.042996462 -0.15630028 1.7440001 63 71 56 255
-0.038226422 -0.15639175 1.7450001 66 74 59 255
-0.033508196 -0.15675187 1.7490001 64 72 57 255
-0.028767854 -0.15711179 1.7530001 61 69 54 255
-0.024019066 -0.15756111 1.7580001 62 70 55 255
-0.019199042 -0.15765171 1.7590001 65 70 56 255
-0.014389773 -0.15792133 1.7620001 64 69 55 255
-0.0095639583 -0.15819077 1.7650001 61 69 54 255
-0.0047216141 -0.15845996 1.7680001 63 68 54 255
0.00013731458 -0.15881859 1.7720001 64 69 55 255
0.0050210534 -0.15926661 1.7770001 60 65 51 255
0.0099322516 -0.15971439 1.7820001 63 68 54 255
0.014870889 -0.16016194 1.7870001 62 67 53 255
0.019781599 -0.16016117 1.7870001 62 67 53 255
0.024733676 -0.16042905 1.7900001 63 68 56 255
0.029685574 -0.16060705 1.7920001 62 67 53 255
0.034783535 -0.16141222 1.8010001 63 68 54 255
0.039820503 -0.16176902 1.8050001 64 69 55 255
0.044854477 -0.16203596 1.8080001 64 69 55 255
0.049877197 -0.16221306 1.8100001 60 68 53 255
0.054941006 -0.16247956 1.8130001 63 70 58 255
0.060186319 -0.16319391 1.8210001 64 71 59 255
0.7383877 -0.16604993 1.868 155 163 156 255
0.73430097 -0.16400011 1.845 155 163 156 255
0.73650187 -0.16337286 1.8380001 155 163 155 255
0.7366488 -0.16230157 1.8260001 157 165 157 255
0.73794997 -0.16149725 1.817 155 163 156 255
0.7375682 -0.16033784 1.8040001 159 167 160 255
0.73876327 -0.15953426 1.7950001 158 166 159 255
0.73908216 -0.1585533 1.784 161 169 162 255
0.73725766 -0.15712835 1.7680001 163 171 164 255
0.73660684 -0.15597041 1.7550001 163 171 164 255
0.73630911 -0.1549017 1.743 165 173 166 255
0.73679793 -0.1540111 1.733 167 175 168 255
0.73466671 -0.15258765 1.7170001 166 175 168 255
0.73417222 -0.15152004 1.705 168 176 169 255
0.73534745 -0.15080827 1.697 169 176 172 255
0.7369169 -0.15018573 1.6900001 171 178 174 255
0.73757243 -0.14938584 1.6810001 169 176 172 255
0.73862213 -0.14867516 1.6730001 170 177 173 255
0.737409 -0.14752051 1.6600001 172 180 173 255
0.73567992 -0.14627735 1.646 174 183 176 255
0.73432618 -0.14512344 1.6330001 174 183 176 255
0.73516542 -0.1444142 1.6250001 174 183 176 255
0.73550791 -0.14361647 1.6160001 177 186 179 255
0.73626119 -0.14290795 1.608 180 188 181 255
0.73605174 -0.14202209 1.598 181 189 182 255
0.73717982 -0.14140318 1.5910001 182 190 183 255
0.73733968 -0.1406069 1.582 180 188 181 255
0.73745281 -0.13981098 1.5730001 181 188 184 255
0.73563266 -0.13865988 1.5600001 182 189 185 255
0.73564088 -0.13786466 1.5510001 183 190 186 255
0.73560232 -0.13706979 1.5420001 183 190 186 255
0.73551685 -0.13627529 1.5330001 183 190 186 255
0.73345459 -0.13512555 1.5200001 183 190 186 255
0.73180866 -0.13406502 1.508 182 189 186 255
-0.98087692 -0.16739143 1.8240001 35 40 28 255
-0.98862314 -0.16957425 1.848 30 33 19 255
-0.98520076 -0.17072961 1.8610001 30 34 17 255
-0.97370034 -0.1696111 1.8490001 22 24 7 255
-0.97379601 -0.17051135 1.8590001 27 26 10 255
-0.97227764 -0.17113696 1.8660001 27 26 10 255
-0.9717617 -0.17194651 1.8750001 26 25 9 255
-0.96346778 -0.1713811 1.8690001 24 23 7 255
-0.95059717 -0.16999124 1.8540001 24 25 11 255
-0.91996545 -0.1653934 1.8040001 21 22 10 255
-0.93931943 -0.16978095 1.8520001 22 20 9 255
-0.95488107 -0.17352678 1.8930001 23 21 10 255
-0.93309706 -0.17048974 1.8600001 26 20 4 255
-0.93444878 -0.17166986 1.8730001 32 22 5 255
-0.93126732 -0.17202556 1.8770001 58 44 25 255
-0.92905426 -0.17256509 1.8830001 84 64 40 255
-0.92435879 -0.17264692 1.8840001 86 64 36 255
-0.91819769 -0.17245442 1.8820001 117 94 64 255
-0.91253626 -0.17235412 1.881 106 83 53 255
-0.90736622 -0.17234603 1.881 109 83 54 255
-0.90171975 -0.17224683 1.8800001 95 69 40 255
-0.89465141 -0.17187333 1.876 106 81 48 255
-0.88950467 -0.17186683 1.876 94 71 39 255
-0.88718945 -0.17241053 1.8820001 58 37 7 255
-0.88812494 -0.17359594 1.8950001 58 41 11 255
-0.88573068 -0.17414057 1.9010001 62 45 16 255
-0.88238001 -0.17450243 1.9050001 62 49 20 255
-0.87670773 -0.17440678 1.904 64 51 24 255
-0.87150151 -0.17440324 1.904 61 49 22 255
-0.86311293 -0.17375897 1.8970001 62 50 23 255
-0.85747862 -0.17366478 1.8960001 64 54 29 255
-0.84915501 -0.17302147 1.8890001 62 51 28 255
-0.84310597 -0.17283662 1.8870001 60 51 30 255
-0.83573782 -0.17237739 1.8820001 61 52 31 255
-0.83148855 -0.1725598 1.8840001 65 54 33 255
-0.82723045 -0.17274261 1.886 68 57 36 255
-0.82209182 -0.17274266 1.886 40 31 8 255
-0.81478924 -0.17228517 1.881 186 179 156 255
-0.80794615 -0.17191969 1.8770001 208 207 183 255
-0.80069906 -0.171463 1.8720001 197 198 174 255
-0.79433072 -0.17118986 1.8690001 191 197 171 255
-0.78882504 -0.1711003 1.868 187 193 167 255
-0.78374606 -0.17110272 1.868 168 174 148 255
-0.77825177 -0.17101392 1.8670001 138 146 121 255
-0.77235019 -0.17083387 1.8650001 199 206 184 255
-0.76563805 -0.17047095 1.8610001 200 209 190 255
-0.75731421 -0.16974196 1.853 206 215 196 255
-0.749035 -0.16901326 1.845 205 215 200 255
-0.73999405 -0.16810164 1.835 210 220 205 255
-0.73180962 -0.16737355 1.8270001 208 218 203 255
-0.72366977 -0.16664574 1.8190001 207 217 202 255
-0.71675962 -0.16619299 1.8140001 205 215 198 255
-0.70948511 -0.16564891 1.8080001 177 188 169 255
-0.70341325 -0.16537997 1.8050001 170 181 162 255
-0.69697154 -0.16501966 1.8010001 185 196 177 255
-0.69093663 -0.16475123 1.7980001 196 205 186 255
-0.68530029 -0.16457471 1.7960001 207 215 198 255
-0.67891765 -0.16421513 1.7920001 202 210 193 255
-0.6733098 -0.16403909 1.7900001 189 199 182 255
-0.66547269 -0.1633134 1.7820001 213 223 206 255
-0.65879178 -0.16286285 1.7770001 163 174 155 255
-0.65287447 -0.16259582 1.774 182 193 174 255
-0.64697373 -0.16232896 1.771 188 199 180 255
-0.64108992 -0.16206235 1.7680001 189 200 181 255
-0.63414288 -0.1615209 1.7620001 165 174 153 255
-0.62794316 -0.16116297 1.7580001 180 189 168 255
-0.62247419 -0.16098854 1.756 183 192 171 255
-0.61736816 -0.16090599 1.7550001 181 191 168 255
-0.61226785 -0.16082364 1.7540001 176 186 163 255
-0.60751945 -0.16083318 1.7540001 177 187 164 255
-0.60242748 -0.16075118 1.7530001 175 187 162 255
-0.59700012 -0.16057765 1.751 163 176 149 255
-0.59293658 -0.16077113 1.7530001 167 176 145 255
-0.58852679 -0.1608731 1.7540001 89 98 67 255
-0.58444434 -0.16106695 1.756 130 138 102 255
-0.5793606 -0.1609858 1.7550001 137 143 107 255
-0.57460976 -0.16099654 1.7550001 142 149 110 255
-0.56985867 -0.16100742 1.7550001 143 150 111 255
-0.56478548 -0.16092668 1.7540001 141 149 113 255
-0.5603562 -0.16102961 1.7550001 138 146 111 255
-0.55592132 -0.16113269 1.756 137 145 110 255
-0.55179465 -0.16132766 1.7580001 143 149 114 255
-0.54734558 -0.161431 1.7590001 143 149 114 255
-0.54289091 -0.16153449 1.7600001 139 145 110 255
-0.53873628 -0.16172989 1.7620001 134 140 105 255
-0.53426737 -0.16183363 1.7630001 135 141 106 255
-0.52979273 -0.16193748 1.7640001 135 141 105 255
-0.52531224 -0.16204147 1.7650001 133 140 101 255
-0.52053106 -0.16205372 1.7650001 136 143 103 255
-0.516626 -0.16234155 1.7680001 136 143 103 255
-0.51212519 -0.16244583 1.7690001 136 141 99 255
-0.5079053 -0.16264206 1.771 129 136 96 255
-0.50339001 -0.16274653 1.7720001 129 136 96 255
-0.4988687 -0.1628511 1.7730001 131 137 101 255
-0.49434149 -0.16295575 1.774 121 129 93 255
-0.49036002 -0.16324419 1.7770001 119 127 91 255
-0.4863618 -0.16353273 1.7800001 116 124 88 255
-0.48153514 -0.16354573 1.7800001 117 126 87 255
-0.47697556 -0.16365068 1.7810001 120 129 90 255
-0.47240996 -0.16375564 1.7820001 117 126 87 255
-0.46783823 -0.16386069 1.7830001 121 129 94 255
-0.46352005 -0.16405769 1.7850001 128 136 101 255
-0.45893338 -0.16416281 1.7860001 132 140 105 255
-0.45434049 -0.16426799 1.7870001 142 149 117 255
-0.4487353 -0.16400546 1.784 145 154 123 255
-0.44339454 -0.16383484 1.7820001 147 156 125 255
-0.43806386 -0.16366422 1.7800001 147 158 127 255
-0.43274319 -0.16349354 1.7780001 151 162 133 255
-0.42743266 -0.16332285 1.7760001 148 161 132 255
-0.42260811 -0.16333605 1.7760001 150 163 134 255
-0.41754743 -0.16325727 1.7750001 157 170 141 255
-0.41202635 -0.16299449 1.7720001 156 169 140 255
-0.40606117 -0.16254766 1.7670001 152 165 136 255
-0.40012234 -0.16210075 1.7620001 148 159 130 255
-0.3951073 -0.16202174 1.761 138 149 120 255
-0.39009681 -0.16194268 1.7600001 145 156 127 255
-0.38509095 -0.1618636 1.7590001 156 165 134 255
-0.37944105 -0.16150837 1.7550001 157 166 135 255
-0.37381205 -0.16115302 1.751 151 160 129 255
-0.36862543 -0.16098166 1.7490001 150 159 128 255
-0.36344883 -0.16081022 1.7470001 133 142 111 255
-0.35869297 -0.16082281 1.7470001 126 135 104 255
-0.35393617 -0.16083534 1.7470001 124 133 102 255
-0.34937829 -0.16093984 1.748 121 130 99 255
-0.34501132 -0.16113642 1.7500001 122 129 98 255
-0.34102136 -0.16151708 1.7540001 121 128 96 255
-0.33739215 -0.16208194 1.7600001 105 111 76 255
-0.33335131 -0.16246258 1.7640001 92 98 63 255
-0.3285428 -0.16247477 1.7640001 93 99 64 255
-0.3233664 -0.16230267 1.7620001 90 95 63 255
-0.31838074 -0.16222253 1.761 93 98 67 255
-0.3132216 -0.1620502 1.7590001 37 40 16 255
-0.30789712 -0.16178557 1.756 24 26 6 255
-0.30207032 -0.16124442 1.7500001 25 27 10 255
-0.29695487 -0.16107163 1.748 24 23 9 255
-0.29184943 -0.16089872 1.7460001 27 24 10 255
-0.28724739 -0.16100216 1.7470001 25 22 8 255
-0.28231552 -0.16092116 1.7460001 23 20 6 255
-0.27770624 -0.16102436 1.7470001 26 23 9 255
-0.27277815 -0.16094311 1.7460001 25 24 10 255
-0.26831517 -0.16113827 1.748 23 24 10 255
-0.26368961 -0.16124111 1.7490001 17 20 6 255
-0.25890973 -0.16125166 1.7490001 22 25 11 255
-0.25398374 -0.16116987 1.748 73 78 66 255
-0.24920487 -0.16118012 1.748 51 58 47 255
-0.24414554 -0.16100582 1.7460001 95 103 95 255
-0.23950766 -0.16110802 1.7470001 95 103 95 255
-0.23446043 -0.16093341 1.7450001 92 100 92 255
-0.22942328 -0.1607586 1.743 79 87 79 255
-0.22413854 -0.16039914 1.7390001 76 84 76 255
-0.21925336 -0.16031621 1.738 80 89 77 255
-0.21424948 -0.16014087 1.7360001 76 85 73 255
-0.20961784 -0.16024214 1.7370001 67 74 62 255
-0.20462616 -0.16006646 1.7350001 57 64 52 255
-0.19999027 -0.16016734 1.7360001 69 78 67 255
-0.19523574 -0.16017585 1.7360001 49 58 47 255
-0.19059023 -0.16027643 1.7370001 44 52 44 255
-0.18572459 -0.16019231 1.7360001 73 82 71 255
-0.18086374 -0.16010801 1.7350001 78 87 76 255
-0.17610921 -0.16011581 1.7350001 79 86 74 255
-0.17155153 -0.16030799 1.7370001 57 64 52 255
-0.16688621 -0.16040769 1.738 55 62 50 255
-0.16202824 -0.16032265 1.7370001 63 70 58 255
-0.15690352 -0.15996049 1.733 75 84 72 255
-0.15215135 -0.15996736 1.733 76 85 73 255
-0.14748362 -0.16006635 1.7340001 72 81 69 255
-0.14280984 -0.16016515 1.7350001 69 77 62 255
-0.13797089 -0.16007912 1.7340001 68 76 61 255
-0.13313687 -0.15999287 1.733 69 74 62 255
-0.128456 -0.16009109 1.7340001 64 69 57 255
-0.12376912 -0.16018911 1.7350001 62 67 55 255
-0.11907628 -0.16028693 1.7360001 81 86 74 255
-0.11437747 -0.16038457 1.7370001 63 68 56 255
-0.10960963 -0.16038966 1.7370001 67 72 60 255
-0.10478097 -0.16030221 1.7360001 65 70 58 255
-0.099899769 -0.16012219 1.7340001 70 77 66 255
-0.095138893 -0.16012664 1.7340001 72 77 66 255
-0.090429753 -0.16022325 1.7350001 70 75 63 255
-0.085665382 -0.16022728 1.7350001 71 76 64 255
-0.080854028 -0.16013877 1.7340001 70 75 63 255
-0.076047853 -0.16005003 1.733 71 76 62 255
-0.071329117 -0.16014579 1.7340001 68 73 61 255
-0.066642992 -0.16033369 1.7360001 72 77 65 255
-0.061945599 -0.16052139 1.738 66 73 61 255
-0.057269864 -0.16080123 1.7410001 66 73 61 255
-0.052486964 -0.16080377 1.7410001 66 73 61 255
-0.047703844 -0.16080609 1.7410001 62 69 57 255
-0.04289588 -0.16071583 1.7400001 63 72 60 255
-0.038158949 -0.16090246 1.7420001 66 73 61 255
-0.03341087 -0.16108884 1.7440001 65 72 60 255
-0.02868448 -0.16145976 1.748 63 71 56 255
-0.023935987 -0.16183047 1.7520001 65 72 60 255
-0.019165412 -0.16220093 1.756 63 68 56 255
-0.01434828 -0.1622941 1.7570001 64 69 55 255
-0.0095310071 -0.1624794 1.7590001 60 68 53 255
-0.0047000335 -0.1625721 1.7600001 64 72 57 255
0.00013676583 -0.16303405 1.7650001 62 70 55 255
0.0050010444 -0.16349578 1.7700001 63 68 54 255
0.0098983543 -0.16404967 1.7760001 62 67 53 255
0.014811956 -0.16441858 1.7800001 62 67 55 255
0.019714275 -0.16451015 1.7810001 65 70 59 255
0.024649635 -0.1647862 1.784 65 72 60 255
0.029584821 -0.1649697 1.7860001 65 72 60 255
0.034627434 -0.16561477 1.7930001 63 70 58 255
0.039686311 -0.16616723 1.7990001 65 72 60 255
0.04475319 -0.16662709 1.8040001 67 72 58 255
0.049819801 -0.16699438 1.8080001 66 74 59 255
0.054877888 -0.16726904 1.8110001 60 68 53 255
0.060117468 -0.16800526 1.8190001 61 69 54 255
0.065221779 -0.16827944 1.8220001 63 71 56 255
0.070226677 -0.16827631 1.8220001 60 67 55 255
0.075107411 -0.16799587 1.8190001 61 68 57 255
0.73680103 -0.17077352 1.8640001 153 161 154 255
0.73509187 -0.16921061 1.8470001 154 162 154 255
0.73809981 -0.16874744 1.8420001 153 161 153 255
0.73825783 -0.16764335 1.83 154 162 154 255
0.73957032 -0.16681449 1.8210001 156 164 157 255
0.73838198 -0.16543636 1.8060001 158 166 159 255
0.73834825 -0.16433342 1.794 158 166 159 255
0.73783624 -0.16313928 1.7810001 158 166 159 255
0.73600388 -0.16167073 1.7650001 161 169 162 255
0.73702413 -0.16084376 1.756 161 170 163 255
0.73630702 -0.15965076 1.743 166 175 168 255
0.73764652 -0.15891613 1.7350001 165 174 167 255
0.73509312 -0.1573575 1.7180001 165 174 167 255
0.7350325 -0.15634885 1.7070001 165 173 166 255
0.7344802 -0.15524897 1.6950001 167 175 168 255
0.73648065 -0.15469903 1.6890001 168 175 171 255
0.7371338 -0.15387467 1.6800001 165 173 166 255
0.73729819 -0.15295909 1.6700001 171 179 172 255
0.73652142 -0.1518607 1.6580001 170 178 171 255
0.73568118 -0.15076269 1.646 171 179 172 255
0.73522711 -0.14975663 1.6350001 174 183 176 255
0.73516738 -0.14884256 1.6250001 174 183 176 255
0.73460001 -0.14783724 1.6140001 176 185 178 255
0.73397458 -0.14683229 1.603 177 185 178 255
0.73421246 -0.14601091 1.5940001 178 186 179 255
0.73440319 -0.14518988 1.585 179 187 180 255
0.73501319 -0.14446086 1.577 180 188 181 255
0.73558176 -0.14373219 1.5690001 181 189 182 255
0.73516572 -0.14282067 1.559 180 187 183 255
0.73564589 -0.14209276 1.5510001 182 189 185 255
0.73513067 -0.14118198 1.5410001 181 188 184 255
0.73600245 -0.14054641 1.534 180 187 183 255
0.73442578 -0.13945311 1.5220001 182 189 185 255
0.73278594 -0.13836016 1.5100001 184 191 188 255
-0.9908613 -0.17324622 1.8330001 53 55 45 255
-0.98681265 -0.17341429 1.835 31 33 23 255
-0.96777856 -0.17093724 1.8090001 35 38 26 255
-0.96457249 -0.1721276 1.8220001 26 29 15 255
-0.980564 -0.17588808 1.8620001 29 31 14 255
-0.96962237 -0.17483142 1.8510001 27 29 12 255
-0.97542048 -0.17679781 1.8720001 26 28 11 255
-0.97436875 -0.17753686 1.8800001 30 32 15 255
-0.96709144 -0.17714334 1.876 22 24 7 255
-0.94240773 -0.17354034 1.8380001 21 22 8 255
-0.92660826 -0.17154354 1.817 23 24 10 255
-0.9302029 -0.17313501 1.8340001 23 22 8 255
-0.9352209 -0.17501003 1.8540001 24 21 7 255
-0.93912905 -0.17669661 1.8720001 19 18 2 255
-0.93446016 -0.17677908 1.8730001 35 21 4 255
-0.93227035 -0.17733403 1.8790001 64 49 30 255
-0.93054473 -0.17798387 1.886 87 65 39 255
-0.92731237 -0.17835113 1.8900001 80 56 28 255
-0.92064625 -0.1780584 1.8870001 94 70 42 255
-0.91448534 -0.17786063 1.8850001 121 95 67 255
-0.90930372 -0.17785217 1.8850001 72 45 16 255
-0.90460503 -0.17793861 1.886 72 45 16 255
-0.89751971 -0.17755388 1.8820001 129 103 71 255
-0.89093351 -0.17726406 1.8790001 148 123 91 255
-0.88719529 -0.17754081 1.8820001 65 43 15 255
-0.88813037 -0.17876139 1.8950001 60 43 14 255
-0.88713336 -0.17960511 1.904 62 47 18 255
-0.8847003 -0.1801663 1.9100001 57 44 20 255
-0.87855357 -0.17997339 1.9080001 52 41 18 255
-0.87242043 -0.17978097 1.9060001 52 41 18 255
-0.86402589 -0.17911744 1.899 44 35 14 255
-0.85612428 -0.17854872 1.8930001 31 24 4 255
-0.84870756 -0.17807487 1.8880001 27 22 2 255
-0.84042674 -0.17741279 1.881 20 16 0 255
-0.83440667 -0.1772228 1.8790001 22 18 1 255
-0.82972395 -0.17731622 1.8800001 25 19 2 255
-0.82854658 -0.17816459 1.8890001 20 14 0 255
-0.82165575 -0.17778729 1.8850001 102 99 79 255
-0.81478858 -0.17741039 1.881 215 212 192 255
-0.80794519 -0.17703396 1.8770001 206 205 183 255
-0.80112529 -0.1766579 1.8730001 201 204 180 255
-0.79517895 -0.17647089 1.8710001 194 200 175 255
-0.78966755 -0.17637859 1.8700001 188 196 170 255
-0.78458261 -0.17638099 1.8700001 138 146 120 255
-0.77908236 -0.17628944 1.8690001 209 216 194 255
-0.77234679 -0.1759153 1.8650001 202 211 190 255
-0.7656343 -0.17554151 1.8610001 204 215 196 255
-0.75894499 -0.17516808 1.8570001 208 218 201 255
-0.7506547 -0.17441761 1.8490001 210 220 205 255
-0.74079597 -0.17329016 1.8370001 215 225 210 255
-0.73100358 -0.17216298 1.825 210 220 205 255
-0.72207308 -0.17122471 1.8150001 210 220 205 255
-0.7155686 -0.17085278 1.8110001 173 183 166 255
-0.70908684 -0.17048112 1.807 172 183 164 255
-0.70340723 -0.17029846 1.8050001 186 196 179 255
-0.69696522 -0.16992734 1.8010001 202 212 195 255
-0.69016141 -0.16946213 1.7960001 195 203 186 255
-0.6830039 -0.16890283 1.7900001 182 190 173 255
-0.67663747 -0.16853249 1.7860001 193 201 184 255
-0.67066938 -0.16825673 1.7830001 184 194 177 255
-0.66397136 -0.16779247 1.7780001 208 219 200 255
-0.65767175 -0.16742279 1.774 177 188 169 255
-0.65213037 -0.16724211 1.7720001 192 203 184 255
-0.64623481 -0.16696723 1.7690001 170 181 162 255
-0.63999355 -0.1665982 1.7650001 182 193 174 255
-0.63341433 -0.16613495 1.7600001 124 135 114 255
-0.62757689 -0.16586068 1.7570001 191 202 181 255
-0.62211061 -0.16568102 1.7550001 184 194 171 255
-0.6173588 -0.16569033 1.7550001 177 189 164 255
-0.61190921 -0.16551106 1.7530001 175 187 162 255
-0.60716331 -0.16552079 1.7530001 172 184 159 255
-0.60207385 -0.16543627 1.7520001 173 183 157 255
-0.59733099 -0.16544639 1.7520001 157 170 143 255
-0.59326458 -0.16564555 1.7540001 167 176 145 255
-0.58885181 -0.16575046 1.7550001 93 102 71 255
-0.58410084 -0.16576113 1.7550001 134 142 106 255
-0.57934988 -0.16577195 1.7550001 134 140 104 255
-0.5749262 -0.16587739 1.756 142 149 110 255
-0.57017231 -0.16588853 1.756 141 148 109 255
-0.56509626 -0.16580535 1.7550001 145 153 117 255
-0.56066412 -0.16591126 1.756 148 156 120 255
-0.55622637 -0.16601734 1.7570001 139 147 111 255
-0.55178297 -0.16612354 1.7580001 146 154 118 255
-0.54733384 -0.16622989 1.7590001 137 145 110 255
-0.54257053 -0.16624187 1.7590001 138 144 108 255
-0.53780699 -0.16625398 1.7590001 138 144 108 255
-0.53364915 -0.16645524 1.761 145 152 113 255
-0.52948022 -0.16665664 1.7630001 140 147 108 255
-0.5250023 -0.16676362 1.7640001 137 144 105 255
-0.51992875 -0.16668165 1.7630001 133 140 101 255
-0.51573688 -0.16688339 1.7650001 134 141 102 255
-0.51153362 -0.16708526 1.7670001 133 140 101 255
-0.50760573 -0.16738178 1.7700001 132 138 102 255
-0.50309306 -0.16748929 1.771 133 139 103 255
-0.49885574 -0.16769148 1.7730001 129 137 101 255
-0.49460715 -0.16789375 1.7750001 120 128 92 255
-0.490623 -0.16819073 1.7780001 123 130 91 255
-0.48662189 -0.16848779 1.7810001 117 126 87 255
-0.482063 -0.16859573 1.7820001 120 127 87 255
-0.47696236 -0.16851451 1.7810001 121 129 86 255
-0.47213161 -0.16852793 1.7810001 123 130 90 255
-0.46756253 -0.16863601 1.7820001 123 132 93 255
-0.46324697 -0.16883878 1.784 120 128 92 255
-0.45866299 -0.16894697 1.7850001 126 134 99 255
-0.45432702 -0.16914985 1.7870001 134 142 107 255
-0.44922492 -0.1690688 1.7860001 140 147 115 255
-0.44387874 -0.16889305 1.784 143 153 120 255
-0.43829647 -0.16862263 1.7810001 148 159 128 255
-0.43297318 -0.16844685 1.779 150 161 130 255
-0.42814124 -0.16846041 1.779 147 158 129 255
-0.42330852 -0.16847397 1.779 146 159 130 255
-0.41823977 -0.16839281 1.7780001 151 164 137 255
-0.41271061 -0.16812222 1.7750001 154 167 140 255
-0.4069671 -0.16775678 1.771 153 166 137 255
-0.40124455 -0.1673913 1.7670001 142 153 124 255
-0.39599156 -0.16721518 1.7650001 136 147 116 255
-0.39052698 -0.16694428 1.7620001 140 149 118 255
-0.38573465 -0.16695754 1.7620001 144 153 122 255
-0.38072526 -0.16687602 1.761 152 161 130 255
-0.37572044 -0.16679442 1.7600001 152 161 130 255
-0.37029862 -0.16652319 1.7570001 152 161 130 255
-0.3648923 -0.16625188 1.7540001 151 162 131 255
-0.35950148 -0.16598047 1.751 136 147 116 255
-0.35432866 -0.16580375 1.7490001 119 128 97 255
-0.34936568 -0.16572173 1.748 123 132 101 255
-0.34499878 -0.1659241 1.7500001 119 128 97 255
-0.34100884 -0.16631602 1.7540001 120 127 95 255
-0.33699632 -0.16670795 1.7580001 102 110 75 255
-0.33296099 -0.16709985 1.7620001 93 99 63 255
-0.32815805 -0.16711235 1.7620001 88 94 59 255
-0.32317069 -0.1670299 1.761 87 92 60 255
-0.31818786 -0.16694736 1.7600001 78 83 52 255
-0.31303155 -0.16676983 1.7580001 38 41 19 255
-0.30770993 -0.16649732 1.7550001 25 27 9 255
-0.30205858 -0.16603489 1.7500001 25 27 10 255
-0.29677337 -0.16576205 1.7470001 23 22 8 255
-0.29167089 -0.16558397 1.7450001 27 24 10 255
-0.28723601 -0.16578531 1.7470001 26 23 9 255
-0.28230429 -0.16570185 1.7460001 28 25 11 255
-0.27769512 -0.16580808 1.7470001 29 26 12 255
-0.2730796 -0.16591421 1.748 28 27 13 255
-0.2684578 -0.16602023 1.7490001 28 29 15 255
-0.26367888 -0.16603118 1.7490001 28 31 17 255
-0.2586031 -0.16585213 1.7470001 82 87 75 255
-0.25353736 -0.16567291 1.7450001 62 69 57 255
-0.24876688 -0.16568343 1.7450001 52 60 52 255
-0.24399556 -0.16569379 1.7450001 94 102 94 255
-0.23908637 -0.16560906 1.7440001 96 104 97 255
-0.23404747 -0.16542919 1.7420001 89 97 89 255
-0.22901872 -0.16524915 1.7400001 82 90 82 255
-0.22400014 -0.16506891 1.738 77 86 75 255
-0.21911785 -0.16498351 1.7370001 74 83 71 255
-0.2142403 -0.16489792 1.7360001 73 82 70 255
-0.20960882 -0.16500214 1.7370001 60 67 55 255
-0.2047352 -0.16491617 1.7360001 56 63 51 255
-0.19998159 -0.16492505 1.7360001 66 73 62 255
-0.19511478 -0.16483878 1.7350001 54 60 52 255
-0.19047217 -0.16494231 1.7360001 45 51 43 255
-0.18571641 -0.16495067 1.7360001 79 88 77 255
-0.18075152 -0.16476882 1.7340001 78 87 76 255
-0.17610139 -0.16487183 1.7350001 73 80 68 255
-0.17134638 -0.16487963 1.7350001 55 62 50 255
-0.16659074 -0.16488726 1.7350001 55 62 50 255
-0.16174117 -0.16479965 1.7340001 69 76 64 255
-0.15680596 -0.16461679 1.7320001 76 85 73 255
-0.15205668 -0.16462383 1.7320001 73 82 70 255
-0.14739189 -0.16472571 1.733 71 78 66 255
-0.14263874 -0.16473235 1.733 67 75 60 255
-0.13788505 -0.16473882 1.733 63 71 56 255
-0.13305397 -0.16464999 1.7320001 63 68 56 255
-0.12845013 -0.16484617 1.7340001 62 67 55 255
-0.12369213 -0.16485201 1.7340001 61 66 54 255
-0.11900222 -0.16495271 1.7350001 79 84 72 255
-0.11424053 -0.16495815 1.7350001 65 70 58 255
-0.10941526 -0.16486828 1.7340001 68 73 62 255
-0.10465541 -0.16487329 1.7340001 70 75 64 255
-0.099837542 -0.16478302 1.733 68 73 62 255
-0.095134482 -0.16488267 1.7340001 70 75 64 255
-0.090425558 -0.16498213 1.7350001 68 73 61 255
-0.085612021 -0.16489117 1.7340001 68 73 61 255
-0.080803633 -0.1648 1.733 69 74 62 255
-0.076044291 -0.16480371 1.733 68 73 59 255
-0.071325779 -0.16490231 1.7340001 70 75 63 255
-0.06663987 -0.16509578 1.7360001 72 77 65 255
-0.061871413 -0.16509883 1.7360001 68 75 63 255
-0.057201385 -0.16538697 1.7390001 67 74 62 255
-0.052424204 -0.16538958 1.7390001 66 73 61 255
-0.047646802 -0.16539197 1.7390001 62 71 59 255
-0.042844556 -0.16529901 1.738 64 71 59 255
-0.038069535 -0.16530095 1.738 66 73 61 255
-0.033332668 -0.16549288 1.7400001 65 72 60 255
-0.02861749 -0.16587479 1.7440001 65 70 56 255
-0.023907535 -0.16644673 1.7500001 64 69 57 255
-0.019142682 -0.16682822 1.7540001 64 69 57 255
-0.014323103 -0.166829 1.7540001 65 70 56 255
-0.009514302 -0.16701981 1.756 63 71 56 255
-0.0046918001 -0.16711527 1.7570001 61 68 56 255
0.00013652691 -0.16759093 1.7620001 60 67 55 255
0.004986681 -0.16787615 1.7650001 63 70 58 255
0.0098644486 -0.16835138 1.7700001 63 70 58 255
0.01474469 -0.16854101 1.7720001 66 73 61 255
0.019635862 -0.16873041 1.774 64 71 60 255
0.024565576 -0.16910982 1.7780001 65 72 61 255
0.029484039 -0.16929875 1.7800001 69 76 64 255
0.034490619 -0.16986789 1.7860001 70 77 65 255
0.03950797 -0.17034167 1.7910001 69 76 64 255
0.044453401 -0.17043477 1.7920001 72 80 65 255
0.049431704 -0.17062274 1.794 75 83 68 255
0.054420788 -0.17081049 1.7960001 78 86 71 255
0.059552826 -0.1713784 1.802 78 86 71 255
0.06450282 -0.17137544 1.802 76 84 69 255
0.069491088 -0.17146736 1.8030001 75 82 70 255
0.074525848 -0.17165415 1.8050001 72 79 68 255
0.079571307 -0.17184071 1.807 71 78 67 255
0.084487073 -0.17174172 1.8060001 71 78 67 255
0.089297958 -0.17145236 1.8030001 69 76 65 255
0.73837644 -0.17622992 1.868 152 160 153 255
0.7362805 -0.17452629 1.8500001 154 162 155 255
0.73569065 -0.17320038 1.8360001 152 160 153 255
0.73663962 -0.17225224 1.8260001 155 163 156 255
0.73712927 -0.17121013 1.8150001 155 163 156 255
0.73796928 -0.17026275 1.8050001 157 165 158 255
0.73752153 -0.16903278 1.7920001 155 163 156 255
0.73700452 -0.16780321 1.779 156 164 157 255
0.73600107 -0.16647971 1.7650001 160 168 161 255
0.73618227 -0.16543958 1.7540001 161 170 163 255
0.736305 -0.16439982 1.743 162 171 164 255
0.73764491 -0.16364342 1.7350001 166 175 168 255
0.73594761 -0.16222714 1.72 163 172 165 255
0.73546219 -0.16109423 1.7080001 161 170 163 255
0.73491305 -0.15996173 1.6960001 167 175 168 255
0.73735255 -0.15948981 1.6910001 166 174 167 255
0.73757279 -0.1585467 1.6810001 165 173 166 255
0.7364158 -0.15732102 1.6680001 164 172 165 255
0.7347455 -0.15600139 1.654 167 175 168 255
0.7347886 -0.15505943 1.6440001 172 180 173 255
0.73567849 -0.15430647 1.636 173 182 175 255
0.73607427 -0.15345961 1.6270001 175 184 177 255
0.73642302 -0.15261312 1.618 175 184 177 255
0.73580897 -0.15157835 1.6070001 178 186 179 255
0.73513693 -0.15054396 1.5960001 177 185 178 255
0.73394364 -0.14941563 1.5840001 178 185 181 255
0.73501724 -0.14875929 1.577 180 187 183 255
0.73558635 -0.14800905 1.5690001 178 185 181 255
0.73469907 -0.14697616 1.5580001 180 187 183 255
0.73375398 -0.14594363 1.5470001 180 187 183 255
0.73275113 -0.14491145 1.536 180 187 183 255
0.73408943 -0.14435141 1.5300001 181 188 184 255
0.73394972 -0.14350867 1.521 183 190 187 255
0.73279285 -0.14247763 1.5100001 181 188 185 255
1.1306517 -0.15167569 1.577 197 202 199 255
-1.0157495 -0.18272857 1.8790001 60 62 52 255
-1.0035049 -0.18144231 1.8660001 48 50 40 255
-0.98426878 -0.18165319 1.8690001 25 29 12 255
-0.97074789 -0.18103409 1.863 23 25 8 255
-0.97853166 -0.18344627 1.8880001 27 29 12 255
-0.95782793 -0.18051516 1.858 23 24 10 255
-0.94908834 -0.1798196 1.8510001 22 23 9 255
-0.93682176 -0.17844486 1.8370001 22 23 9 255
-0.93731719 -0.17949927 1.848 26 23 9 255
-0.93926936 -0.18084553 1.8620001 27 23 7 255
-0.93863976 -0.18170665 1.8710001 25 17 0 255
-0.93696648 -0.18237408 1.8780001 69 45 27 255
-0.93426627 -0.1828478 1.8830001 76 53 31 255
-0.93154228 -0.18332209 1.8880001 72 48 20 255
-0.92732245 -0.18350565 1.8900001 65 41 13 255
-0.92114377 -0.18330146 1.8880001 63 39 11 255
-0.91594976 -0.18329205 1.8880001 67 41 13 255
-0.91172403 -0.18347737 1.8900001 77 50 22 255
-0.90653145 -0.18346912 1.8900001 130 101 73 255
-0.89943445 -0.18307313 1.886 136 109 80 255
-0.89283681 -0.18277483 1.8830001 146 120 92 255
-0.88908702 -0.18305944 1.886 75 55 29 255
-0.88860476 -0.18402402 1.8960001 52 38 14 255
