ply
format ascii 1.0
comment PCL generated
element vertex 1033
property float x
property float y
property float z
property uchar red
property uchar green
property uchar blue
property uchar alpha
element camera 0
property float view_px
property float view_py
property float view_pz
property float x_axisx
property float x_axisy
property float x_axisz
property float y_axisx
property float y_axisy
property float y_axisz
property float z_axisx
property float z_axisy
property float z_axisz
property float focal
property float scalex
property float scaley
property float centerx
property float centery
property int viewportx
property int viewporty
property float k1
property float k2
end_header
0.23258804 0.13265859 1.5410001 81 89 82 255
0.23649159 0.13247755 1.539 85 93 86 255
0.24085265 0.13255467 1.5400001 87 96 85 255
0.24521844 0.13263169 1.5410001 64 70 62 255
0.24926519 0.13253646 1.5400001 59 65 57 255
0.25281188 0.13218294 1.536 60 66 58 255
0.25650334 0.13191548 1.5330001 60 66 58 255
0.26017764 0.13164794 1.5300001 94 100 93 255
0.2643531 0.13163845 1.5300001 93 99 92 255
0.26852781 0.13162889 1.5300001 69 75 67 255
0.27270168 0.13161924 1.5300001 71 77 69 255
0.27669385 0.13152348 1.529 71 78 67 255
0.28104714 0.13159969 1.5300001 71 77 69 255
0.28484583 0.13141778 1.5280001 70 76 68 255
0.28863281 0.13123584 1.526 72 78 70 255
0.2922163 0.13096786 1.5230001 87 93 85 255
0.29675558 0.13112979 1.5250001 75 81 73 255
0.30150232 0.13137761 1.5280001 71 77 69 255
0.30586445 0.13145335 1.529 71 77 69 255
0.30982581 0.13135713 1.5280001 68 77 66 255
0.31336993 0.13108893 1.5250001 68 77 66 255
0.31731334 0.13099264 1.524 71 80 69 255
0.32125053 0.1308963 1.5230001 71 80 69 255
0.32539523 0.1308859 1.5230001 71 80 69 255
0.32975546 0.13096134 1.524 69 77 69 255
0.33368221 0.13086493 1.5230001 70 78 70 255
0.33804637 0.13094032 1.524 71 79 71 255
0.34196621 0.13084383 1.5230001 73 79 71 255
0.34633431 0.13091914 1.524 72 78 70 255
0.35047719 0.13090853 1.524 71 78 67 255
0.35485202 0.13098378 1.5250001 70 77 66 255
0.35899615 0.13097313 1.5250001 69 78 67 255
0.36313954 0.13096246 1.5250001 69 76 65 255
0.36704141 0.13086589 1.524 71 77 69 255
0.37118071 0.13085522 1.524 70 77 66 255
0.37581182 0.13101624 1.526 71 78 67 255
0.3802042 0.13109142 1.5270001 67 76 65 255
0.38434961 0.13108072 1.5270001 66 75 63 255
0.38798556 0.13089836 1.5250001 66 76 61 255
0.39212424 0.1308877 1.5250001 67 76 64 255
0.39600247 0.13079122 1.524 72 79 67 255
0.40039971 0.13086642 1.5250001 71 78 67 255
0.40453658 0.13085583 1.5250001 69 76 65 255
0.40894076 0.13093105 1.526 72 78 70 255
0.4130792 0.13092053 1.526 70 74 66 255
0.41776389 0.13108158 1.5280001 65 71 63 255
0.42218268 0.13115688 1.529 66 72 64 255
0.42604879 0.13106067 1.5280001 66 72 64 255
0.43019053 0.13105027 1.5280001 68 75 64 255
0.43404743 0.13095418 1.5270001 66 75 64 255
0.43818545 0.13094389 1.5270001 62 71 60 255
0.44232297 0.13093367 1.5270001 63 72 61 255
0.44675249 0.13100927 1.5280001 60 69 58 255
0.45089188 0.13099918 1.5280001 60 67 56 255
0.45503092 0.13098915 1.5280001 61 68 56 255
0.45826808 0.13072205 1.5250001 64 71 59 255
0.46209505 0.13062648 1.524 62 69 57 255
0.46591631 0.13053104 1.5230001 62 69 57 255
0.47004038 0.13052137 1.5230001 64 70 62 255
0.47385287 0.13042611 1.5220001 56 64 56 255
0.47765967 0.13033094 1.521 63 71 64 255
0.48114416 0.13015021 1.5190001 83 91 84 255
0.48397866 0.12979828 1.5150001 82 90 82 255
0.48679131 0.12944649 1.511 82 90 82 255
0.48990697 0.12918052 1.508 75 84 73 255
0.49431664 0.12925734 1.5090001 73 82 71 255
0.49906188 0.12941991 1.511 72 81 69 255
0.50448394 0.1297539 1.5150001 72 79 67 255
0.50959182 0.13000229 1.5180001 72 79 67 255
0.51403916 0.13007955 1.5190001 70 77 66 255
0.5191741 0.13032818 1.5220001 70 77 65 255
0.52501309 0.13074818 1.5270001 70 77 65 255
0.53087914 0.13116826 1.5320001 69 77 62 255
0.53502619 0.13116036 1.5320001 62 70 55 255
0.53776562 0.13081022 1.5280001 52 60 45 255
0.54012901 0.13037466 1.5230001 49 56 44 255
0.54318017 0.1301105 1.5200001 50 57 46 255
0.5462153 0.12984657 1.5170001 56 63 52 255
0.5510484 0.13001075 1.5190001 68 73 62 255
0.55662358 0.1303463 1.5230001 73 78 66 255
0.56185257 0.13059638 1.526 54 59 45 255
0.5656147 0.13050435 1.5250001 26 31 17 255
0.5697453 0.13049808 1.5250001 31 37 20 255
0.57199502 0.13006416 1.5200001 44 52 37 255
0.57573408 0.12997274 1.5190001 78 85 73 255
0.57985008 0.12996711 1.5190001 76 83 72 255
0.58550447 0.13030392 1.5230001 65 72 61 255
0.58924532 0.13021313 1.5220001 62 67 55 255
0.59181184 0.12986593 1.5180001 61 66 54 255
0.59435743 0.12951897 1.5140001 61 69 54 255
0.59846324 0.12951447 1.5140001 61 69 54 255
0.60296786 0.12959573 1.5150001 66 76 61 255
0.60667723 0.12950613 1.5140001 67 77 62 255
0.6103822 0.12941681 1.5130001 67 77 62 255
0.61408263 0.12932771 1.5120001 70 78 63 255
0.61818743 0.12932442 1.5120001 73 78 66 255
0.62229335 0.1293214 1.5120001 68 73 61 255
0.62805736 0.12966073 1.516 15 18 6 255
0.63175941 0.1295727 1.5150001 20 21 9 255
0.63503742 0.12939942 1.5130001 19 22 10 255
0.63661599 0.12888432 1.5070001 19 22 10 255
0.63858837 0.12845504 1.5020001 20 23 11 255
0.65041715 0.12836632 1.501 16 21 9 255
0.65581286 0.12862241 1.5040001 18 21 9 255
0.65947133 0.12853672 1.503 20 23 11 255
0.66312605 0.12845136 1.5020001 19 22 10 255
0.66633266 0.12828079 1.5000001 19 22 10 255
0.67042398 0.12828158 1.5000001 21 22 10 255
-0.7579782 0.13711691 1.6560001 179 184 170 255
-0.7461738 0.13578993 1.6400001 158 164 147 255
-0.73672026 0.13487735 1.6290001 206 214 197 255
-0.7264297 0.13379954 1.6160001 207 218 199 255
-0.71531862 0.13255651 1.6010001 208 219 200 255
-0.70517927 0.13147943 1.5880001 200 211 190 255
-0.69643676 0.13065107 1.5780001 140 152 129 255
-0.69038218 0.13031982 1.5740001 139 150 121 255
-0.68565869 0.13023725 1.5730001 144 155 124 255
-0.68137556 0.13023783 1.5730001 136 145 114 255
-0.6766634 0.13015589 1.572 131 138 107 255
-0.67195821 0.13007426 1.5710001 130 137 106 255
-0.66640997 0.12982731 1.5680001 109 116 87 255
-0.66130167 0.12966347 1.5660001 108 115 84 255
-0.65620559 0.12949991 1.5640001 113 120 89 255
-0.652789 0.1296678 1.5660001 121 128 97 255
-0.64894861 0.12975319 1.567 126 133 102 255
-0.64469266 0.12975605 1.567 128 135 104 255
-0.64084643 0.12984197 1.5680001 127 136 105 255
-0.63699591 0.12992816 1.5690001 125 132 101 255
-0.63354421 0.1300974 1.5710001 125 132 101 255
-0.63048315 0.13034974 1.5740001 118 125 94 255
-0.62661105 0.13043669 1.575 120 125 94 255
-0.62312955 0.13060673 1.577 118 125 94 255
-0.61885321 0.13061136 1.577 146 153 122 255
-0.6153571 0.13078186 1.5790001 141 150 119 255
-0.61223781 0.13103545 1.582 129 138 107 255
-0.60871875 0.13120644 1.5840001 122 131 100 255
-0.60557103 0.13146049 1.5870001 114 123 92 255
-0.60240757 0.13171476 1.59 105 114 83 255
-0.59998089 0.13213497 1.595 112 119 88 255
-0.59603381 0.13222404 1.5960001 103 110 79 255
-0.5917111 0.13223046 1.5960001 95 102 70 255
-0.5870207 0.13215421 1.595 97 104 72 255
-0.5830667 0.13224387 1.5960001 99 106 74 255
-0.57910782 0.13233374 1.5970001 110 119 88 255
-0.57514375 0.13242377 1.598 107 116 85 255
-0.57117462 0.13251401 1.5990001 111 120 91 255
-0.5672003 0.13260442 1.6 120 128 102 255
-0.56357259 0.13277791 1.6020001 113 121 95 255
-0.55993426 0.13295156 1.6040001 118 126 100 255
-0.55767071 0.13345698 1.6100001 112 120 94 255
-0.5543437 0.13371389 1.613 126 134 109 255
-0.55065972 0.1338881 1.6150001 123 129 103 255
-0.54628837 0.13389666 1.6150001 121 127 101 255
-0.54258817 0.13407119 1.6170001 133 139 113 255
-0.5392099 0.1343288 1.6200001 127 134 105 255
-0.53548527 0.13450366 1.6220001 126 133 102 255
-0.53240448 0.1348445 1.626 119 126 97 255
-0.52897727 0.1351026 1.6290001 120 128 102 255
-0.52521163 0.13527791 1.631 127 136 107 255
-0.52143514 0.13545336 1.6330001 122 131 100 255
-0.51733083 0.135546 1.6340001 122 131 100 255
-0.51353484 0.1357217 1.636 117 126 95 255
-0.50879425 0.13564865 1.6350001 98 108 75 255
-0.50467569 0.13574162 1.636 111 118 87 255
-0.49993989 0.13566875 1.6350001 116 123 92 255
-0.49581522 0.13576192 1.636 116 123 92 255
-0.49108425 0.13568921 1.6350001 118 128 95 255
-0.48635814 0.13561657 1.6340001 116 125 94 255
-0.48075226 0.13529499 1.6300001 125 136 105 255
-0.47516766 0.13497342 1.626 120 131 102 255
-0.47018331 0.13481791 1.6240001 124 133 102 255
-0.46492246 0.13457941 1.6210001 124 133 104 255
-0.46052983 0.13459003 1.6210001 121 130 101 255
-0.45585519 0.13451767 1.6200001 125 134 105 255
-0.4520216 0.13469447 1.6220001 126 133 102 255
-0.4479005 0.13478829 1.623 115 122 91 255
-0.44486651 0.13521439 1.628 106 113 82 255
-0.44207543 0.13572367 1.6340001 105 110 78 255
-0.43844765 0.13598385 1.6370001 105 110 78 255
-0.43400761 0.13599488 1.6370001 101 108 77 255
-0.42956698 0.13600594 1.6370001 106 113 82 255
-0.42512557 0.13601702 1.6370001 112 119 88 255
-0.42171153 0.13636051 1.641 119 126 97 255
-0.41802084 0.13662098 1.6440001 125 133 107 255
-0.41355842 0.13663216 1.6440001 138 146 120 255
-0.40909541 0.13664335 1.6440001 131 141 115 255
-0.40413934 0.1364883 1.6420001 133 145 120 255
-0.39821976 0.13600069 1.636 150 163 136 255
-0.39088792 0.13501421 1.6240001 144 158 126 255
-0.38504836 0.1345264 1.618 105 116 85 255
-0.3801817 0.1343711 1.6160001 102 113 82 255
-0.37602273 0.13446523 1.6170001 135 146 115 255
-0.37162784 0.1344762 1.6170001 157 168 137 255
-0.36836764 0.134903 1.6220001 121 132 101 255
-0.36530378 0.13541301 1.628 86 98 65 255
-0.36220658 0.13592309 1.6340001 72 80 45 255
-0.35754329 0.13585088 1.6330001 84 90 54 255
-0.35201967 0.13544582 1.628 88 93 61 255
-0.34716302 0.13529028 1.626 99 106 75 255
-0.34294873 0.13538431 1.6270001 111 121 95 255
-0.33872822 0.13547827 1.628 120 132 109 255
-0.33429611 0.13548902 1.628 119 130 109 255
-0.32986316 0.13549969 1.628 121 132 111 255
-0.32602903 0.13576002 1.631 120 131 112 255
-0.32178336 0.13585384 1.6320001 89 98 79 255
-0.31772587 0.13603085 1.6340001 14 18 0 255
-0.31250632 0.1357083 1.6300001 27 27 9 255
-0.30787468 0.13563542 1.6290001 36 34 16 255
-0.30287513 0.1353959 1.626 41 40 24 255
-0.29880878 0.13557266 1.628 38 39 25 255
-0.29400748 0.13541624 1.626 24 29 17 255
-0.28957239 0.13542628 1.626 93 100 89 255
-0.28425965 0.13501976 1.6210001 85 93 86 255
-0.27897337 0.13461311 1.6160001 80 88 81 255
-0.27371356 0.1342063 1.6110001 82 90 82 255
-0.26914895 0.13413259 1.6100001 75 83 75 255
-0.26458892 0.13405877 1.6090001 77 85 77 255
-0.26019523 0.13406816 1.6090001 62 70 62 255
-0.25516483 0.13374412 1.605 69 77 69 255
-0.25062427 0.13366997 1.6040001 65 73 66 255
-0.24593484 0.13351236 1.6020001 84 92 85 255
-0.24125551 0.13335459 1.6 86 94 87 255
-0.2368824 0.1333634 1.6 74 82 75 255
-0.23250858 0.1333721 1.6 76 84 76 255
-0.22784883 0.13321395 1.598 70 79 68 255
-0.22347891 0.1332224 1.598 54 61 50 255
-0.21910825 0.13323075 1.598 51 58 47 255
-0.21473686 0.13323896 1.598 35 41 33 255
-0.2097065 0.13283013 1.5930001 74 80 72 255
-0.20496058 0.13258788 1.59 69 75 68 255
-0.20023036 0.13234548 1.5870001 82 88 81 255
-0.19600959 0.13243651 1.5880001 79 85 78 255
-0.19166197 0.13244402 1.5880001 69 75 68 255
-0.18707773 0.1322846 1.5860001 73 79 72 255
-0.18273424 0.13229181 1.5860001 84 90 83 255
-0.17816509 0.13213207 1.5840001 67 73 66 255
-0.17415492 0.13238926 1.5870001 74 81 70 255
-0.17023468 0.13272975 1.5910001 60 67 55 255
-0.16639617 0.13315357 1.5960001 57 64 52 255
-0.16252962 0.13357729 1.6010001 54 61 49 255
-0.15814117 0.13358368 1.6010001 54 61 50 255
-0.15365608 0.13350652 1.6 67 73 65 255
-0.14889599 0.13317882 1.5960001 96 102 94 255
-0.14424786 0.13293441 1.5930001 70 76 68 255
-0.13979122 0.13285671 1.5920001 58 64 56 255
-0.1354246 0.13286231 1.5920001 56 62 54 255
-0.13105744 0.13286774 1.5920001 59 65 57 255
-0.12668978 0.13287301 1.5920001 59 65 57 255
-0.12216794 0.13271119 1.59 65 71 63 255
-0.11787888 0.13279958 1.5910001 80 88 80 255
-0.11358384 0.13288781 1.5920001 70 78 70 255
-0.10928287 0.13297589 1.5930001 54 62 54 255
-0.10497597 0.13306381 1.5940001 73 81 73 255
-0.10060006 0.13306807 1.5940001 77 85 77 255
-0.096163355 0.13298866 1.5930001 67 75 68 255
-0.091847017 0.13307609 1.5940001 79 87 80 255
-0.087360181 0.13291284 1.5920001 69 77 70 255
-0.082988225 0.13291641 1.5920001 54 62 55 255
-0.078517169 0.13275281 1.59 59 67 60 255
-0.074150048 0.13275602 1.59 56 64 57 255
-0.069738746 0.13267554 1.5890001 61 69 62 255
-0.06541492 0.13276188 1.59 60 66 59 255
-0.061046936 0.13276456 1.59 52 58 51 255
-0.05660741 0.13260004 1.5880001 45 51 44 255
-0.052079938 0.13218483 1.5830001 78 84 77 255
-0.047609877 0.13185292 1.5790001 77 85 78 255
-0.043216404 0.13168783 1.577 64 70 62 255
-0.03890771 0.13177308 1.5780001 63 69 61 255
-0.034549545 0.13169114 1.577 64 70 62 255
-0.030235056 0.13177603 1.5780001 75 83 75 255
-0.025882114 0.13169372 1.577 72 80 72 255
-0.02153456 0.13161121 1.5760001 76 84 76 255
-0.01719241 0.13152851 1.575 77 85 78 255
-0.012855689 0.13144565 1.5740001 70 78 70 255
-0.0085298279 0.13144611 1.5740001 66 74 66 255
-0.0042012604 0.13136287 1.5730001 63 71 63 255
0.00012198326 0.13144647 1.5740001 61 69 61 255
0.0044507231 0.13152988 1.575 56 64 56 255
0.0087849414 0.13161311 1.5760001 59 67 59 255
0.013124618 0.13169615 1.577 58 67 56 255
0.017480811 0.13186254 1.5790001 60 67 56 255
0.021847919 0.13202871 1.5810001 58 64 56 255
0.026209362 0.13211119 1.582 59 66 55 255
0.030537559 0.13202648 1.5810001 59 66 55 255
0.034882199 0.13202509 1.5810001 58 64 56 255
0.039226692 0.13202353 1.5810001 61 66 55 255
0.043571021 0.13202175 1.5810001 61 66 54 255
0.047915172 0.13201983 1.5810001 59 64 52 255
0.052226059 0.1319342 1.58 60 65 53 255
0.056567043 0.1319319 1.58 59 66 54 255
0.060946342 0.13201293 1.5810001 62 69 58 255
0.06533087 0.13209374 1.582 61 68 57 255
0.0696766 0.13209091 1.582 64 70 62 255
0.073928453 0.1319209 1.58 67 73 65 255
0.078119472 0.13166723 1.577 69 75 67 255
0.082450554 0.13166386 1.577 65 73 65 255
0.086726263 0.13157684 1.5760001 68 76 68 255
0.091169454 0.13174009 1.5780001 68 76 68 255
0.095623255 0.13190317 1.58 69 78 67 255
0.10034071 0.13239999 1.5860001 63 70 59 255
0.10489269 0.13264617 1.5890001 60 67 56 255
0.10932319 0.13272521 1.59 58 65 54 255
0.11347275 0.13247019 1.5870001 59 65 57 255
0.11767961 0.13229848 1.585 68 74 66 255
0.12179808 0.13204317 1.582 69 77 70 255
0.12597929 0.13187113 1.58 65 73 66 255
0.13014905 0.131699 1.5780001 62 70 63 255
0.13430735 0.13152671 1.5760001 76 84 77 255
0.1382782 0.13118735 1.572 91 99 92 255
0.14186376 0.13051406 1.5640001 87 95 88 255
0.14587213 0.1302579 1.5610001 79 86 82 255
0.15005589 0.13016851 1.5600001 63 70 66 255
0.15443145 0.13024585 1.5610001 77 84 80 255
0.15860854 0.13015614 1.5600001 72 80 73 255
0.16288398 0.13014975 1.5600001 63 71 64 255
0.16705166 0.13005976 1.559 68 76 69 255
0.17121324 0.12996967 1.5580001 67 75 67 255
0.1757066 0.13012967 1.5600001 85 93 85 255
0.18009491 0.13020611 1.5610001 63 69 61 255
0.18448801 0.13028239 1.562 64 71 60 255
0.18840256 0.13002491 1.559 57 66 55 255
0.19230001 0.12976736 1.5560001 62 71 60 255
0.19643301 0.12967646 1.5550001 67 76 65 255
0.20030166 0.12941867 1.552 63 71 64 255
0.20428504 0.12924418 1.5500001 55 63 56 255
0.20825678 0.12906958 1.5480001 83 91 84 255
0.21249135 0.12906161 1.5480001 92 100 93 255
0.21644522 0.1288868 1.5460001 68 76 69 255
0.22024466 0.12862854 1.5430001 61 69 62 255
0.22417244 0.12845354 1.5410001 64 72 65 255
0.22838496 0.12844515 1.5410001 78 86 78 255
0.23229483 0.12826996 1.539 89 97 89 255
0.23619302 0.12809469 1.5370001 72 80 72 255
0.24039233 0.128086 1.5370001 87 96 85 255
0.24490918 0.12824388 1.539 60 67 56 255
0.24895054 0.12815166 1.5380001 57 64 53 255
0.25265646 0.12789272 1.5350001 57 63 55 255
0.25634524 0.12763372 1.5320001 59 65 57 255
0.25984684 0.12729137 1.5280001 93 99 91 255
0.26436251 0.12744877 1.5300001 83 89 81 255
0.26836172 0.12735619 1.529 73 79 71 255
0.272533 0.12734681 1.529 72 78 70 255
0.27634153 0.12717079 1.5270001 71 78 67 255
0.28050578 0.12716129 1.5270001 73 79 71 255
0.28448275 0.12706843 1.526 73 79 71 255
0.28826436 0.12689227 1.524 69 75 67 255
0.2922262 0.1267993 1.5230001 87 93 85 255
0.29676551 0.12695603 1.5250001 73 79 71 255
0.30151233 0.12719594 1.5280001 71 77 69 255
0.30587453 0.12726924 1.529 72 78 70 255
0.30983591 0.12717605 1.5280001 68 77 66 255
0.31358561 0.12699957 1.526 68 77 66 255
0.31732354 0.12682308 1.524 69 78 67 255
0.32147172 0.12681298 1.524 72 81 70 255
0.32561913 0.12680286 1.524 70 79 68 255
0.32998219 0.12687588 1.5250001 72 80 72 255
0.33369258 0.1266993 1.5230001 71 79 71 255
0.33805677 0.12677224 1.524 71 79 71 255
0.34197664 0.12667881 1.5230001 69 77 69 255
0.34634477 0.12675168 1.524 67 75 67 255
0.35071763 0.12682453 1.5250001 69 78 67 255
0.35486254 0.1268142 1.5250001 68 75 64 255
0.3587712 0.12672067 1.524 69 76 65 255
0.36267379 0.12662716 1.5230001 70 77 66 255
0.3668111 0.12661681 1.5230001 71 78 67 255
0.37119123 0.12668955 1.524 72 79 68 255
0.37582237 0.12684542 1.526 70 77 66 255
0.38021475 0.12691814 1.5270001 69 76 64 255
0.38436019 0.12690774 1.5270001 70 77 65 255
0.38825044 0.12681426 1.526 69 79 64 255
0.39213473 0.1267208 1.5250001 65 74 62 255
0.3960129 0.12662736 1.524 71 78 66 255
0.40041023 0.12670013 1.5250001 68 75 64 255
0.40454704 0.12668982 1.5250001 65 72 61 255
0.40895119 0.12676261 1.526 66 72 64 255
0.41363102 0.12691849 1.5280001 69 73 65 255
0.41804767 0.12699132 1.529 67 71 63 255
0.42219302 0.12698112 1.529 64 70 62 255
0.4260591 0.12688793 1.5280001 62 68 60 255
0.43020073 0.12687781 1.5280001 66 72 64 255
0.43405759 0.12678473 1.5270001 64 73 62 255
0.43790856 0.12669171 1.526 60 69 58 255
0.44233301 0.12676482 1.5270001 64 73 62 255
0.4467625 0.12683794 1.5280001 60 69 58 255
0.45119694 0.12691112 1.529 57 64 53 255
0.45504075 0.12681837 1.5280001 58 65 53 255
0.45857835 0.12664272 1.526 60 67 55 255
0.46240789 0.12655014 1.5250001 58 65 53 255
0.46623173 0.12645768 1.524 59 66 54 255
0.47035852 0.12644827 1.524 56 63 52 255
0.47448492 0.12643895 1.524 52 58 50 255
0.47861114 0.12642974 1.524 49 57 50 255
0.48210362 0.12625469 1.5220001 68 76 69 255
0.48526552 0.12599683 1.5190001 79 87 80 255
0.48808894 0.12565619 1.5150001 82 90 83 255
0.49056551 0.12523273 1.5100001 79 87 79 255
0.49399772 0.12505825 1.508 74 83 72 255
0.49807957 0.12504975 1.508 73 82 71 255
0.50349337 0.12537308 1.5120001 75 82 71 255
0.50859308 0.12561356 1.5150001 74 81 70 255
0.51337051 0.12577119 1.5170001 73 80 69 255
0.51884109 0.12609479 1.521 67 74 62 255
0.52502102 0.12658425 1.5270001 70 77 65 255
0.53088701 0.1269909 1.5320001 70 78 63 255
0.53433543 0.12681745 1.5300001 62 70 55 255
0.53706926 0.1264784 1.526 51 59 44 255
0.53942698 0.12605667 1.521 50 57 45 255
0.54318726 0.12596664 1.5200001 51 58 46 255
0.54622233 0.12571105 1.5170001 56 63 52 255
0.55178076 0.12603569 1.521 71 76 64 255
0.55663025 0.12619476 1.5230001 77 82 70 255
0.56185907 0.12643684 1.526 32 37 23 255
0.56562102 0.12634768 1.5250001 28 33 19 255
0.57012504 0.1264244 1.526 35 40 26 255
0.57237715 0.12600425 1.521 46 53 41 255
0.57498175 0.12566718 1.5170001 66 73 61 255
0.57832861 0.125496 1.5150001 74 81 70 255
0.58435637 0.12590486 1.5200001 70 77 66 255
0.58925039 0.12606542 1.5220001 65 70 58 255
0.59259641 0.12589487 1.5200001 63 68 56 255
0.59514713 0.1255589 1.516 60 68 53 255
0.59846753 0.12538883 1.5140001 64 72 57 255
0.60217601 0.12530184 1.5130001 67 77 62 255
0.60628051 0.12529786 1.5130001 69 78 66 255
0.60998231 0.12521131 1.5120001 68 77 65 255
0.61408603 0.12520783 1.5120001 70 77 65 255
0.61819053 0.12520456 1.5120001 72 77 65 255
0.62188464 0.12511878 1.511 72 75 63 255
0.62640291 0.12519884 1.5120001 14 17 5 255
0.6296767 0.12503077 1.5100001 20 21 9 255
0.63336062 0.12494576 1.5090001 20 21 9 255
0.63535047 0.12452982 1.5040001 20 21 9 255
0.63816476 0.12427977 1.501 19 22 10 255
0.64181989 0.1241956 1.5000001 17 20 8 255
0.65406901 0.12419318 1.5000001 17 22 10 255
0.65815502 0.12419296 1.5000001 20 23 11 255
0.67042309 0.12419415 1.5000001 21 22 10 255
0.6745159 0.12419517 1.5000001 22 23 9 255
-0.92578059 0.14396226 1.7960001 17 20 8 255
-0.76158142 0.13244626 1.654 172 177 165 255
-0.75019467 0.13124271 1.6390001 197 205 190 255
-0.74025708 0.13027976 1.6270001 200 210 193 255
-0.72993493 0.12923716 1.6140001 204 215 196 255
-0.71788764 0.12787461 1.5970001 207 218 197 255
-0.70727545 0.12675263 1.5830001 166 178 155 255
-0.6985178 0.12595128 1.5730001 156 167 138 255
-0.69114047 0.12539047 1.5660001 135 144 113 255
-0.68643475 0.12531036 1.5650001 131 140 109 255
-0.68260795 0.12539074 1.5660001 129 138 107 255
-0.67834413 0.12539133 1.5660001 98 107 78 255
-0.67322093 0.12523209 1.5640001 84 92 66 255
-0.66853774 0.12515317 1.5630001 85 94 65 255
-0.66386151 0.12507457 1.562 135 142 113 255
-0.65876979 0.12491614 1.5600001 142 149 118 255
-0.65410984 0.12483807 1.559 135 140 109 255
-0.65029037 0.12492044 1.5600001 124 129 98 255
-0.64646655 0.12500305 1.5610001 119 124 93 255
-0.64222717 0.12500586 1.5610001 109 116 85 255
-0.63839746 0.12508899 1.562 112 119 88 255
-0.63456351 0.12517239 1.5630001 107 114 85 255
-0.63072503 0.12525603 1.5640001 107 114 85 255
-0.62688208 0.12533993 1.5650001 107 113 87 255
-0.62223893 0.12526385 1.5640001 154 160 134 255
-0.61799723 0.12526813 1.5640001 147 155 130 255
-0.6141488 0.12535271 1.5650001 106 116 91 255
-0.61068541 0.12551762 1.567 108 118 93 255
-0.60721195 0.12568277 1.5690001 102 112 87 255
-0.60372823 0.12584814 1.5710001 100 110 85 255
-0.60061604 0.12609386 1.5740001 100 110 85 255
-0.59786695 0.1264199 1.5780001 105 113 88 255
-0.59547293 0.12682629 1.5830001 106 114 88 255
-0.59230542 0.12707266 1.5860001 107 115 89 255
-0.58838081 0.12715901 1.5870001 104 113 84 255
-0.5840829 0.12716542 1.5870001 88 97 68 255
-0.57978559 0.12717202 1.5870001 112 121 92 255
-0.57548863 0.1271788 1.5870001 119 129 103 255
-0.5715518 0.12726589 1.5880001 95 105 80 255
-0.56725258 0.12727299 1.5880001 100 110 87 255
-0.56153572 0.12695968 1.5840001 104 114 91 255
-0.55689609 0.12688695 1.5830001 105 115 92 255
-0.55296034 0.12697472 1.5840001 116 123 101 255
-0.55144382 0.12762377 1.5920001 113 121 96 255
-0.54850942 0.12795237 1.5960001 118 126 101 255
-0.54521263 0.12820099 1.5990001 113 121 96 255
-0.54088461 0.12820923 1.5990001 123 131 106 255
-0.5375635 0.12845817 1.6020001 120 128 103 255
-0.53455877 0.12878746 1.6060001 118 126 100 255
-0.53120226 0.12903674 1.6090001 121 129 103 255
-0.5284844 0.12944657 1.6140001 110 118 92 255
-0.52476507 0.12961595 1.6160001 123 131 105 255
-0.52135676 0.12986568 1.6190001 111 120 91 255
-0.51761281 0.13003534 1.6210001 118 127 98 255
-0.51385778 0.13020512 1.623 117 126 97 255
-0.5104056 0.13045527 1.626 107 116 85 255
-0.50693685 0.13070555 1.6290001 121 130 99 255
-0.50283468 0.13079548 1.6300001 100 109 78 255
-0.49872676 0.13088551 1.631 103 112 81 255
-0.49400693 0.13081513 1.6300001 101 110 79 255
-0.48989296 0.13090535 1.631 111 120 89 255
-0.48488009 0.13075483 1.6290001 114 123 92 255
-0.47987774 0.1306044 1.6270001 126 137 106 255
-0.47430131 0.13029344 1.623 107 118 87 255
-0.4690356 0.13006279 1.6200001 117 126 95 255
-0.46349886 0.12975186 1.6160001 120 129 100 255
-0.45855156 0.12960152 1.6140001 120 128 102 255
-0.45333314 0.12937093 1.6110001 125 133 107 255
-0.44924524 0.12946159 1.6120001 122 131 102 255
-0.44542742 0.12963264 1.6140001 120 127 96 255
-0.44187132 0.12988406 1.6170001 105 112 81 255
-0.43775734 0.12997492 1.618 107 114 82 255
-0.43417299 0.13022648 1.6210001 105 112 81 255
-0.43004152 0.13031743 1.6220001 103 110 79 255
-0.42669123 0.13064946 1.626 108 115 86 255
-0.42279917 0.13082086 1.628 121 128 99 255
-0.41940963 0.13115305 1.6320001 125 133 107 255
-0.41548905 0.13132454 1.6340001 127 135 109 255
-0.41155696 0.13149609 1.636 124 132 106 255
-0.40686679 0.13142653 1.6350001 122 132 106 255
-0.40193516 0.13127656 1.6330001 122 135 108 255
-0.3955532 0.13064419 1.6250001 140 153 124 255
-0.38921392 0.13001171 1.6170001 141 152 121 255
-0.38386929 0.12970075 1.613 101 112 81 255
-0.379722 0.12979181 1.6140001 95 106 75 255
-0.37533593 0.12980245 1.6140001 115 126 95 255
-0.37071928 0.12973264 1.613 154 165 134 255
-0.36678863 0.12990411 1.6150001 120 132 99 255
-0.36351949 0.13031691 1.6200001 66 76 41 255
-0.36022234 0.13072975 1.6250001 67 75 40 255
-0.35580245 0.13074034 1.6250001 82 88 52 255
-0.35073301 0.13050951 1.6220001 89 94 62 255
-0.34610614 0.13043955 1.6210001 102 109 78 255
-0.34169462 0.13045 1.6210001 105 115 89 255
-0.33769849 0.13062137 1.623 113 125 102 255
-0.33307457 0.13055128 1.6220001 117 128 107 255
-0.32886049 0.13064207 1.623 117 128 107 255
-0.32484004 0.13081335 1.6250001 111 122 101 255
-0.32080787 0.1309846 1.6270001 91 97 79 255
-0.31637505 0.13099477 1.6270001 14 18 0 255
-0.31117445 0.1306828 1.623 26 26 8 255
-0.30675083 0.13069282 1.623 33 33 15 255
-0.30214012 0.13062225 1.6220001 37 36 20 255
-0.29808465 0.1307932 1.6240001 40 41 27 255
-0.29365575 0.13080302 1.6240001 20 25 14 255
-0.28904796 0.13073219 1.623 91 98 87 255
-0.28391865 0.13041963 1.6190001 82 90 82 255
-0.27846506 0.12994578 1.613 76 84 77 255
-0.27338326 0.12963293 1.6090001 76 84 76 255
-0.26865679 0.12948109 1.6070001 74 82 74 255
-0.26426932 0.12949029 1.6070001 71 79 71 255
-0.25955755 0.12933822 1.605 55 63 55 255
-0.25485596 0.12918603 1.603 65 73 65 255
-0.2500082 0.12895313 1.6 66 74 67 255
-0.24532957 0.12880068 1.598 85 93 86 255
-0.24066105 0.12864812 1.5960001 71 79 72 255
-0.2364469 0.12873727 1.5970001 75 83 76 255
-0.23193581 0.12866506 1.5960001 77 85 77 255
-0.22757205 0.12867337 1.5960001 61 70 59 255
-0.22292776 0.12852031 1.5940001 52 59 48 255
-0.21870504 0.128609 1.595 44 51 40 255
-0.21420737 0.12853631 1.5940001 41 47 39 255
-0.20945106 0.1283022 1.5910001 67 73 65 255
-0.20471051 0.12806796 1.5880001 65 73 65 255
-0.20023797 0.12799484 1.5870001 73 81 74 255
-0.19589363 0.12800224 1.5870001 70 78 71 255
-0.1915486 0.12800953 1.5870001 71 77 70 255
-0.18708491 0.12793599 1.5860001 71 79 72 255
-0.18262605 0.12786233 1.585 87 93 86 255
-0.17794698 0.12762718 1.582 68 74 66 255
-0.17361298 0.1276339 1.582 71 78 67 255
-0.16949232 0.12780185 1.5840001 64 71 60 255
-0.16546433 0.12805034 1.5870001 51 58 47 255
-0.16162232 0.12846011 1.5920001 51 58 47 255
-0.15725841 0.12846631 1.5920001 77 84 73 255
-0.15270177 0.12831092 1.59 93 100 89 255
-0.14824884 0.1282361 1.5890001 69 75 67 255
-0.14389139 0.12824184 1.5890001 55 62 51 255
-0.13953339 0.1282474 1.5890001 55 61 53 255
-0.13525988 0.12833351 1.59 61 67 59 255
-0.13081573 0.12825808 1.5890001 60 64 56 255
-0.12653573 0.1283439 1.59 61 67 59 255
-0.12201919 0.12818737 1.5880001 70 76 68 255
-0.11758727 0.12811144 1.5870001 78 86 78 255
-0.1132317 0.12811604 1.5870001 65 73 65 255
-0.10887569 0.12812051 1.5870001 53 61 53 255
-0.10445338 0.12804405 1.5860001 72 80 72 255
-0.10009927 0.12804817 1.5860001 79 87 79 255
-0.095684357 0.12797138 1.585 75 81 73 255
-0.091389813 0.1280559 1.5860001 63 69 61 255
-0.086924762 0.12789804 1.5840001 57 63 55 255
-0.082678862 0.12806295 1.5860001 52 58 50 255
-0.078273498 0.12798548 1.585 52 60 53 255
-0.07396657 0.12806933 1.5860001 64 72 65 255
-0.069566071 0.1279915 1.585 63 71 64 255
-0.065253064 0.128075 1.5860001 53 61 54 255
-0.060895894 0.1280776 1.5860001 49 55 48 255
-0.056395866 0.12775695 1.582 44 50 43 255
-0.051851802 0.12727465 1.5760001 86 92 85 255
-0.047461092 0.12711516 1.5740001 69 75 67 255
-0.043135989 0.12711702 1.5740001 61 67 59 255
-0.03878605 0.12703794 1.5730001 66 72 64 255
-0.034419537 0.12687793 1.5710001 70 76 68 255
-0.030121351 0.12696002 1.572 76 84 76 255
-0.02580113 0.12696117 1.572 72 80 72 255
-0.021480804 0.12696216 1.572 70 78 70 255
-0.017149467 0.12688218 1.5710001 63 69 61 255
-0.012831723 0.12688279 1.5710001 58 64 56 255
-0.0085193459 0.126964 1.572 61 67 59 255
-0.0042014364 0.12704504 1.5730001 60 66 58 255
0.00012206587 0.12720664 1.575 61 67 59 255
0.0044537359 0.12728733 1.5760001 56 63 52 255
0.0087908832 0.12736781 1.577 55 64 53 255
0.013141815 0.12752891 1.5790001 55 64 53 255
0.017492613 0.12760903 1.58 56 63 52 255
0.021848833 0.12768897 1.5810001 59 65 57 255
0.026177322 0.12760723 1.58 58 64 56 255
0.030500205 0.1275253 1.5790001 58 64 56 255
0.03483953 0.12752396 1.5790001 59 65 57 255
0.039203517 0.12760319 1.58 60 65 54 255
0.043545276 0.12760147 1.58 60 67 55 255
0.047886856 0.12759961 1.58 63 70 58 255
0.052195184 0.12751681 1.5790001 63 70 59 255
0.056533597 0.12751457 1.5790001 64 71 60 255
0.060833219 0.12743141 1.5780001 64 71 60 255
0.065168396 0.12742883 1.5780001 64 71 60 255
0.06945926 0.12734532 1.577 64 70 62 255
0.073697552 0.1271809 1.575 65 71 63 255
0.077924542 0.12701632 1.5730001 68 74 66 255
0.082244813 0.12701307 1.5730001 71 77 69 255
0.086564742 0.12700965 1.5730001 68 76 68 255
0.091057643 0.12724827 1.5760001 70 78 70 255
0.095324568 0.12716377 1.575 69 77 69 255
0.099901944 0.12748279 1.5790001 62 71 60 255
0.10443487 0.12772088 1.582 60 69 58 255
0.10905261 0.12803952 1.5860001 62 68 60 255
0.11319135 0.12779288 1.5830001 63 69 61 255
0.11731315 0.12754609 1.58 68 74 66 255
0.12141803 0.12729916 1.577 67 73 66 255
0.12558569 0.1271328 1.575 68 74 66 255
0.12974188 0.12696631 1.5730001 60 68 61 255
0.1338014 0.12671897 1.5700001 72 80 73 255
0.13784389 0.12647146 1.567 91 99 92 255
0.141688 0.12606245 1.562 87 95 88 255
0.14578448 0.12589541 1.5600001 72 78 71 255
0.14996561 0.12580892 1.559 67 73 66 255
0.15414071 0.12572232 1.5580001 60 66 59 255
0.15810639 0.12547418 1.5550001 82 90 83 255
0.16226386 0.12538731 1.554 71 79 72 255
0.16662955 0.12546168 1.5550001 66 74 67 255
0.17089018 0.1254552 1.5550001 65 73 65 255
0.17537549 0.12560995 1.557 73 79 71 255
0.17975572 0.12568386 1.5580001 64 70 62 255
0.18425888 0.12583829 1.5600001 61 67 59 255
0.18828891 0.12566994 1.5580001 61 67 59 255
0.19218373 0.12542082 1.5550001 65 72 61 255
0.19618778 0.12525225 1.5530001 71 78 67 255
0.20005111 0.12500294 1.5500001 62 70 62 255
0.2041609 0.1249148 1.549 54 62 55 255
0.20813 0.12474591 1.5470001 65 71 64 255
0.21236198 0.12473821 1.5470001 92 98 91 255
0.21645322 0.12464975 1.5460001 72 80 73 255
0.22025275 0.12439993 1.5430001 60 68 61 255
0.22403519 0.12415005 1.5400001 64 72 64 255
0.22809683 0.12406129 1.539 91 100 89 255
0.2321523 0.12397247 1.5380001 67 76 65 255
0.2363552 0.12396414 1.5380001 63 72 61 255
0.24040094 0.12387513 1.5370001 87 96 84 255
0.24475874 0.12394719 1.5380001 62 71 59 255
0.2486356 0.1237774 1.536 58 67 55 255
0.25233614 0.12352696 1.5330001 58 65 54 255
0.25618687 0.12335703 1.531 53 59 51 255
0.25985587 0.12310648 1.5280001 95 101 93 255
0.26419881 0.12317811 1.529 80 86 78 255
0.26819539 0.12308855 1.5280001 71 77 70 255
0.27236402 0.12307946 1.5280001 67 73 66 255
0.27635089 0.12298977 1.5270001 68 75 64 255
0.28051516 0.12298053 1.5270001 74 81 70 255
0.28449222 0.12289068 1.526 70 79 68 255
0.28827387 0.12272028 1.524 71 80 69 255
0.29223576 0.12263035 1.5230001 89 96 85 255
0.29677519 0.12278189 1.5250001 71 78 67 255
0.30152208 0.12301388 1.5280001 70 76 68 255
0.30588436 0.12308475 1.529 69 76 65 255
0.30984578 0.12299458 1.5280001 68 75 64 255
0.31338999 0.1227434 1.5250001 73 80 69 255
0.31733346 0.12265316 1.524 72 81 70 255
0.32169265 0.12272384 1.5250001 73 82 71 255
0.32584283 0.12271401 1.5250001 74 81 70 255
0.32999223 0.12270414 1.5250001 71 78 67 255
0.33370265 0.12253331 1.5230001 71 78 67 255
0.33806688 0.12260383 1.524 72 78 70 255
0.34221128 0.12259386 1.524 75 81 74 255
0.3465822 0.1226643 1.5250001 73 79 72 255
0.35072786 0.1226543 1.5250001 68 74 66 255
0.3548727 0.12264425 1.5250001 69 75 67 255
0.35878143 0.12255377 1.524 70 76 68 255
0.36268404 0.12246332 1.5230001 72 79 68 255
0.36706215 0.12253366 1.524 69 76 65 255
0.37168857 0.12268435 1.526 68 75 64 255
0.37607893 0.12275467 1.5270001 66 73 62 255
0.37997594 0.12266418 1.526 67 74 62 255
0.38411871 0.1226541 1.526 68 75 63 255
0.38800627 0.12256366 1.5250001 67 74 62 255
0.39188778 0.12247323 1.524 63 72 61 255
0.39576328 0.12238285 1.5230001 65 74 63 255
0.40015778 0.12245318 1.524 65 73 65 255
0.40429187 0.12244318 1.524 65 72 61 255
0.40896133 0.12259388 1.526 65 71 63 255
0.4133704 0.12266427 1.5270001 64 70 62 255
0.41751093 0.12265433 1.5270001 63 69 61 255
0.4216508 0.12264445 1.5270001 56 62 54 255
0.42551136 0.12255428 1.526 59 65 57 255
0.42992908 0.12262479 1.5270001 60 66 58 255
0.43406743 0.12261502 1.5270001 61 68 57 255
0.43820539 0.12260532 1.5270001 62 69 58 255
0.44292212 0.12275624 1.529 64 71 60 255
0.44735694 0.12282691 1.5300001 62 69 58 255
0.4515017 0.12281737 1.5300001 62 69 58 255
0.45505038 0.12264735 1.5280001 67 74 62 255
0.45888832 0.12255768 1.5270001 63 72 60 255
0.46302375 0.12254837 1.5270001 61 70 58 255
0.46654698 0.12237864 1.5250001 64 73 61 255
0.47067639 0.1223695 1.5250001 67 74 62 255
0.47511676 0.12244067 1.526 62 69 58 255
0.47924829 0.12243168 1.526 46 54 46 255
0.4833796 0.12242279 1.526 60 68 60 255
0.4865523 0.12217337 1.5230001 72 80 73 255
0.48970848 0.12192406 1.5200001 75 83 76 255
0.49187362 0.12143427 1.5140001 83 91 84 255
0.49466136 0.12110506 1.5100001 71 79 72 255
0.49808791 0.12093639 1.508 73 79 72 255
0.50250262 0.12100845 1.5090001 78 84 76 255
0.50725836 0.12116078 1.511 72 78 70 255
0.51270175 0.1214736 1.5150001 73 80 69 255
0.51850784 0.12186666 1.5200001 72 79 67 255
0.52468491 0.12233999 1.526 73 80 68 255
0.53020155 0.12265307 1.5300001 69 76 64 255
0.53399366 0.12256544 1.529 65 72 60 255
0.53672469 0.12223751 1.5250001 59 66 54 255
0.53907955 0.12182961 1.5200001 53 60 48 255
0.54247957 0.12166235 1.5180001 55 62 50 255
0.54622912 0.12157539 1.5170001 55 62 50 255
0.55215019 0.12196946 1.5220001 67 72 60 255
0.55736774 0.12220337 1.5250001 76 81 69 255
0.56223363 0.1223573 1.5270001 31 36 22 255
0.56562716 0.1221909 1.5250001 30 35 21 255
0.5697574 0.12218491 1.5250001 36 41 27 255
0.57275927 0.12193879 1.5220001 50 57 45 255
0.57422918 0.1213724 1.5150001 51 60 49 255
0.57718873 0.1211267 1.5120001 76 82 74 255
0.58243924 0.12136186 1.5150001 74 80 72 255
0.58848101 0.12175742 1.5200001 72 77 66 255
0.59299099 0.12183274 1.521 66 73 61 255
0.59593683 0.12158787 1.5180001 62 70 55 255
0.59886718 0.12134325 1.5150001 65 75 60 255
0.60217994 0.12117895 1.5130001 61 70 59 255
0.6058836 0.12109496 1.5120001 67 76 65 255
0.61038941 0.12117139 1.5130001 70 77 66 255
0.61408937 0.12108789 1.5120001 70 75 64 255
0.61860257 0.12116478 1.5130001 68 73 62 255
0.62229908 0.12108175 1.5120001 77 80 68 255
0.62599123 0.12099896 1.511 14 17 5 255
0.62884504 0.12075628 1.508 21 22 10 255
0.63252318 0.12067402 1.5070001 19 22 10 255
0.63492984 0.12035179 1.503 20 23 11 255
0.63816631 0.12019 1.501 17 20 8 255
0.64998519 0.1201066 1.5000001 16 21 9 255
0.65450543 0.12018611 1.501 16 21 9 255
-0.95236659 0.13655323 1.7620001 20 21 9 255
-0.9210971 0.13274021 1.7130001 19 19 9 255
-0.87567711 0.12881054 1.6630001 19 20 8 255
-0.88727677 0.13188368 1.7030001 18 21 9 255
-0.90172642 0.13473698 1.7400001 17 20 8 255
-0.89999563 0.13519001 1.7460001 19 21 11 255
-0.89874858 0.13572089 1.7530001 18 20 10 255
-0.90919489 0.13803273 1.7830001 19 19 9 255
-0.75190955 0.12631433 1.6330001 206 211 199 255
-0.74195361 0.12538384 1.6210001 194 202 187 255
-0.73206556 0.12445377 1.6090001 202 213 194 255
-0.72088838 0.12329201 1.5940001 172 183 164 255
-0.70934558 0.12205326 1.5780001 172 184 159 255
-0.70012599 0.12120157 1.567 131 142 111 255
-0.6940766 0.12089162 1.5630001 125 135 102 255
-0.6884923 0.12065932 1.5600001 117 124 92 255
-0.68468046 0.1207367 1.5610001 84 91 60 255
-0.68042886 0.12073704 1.5610001 83 90 59 255
-0.67661208 0.12081501 1.562 156 163 132 255
-0.67106962 0.12058388 1.559 176 183 154 255
-0.66597271 0.12043037 1.557 131 138 109 255
-0.6617381 0.12043182 1.557 120 127 96 255
-0.6570825 0.12035619 1.5560001 117 122 91 255
-0.65327287 0.12043553 1.557 116 121 90 255
-0.649459 0.12051514 1.5580001 120 125 94 255
-0.64522678 0.12051764 1.5580001 114 119 88 255
-0.64058435 0.12044302 1.557 114 121 92 255
-0.63594842 0.12036867 1.5560001 135 142 113 255
-0.63172489 0.1203719 1.5560001 151 159 133 255
-0.62750244 0.12037537 1.5560001 155 163 137 255
-0.62288028 0.12030171 1.5550001 142 148 123 255
-0.61866242 0.12030562 1.5550001 118 124 99 255
-0.61405015 0.1202324 1.554 112 120 95 255
-0.60983652 0.12023675 1.554 132 139 117 255
-0.60640329 0.12039608 1.5560001 158 165 143 255
-0.6025728 0.12047825 1.557 157 167 144 255
-0.59835327 0.12048323 1.557 153 162 141 255
-0.59413433 0.12048843 1.557 157 166 145 255
-0.59105265 0.12072597 1.5600001 147 154 132 255
-0.58795542 0.12096374 1.5630001 152 159 137 255
-0.58372188 0.12096953 1.5630001 154 161 139 255
-0.57985961 0.1210529 1.5640001 151 161 138 255
-0.57562429 0.12105905 1.5640001 156 166 143 255
-0.57175469 0.12114278 1.5650001 155 165 142 255
-0.56751746 0.12114929 1.5650001 151 162 141 255
-0.56364036 0.12123337 1.5660001 155 164 145 255
-0.55904377 0.12116278 1.5650001 154 163 144 255
-0.55338931 0.12086006 1.5610001 156 165 146 255
-0.54846025 0.12071232 1.559 154 163 144 255
-0.54424042 0.12071957 1.559 142 151 130 255
-0.5417527 0.12111418 1.5640001 151 160 139 255
-0.53751951 0.12112174 1.5640001 149 159 136 255
-0.53430939 0.12136179 1.567 151 161 138 255
-0.52972996 0.12129219 1.5660001 147 157 134 255
-0.5264982 0.12153254 1.5690001 148 158 135 255
-0.52358305 0.1218505 1.5730001 147 157 134 255
-0.5206461 0.12216862 1.577 145 155 132 255
-0.51736009 0.12240945 1.58 143 153 130 255
-0.51438236 0.12272789 1.5840001 147 157 132 255
-0.51170492 0.12312396 1.5890001 147 157 132 255
-0.50900024 0.1235202 1.5940001 136 146 121 255
-0.50626826 0.1239166 1.5990001 126 136 113 255
-0.50350899 0.12431316 1.6040001 132 142 119 255
-0.50041115 0.12463234 1.608 134 144 121 255
-0.49729136 0.12495168 1.6120001 103 110 88 255
-0.49323231 0.12503858 1.613 97 105 80 255
-0.48886433 0.12504806 1.613 98 106 81 255
-0.48389539 0.12490256 1.6110001 106 116 90 255
-0.47804379 0.12452449 1.6060001 103 113 87 255
-0.4722189 0.12414643 1.6010001 114 124 98 255
-0.46642077 0.1237684 1.5960001 113 123 98 255
-0.46122825 0.12354545 1.5930001 120 128 103 255
-0.45605147 0.12332252 1.59 119 127 102 255
-0.45174295 0.12333234 1.59 116 123 101 255
-0.44743383 0.12334221 1.59 119 129 106 255
-0.44312423 0.12335212 1.59 123 133 108 255
-0.43826202 0.12320688 1.5880001 106 116 91 255
-0.4325904 0.12282891 1.5830001 102 111 82 255
-0.42748642 0.12260609 1.58 106 115 84 255
-0.42346948 0.12269369 1.5810001 104 113 84 255
-0.42156759 0.12340222 1.59 101 109 83 255
-0.42014116 0.12426613 1.6010001 102 112 87 255
-0.41761547 0.12481971 1.608 115 125 100 255
-0.41530827 0.12545101 1.6160001 120 130 107 255
-0.41244832 0.12592719 1.6220001 117 127 104 255
-0.4090519 0.12624812 1.626 109 119 94 255
-0.40463775 0.12625855 1.626 127 137 112 255
-0.3994844 0.126036 1.623 130 142 117 255
-0.39337292 0.12550277 1.6160001 149 162 135 255
-0.38753951 0.12504712 1.6100001 122 133 102 255
-0.38292781 0.12497975 1.6090001 95 106 75 255
-0.37879136 0.12506773 1.6100001 97 108 77 255
-0.37464872 0.1251557 1.6110001 112 123 92 255
-0.37004021 0.12508829 1.6100001 151 162 131 255
-0.36611769 0.12525395 1.6120001 136 145 114 255
-0.36240792 0.12549731 1.6150001 65 75 42 255
-0.35912439 0.12589611 1.6200001 66 74 39 255
-0.35428008 0.1257509 1.618 77 83 47 255
-0.34944594 0.12560564 1.6160001 88 94 59 255
-0.34483531 0.12553805 1.6150001 94 101 69 255
-0.34065092 0.12562589 1.6160001 107 116 85 255
-0.33646026 0.12571369 1.6170001 113 122 93 255
-0.33226332 0.12580144 1.618 118 128 102 255
-0.32785746 0.12581143 1.618 113 126 99 255
-0.32385063 0.12597688 1.6200001 106 113 91 255
-0.319832 0.12614231 1.6220001 82 87 66 255
-0.31560719 0.12622991 1.623 17 22 1 255
-0.31080088 0.12608412 1.6210001 25 27 9 255
-0.30600467 0.12593825 1.6190001 30 29 13 255
-0.30159101 0.12594786 1.6190001 33 35 18 255
-0.29754364 0.12611301 1.6210001 34 37 23 255
-0.29348457 0.12627812 1.623 20 25 13 255
-0.2887013 0.12613192 1.6210001 89 96 84 255
-0.28305125 0.12559655 1.6140001 82 91 80 255
-0.27778384 0.12521665 1.6090001 77 85 77 255
-0.27271277 0.12491442 1.605 75 84 73 255
-0.26799715 0.12476774 1.603 72 81 70 255
-0.26345605 0.1246988 1.6020001 65 73 65 255
-0.25891957 0.12462974 1.6010001 58 67 56 255
-0.25422877 0.12448274 1.5990001 62 71 60 255
-0.24970436 0.12441346 1.598 62 70 62 255
-0.24487755 0.12418835 1.595 72 80 73 255
-0.24051869 0.12419672 1.595 58 66 59 255
-0.23601104 0.1241271 1.5940001 81 89 82 255
-0.23150806 0.12405737 1.5930001 81 89 81 255
-0.2268672 0.12390965 1.5910001 58 66 58 255
-0.22251616 0.12391754 1.5910001 44 53 42 255
-0.21830155 0.12400324 1.5920001 61 70 59 255
-0.21381193 0.12393302 1.5910001 78 86 78 255
-0.20906374 0.12370688 1.5880001 54 62 54 255
-0.20446016 0.12355851 1.5860001 60 68 60 255
-0.19999295 0.1234879 1.585 63 71 63 255
-0.19565396 0.12349505 1.585 60 68 60 255
-0.19131429 0.1235021 1.585 63 71 63 255
-0.18685596 0.12343109 1.5840001 63 71 64 255
-0.18228719 0.12328202 1.582 82 88 81 255
-0.1777287 0.12313279 1.58 74 80 73 255
-0.1732903 0.12306137 1.5790001 72 78 70 255
-0.16907071 0.12314565 1.58 70 76 68 255
-0.16474074 0.12315187 1.58 64 71 60 255
-0.16071476 0.12339181 1.5830001 72 79 68 255
-0.15637533 0.12339776 1.5830001 81 88 76 255
-0.15203534 0.12340357 1.5830001 58 65 54 255
-0.14778806 0.1234872 1.5840001 55 62 51 255
-0.14371583 0.12372661 1.5870001 56 63 52 255
-0.13945097 0.12380996 1.5880001 53 60 49 255
-0.13518009 0.12389319 1.5890001 60 64 56 255
-0.1307385 0.1238203 1.5880001 64 68 60 255
-0.12630191 0.12374727 1.5870001 59 65 57 255
-0.12179344 0.12359608 1.585 69 75 67 255
-0.1172955 0.12344474 1.5830001 77 85 77 255
-0.11295075 0.12344919 1.5830001 76 84 76 255
-0.10853695 0.12337551 1.582 55 63 55 255
-0.10412819 0.12330166 1.5810001 66 74 66 255
-0.099787652 0.12330563 1.5810001 77 83 75 255
-0.095446683 0.12330946 1.5810001 51 57 49 255
-0.091220565 0.12346909 1.5830001 50 56 48 255
-0.086818472 0.12339458 1.582 55 61 53 255
-0.082421511 0.12331991 1.5810001 59 66 55 255
-0.078079082 0.12332306 1.5810001 62 70 62 255
-0.073689707 0.12324806 1.58 78 86 79 255
-0.069349401 0.12325087 1.58 57 65 58 255
-0.065049961 0.12333155 1.5810001 46 54 47 255
-0.060706358 0.12333404 1.5810001 46 52 45 255
-0.056219898 0.12302431 1.577 88 94 87 255
-0.05168939 0.12255839 1.5710001 69 75 67 255
-0.047312237 0.12240433 1.5690001 61 67 59 255
-0.042973299 0.12232811 1.5680001 60 66 58 255
-0.03866433 0.12232973 1.5680001 66 72 64 255
-0.034333289 0.12225317 1.567 72 78 70 255
-0.030084249 0.1224885 1.5700001 69 75 67 255
-0.025769351 0.12248962 1.5700001 66 72 64 255
-0.02146801 0.12256858 1.5710001 61 67 59 255
-0.017161081 0.12264737 1.572 57 63 55 255
-0.012840413 0.12264797 1.572 60 64 56 255
-0.0085142739 0.1225704 1.5710001 57 63 55 255
-0.0041989363 0.12264866 1.572 58 65 54 255
0.00012207085 0.12288281 1.575 58 65 54 255
0.0044567427 0.12303875 1.577 58 65 54 255
0.008785666 0.12296046 1.5760001 57 64 53 255
0.013125702 0.12303805 1.577 55 62 51 255
0.017482253 0.12319349 1.5790001 57 64 53 255
0.02182208 0.12319269 1.5790001 61 67 59 255
0.026145248 0.12311371 1.5780001 59 65 57 255
0.030462809 0.12303457 1.577 60 66 59 255
0.034840941 0.12318931 1.5790001 59 65 57 255
0.03918029 0.12318783 1.5790001 58 64 56 255
0.043519482 0.12318619 1.5790001 61 68 57 255
0.047828171 0.12310635 1.5780001 64 71 60 255
0.052131172 0.12302634 1.577 63 70 58 255
0.056428459 0.12294617 1.5760001 65 74 63 255
0.060720015 0.12286585 1.575 62 71 60 255
0.065088429 0.12294137 1.5760001 64 70 62 255
0.069373958 0.1228607 1.575 67 73 65 255
0.073606923 0.12270186 1.5730001 63 69 61 255
0.077828586 0.12254286 1.5710001 67 73 65 255
0.08214353 0.12253972 1.5710001 68 74 67 255
0.086458124 0.12253641 1.5710001 72 78 71 255
0.090830155 0.12261093 1.572 68 76 68 255
0.095025718 0.12245129 1.5700001 70 78 70 255
0.099463001 0.12260348 1.572 67 75 67 255
0.10397688 0.1228335 1.575 63 71 63 255
0.10864434 0.12321929 1.58 61 67 59 255
0.11290977 0.12313701 1.5790001 62 68 61 255
0.11702075 0.12289862 1.5760001 61 67 60 255
0.1210378 0.1225821 1.572 65 71 64 255
0.12511216 0.12234344 1.5690001 66 72 64 255
0.12933454 0.12226057 1.5680001 69 75 68 255
0.1335509 0.12217756 1.567 68 76 69 255
0.13767329 0.12201645 1.5650001 87 95 88 255
0.14160275 0.12169928 1.5610001 77 83 76 255
0.14579009 0.12161587 1.5600001 65 71 64 255
0.14997138 0.12153232 1.559 61 67 60 255
0.15404765 0.12137068 1.557 62 68 61 255
0.15801072 0.12113097 1.554 71 79 72 255
0.16195676 0.12089116 1.5510001 77 85 78 255
0.16631438 0.12096298 1.552 67 75 68 255
0.17056693 0.12095673 1.552 62 70 62 255
0.17504415 0.12110619 1.554 66 72 64 255
0.17953168 0.12125552 1.5560001 65 71 63 255
0.18391138 0.12132677 1.557 60 66 58 255
0.18817504 0.12131998 1.557 60 66 58 255
0.19194363 0.1210014 1.5530001 66 72 64 255
0.19594233 0.12083855 1.5510001 68 75 64 255
0.19992934 0.12067559 1.549 63 70 59 255
0.20390472 0.12051254 1.5470001 58 64 56 255
0.20800301 0.12042728 1.5460001 60 68 60 255
0.21209508 0.12034192 1.5450001 86 94 87 255
0.21604094 0.12017857 1.5430001 81 89 82 255
0.21983236 0.11993724 1.5400001 61 69 62 255
0.22389764 0.1198516 1.539 70 78 70 255
0.2282531 0.1199216 1.5400001 84 93 82 255
0.23231138 0.11983576 1.539 62 71 60 255
0.23636346 0.11974982 1.5380001 59 68 57 255
0.24040927 0.11966379 1.5370001 83 92 80 255
0.24460803 0.11965554 1.5370001 60 69 58 255
0.24864411 0.11956935 1.536 57 66 54 255
0.25234476 0.1193274 1.5330001 54 63 52 255
0.25602823 0.11908539 1.5300001 52 61 50 255
0.2598646 0.11892117 1.5280001 94 102 95 255
0.26403484 0.11891251 1.5280001 77 83 76 255
0.2680288 0.11882597 1.5270001 69 75 68 255
0.2720165 0.11873937 1.526 66 72 65 255
0.27599794 0.11865269 1.5250001 70 76 68 255
0.28034058 0.11872156 1.526 71 78 67 255
0.2845014 0.11871255 1.526 69 78 67 255
0.28847229 0.1186257 1.5250001 68 77 66 255
0.29262882 0.11861657 1.5250001 84 93 82 255
0.29736841 0.1188407 1.5280001 71 78 67 255
0.3019262 0.11898698 1.5300001 69 75 67 255
0.30609393 0.11897764 1.5300001 69 76 65 255
0.30985531 0.11881273 1.5280001 65 72 61 255
0.31360504 0.11864781 1.526 71 78 67 255
0.31755131 0.1185606 1.5250001 73 80 69 255
0.32191324 0.11862884 1.526 71 78 67 255
0.32606617 0.11861932 1.526 70 77 66 255
0.33000201 0.11853202 1.5250001 70 76 68 255
0.33393154 0.11844468 1.524 70 76 68 255
0.33785486 0.11835734 1.5230001 72 78 70 255
0.34244567 0.1185031 1.5250001 72 78 71 255
0.34681931 0.1185711 1.526 69 75 68 255
0.35096768 0.11856139 1.526 67 73 66 255
0.35488263 0.11847397 1.5250001 68 74 67 255
0.35879132 0.11838654 1.524 69 75 67 255
0.36293206 0.11837678 1.524 69 76 65 255
0.36731297 0.1184447 1.5250001 70 77 66 255
