ply
format ascii 1.0
comment PCL generated
element vertex 996
property float x
property float y
property float z
property uchar red
property uchar green
property uchar blue
property uchar alpha
element camera 0
property float view_px
property float view_py
property float view_pz
property float x_axisx
property float x_axisy
property float x_axisz
property float y_axisx
property float y_axisy
property float y_axisz
property float z_axisx
property float z_axisy
property float z_axisz
property float focal
property float scalex
property float scaley
property float centerx
property float centery
property int viewportx
property int viewporty
property float k1
property float k2
end_header
-0.72623688 -0.052356411 1.5230001 204 212 205 255
-0.72064239 -0.052251715 1.5200001 182 190 182 255
-0.71553802 -0.052181557 1.5180001 196 204 196 255
-0.70950961 -0.052042801 1.5140001 162 171 160 255
-0.70303947 -0.051869832 1.5090001 166 175 163 255
-0.69659883 -0.051697016 1.5040001 165 175 160 255
-0.69156891 -0.051627465 1.5020001 156 166 149 255
-0.68746728 -0.051626805 1.5020001 154 165 146 255
-0.68336773 -0.051626291 1.5020001 154 163 144 255
-0.67881763 -0.05159153 1.501 137 146 127 255
-0.21953458 -0.052277859 1.5100001 128 138 115 255
-0.21754439 -0.052800704 1.5250001 132 141 120 255
-0.21477179 -0.053150445 1.5350001 69 78 59 255
-0.21139503 -0.053361665 1.5410001 42 48 31 255
-0.20731242 -0.053399704 1.5420001 48 55 43 255
-0.20296022 -0.053368442 1.5410001 50 55 43 255
-0.19848378 -0.053302482 1.539 47 52 40 255
-0.1941438 -0.053271092 1.5380001 49 54 42 255
-0.18993205 -0.053274281 1.5380001 49 54 43 255
-0.18559887 -0.053242769 1.5370001 51 56 45 255
-0.18138848 -0.05324585 1.5370001 59 61 51 255
-0.17706215 -0.053214222 1.536 59 64 53 255
-0.17285316 -0.053217184 1.536 63 68 57 255
-0.1686435 -0.053220078 1.536 62 67 56 255
-0.16443318 -0.053222913 1.536 60 66 58 255
-0.16022226 -0.053225689 1.536 58 64 56 255
-0.15611227 -0.053263057 1.5370001 53 59 52 255
-0.15199621 -0.053300362 1.5380001 53 57 50 255
-0.14787404 -0.053337608 1.539 52 56 49 255
-0.14355913 -0.053305481 1.5380001 54 58 51 255
-0.13933973 -0.053307939 1.5380001 51 57 50 255
-0.13494404 -0.053241 1.536 52 58 50 255
-0.13072905 -0.053243328 1.536 57 61 53 255
-0.12643114 -0.053210925 1.5350001 60 64 57 255
-0.12221782 -0.053213112 1.5350001 62 66 59 255
-0.118004 -0.053215228 1.5350001 60 64 57 255
-0.11371558 -0.053182609 1.534 64 68 61 255
-0.10957496 -0.053219263 1.5350001 64 68 61 255
-0.10522247 -0.053151824 1.5330001 68 72 65 255
-0.1010123 -0.053153664 1.5330001 69 73 66 255
-0.096675426 -0.053086076 1.531 68 72 65 255
-0.09253034 -0.053122453 1.5320001 71 75 68 255
-0.088264056 -0.053089395 1.531 68 72 65 255
-0.0840578 -0.053090937 1.531 67 71 64 255
-0.079746895 -0.053023063 1.529 63 67 60 255
-0.075446621 -0.052955102 1.5270001 62 66 59 255
-0.071203686 -0.052921746 1.526 61 65 58 255
-0.06705378 -0.05295768 1.5270001 61 65 58 255
-0.062898085 -0.05299354 1.5280001 60 64 57 255
-0.058775023 -0.053064004 1.5300001 54 58 51 255
-0.054640725 -0.0531344 1.5320001 54 58 50 255
-0.050429367 -0.05313535 1.5320001 57 59 51 255
-0.046247955 -0.053170923 1.5330001 56 58 50 255
-0.042033426 -0.053171728 1.5330001 53 57 49 255
-0.037818715 -0.053172454 1.5330001 58 59 53 255
-0.03360384 -0.05317311 1.5330001 60 61 55 255
-0.02936965 -0.053138997 1.5320001 57 61 53 255
-0.025173672 -0.053174179 1.5330001 58 62 54 255
-0.020944744 -0.053139918 1.5320001 56 60 53 255
-0.016732145 -0.053140253 1.5320001 57 61 54 255
-0.012519473 -0.053140521 1.5320001 56 60 53 255
-0.0083067482 -0.053140715 1.5320001 57 61 54 255
-0.004091314 -0.05310614 1.531 60 64 57 255
0.00011871551 -0.053106178 1.531 64 68 61 255
0.00432309 -0.053036764 1.529 66 70 62 255
0.0085220225 -0.053001959 1.5280001 66 70 62 255
0.012707092 -0.052932389 1.526 65 69 62 255
0.016903261 -0.052932113 1.526 67 71 64 255
0.021113181 -0.052966457 1.5270001 66 70 63 255
0.025311934 -0.052966036 1.5270001 69 72 68 255
0.029491251 -0.052930847 1.526 70 73 69 255
0.033664942 -0.052895583 1.5250001 69 75 68 255
0.03783299 -0.052860249 1.524 68 74 67 255
0.042022947 -0.052859519 1.524 71 77 70 255
0.046182398 -0.052824028 1.5230001 70 76 69 255
0.050402295 -0.052857835 1.524 68 76 69 255
0.054520011 -0.052787513 1.5220001 60 68 61 255
0.058665071 -0.052751802 1.521 67 75 68 255
0.062763065 -0.052681342 1.5190001 70 78 71 255
0.066937916 -0.052680157 1.5190001 71 79 72 255
0.071065687 -0.052644242 1.5180001 73 79 72 255
0.075286761 -0.052677594 1.5190001 67 73 66 255
0.079408407 -0.052641522 1.5180001 68 73 69 255
0.083524212 -0.052605376 1.5170001 71 77 70 255
0.087634183 -0.052569162 1.516 71 77 70 255
0.091919944 -0.052636907 1.5180001 71 77 70 255
0.096152999 -0.052669898 1.5190001 68 76 69 255
0.10045719 -0.052737482 1.521 66 74 66 255
0.10456557 -0.052700989 1.5200001 66 74 66 255
0.10873958 -0.052699093 1.5200001 69 75 68 255
0.11291312 -0.05269713 1.5200001 69 75 68 255
0.11716324 -0.052729756 1.521 70 76 69 255
0.12125881 -0.052692987 1.5200001 67 73 66 255
0.1253484 -0.052656159 1.5190001 74 80 73 255
0.12951726 -0.05265392 1.5190001 71 77 70 255
0.13394961 -0.052755602 1.5220001 72 77 73 255
0.13830717 -0.052822553 1.524 71 76 72 255
0.14239463 -0.052785452 1.5230001 70 75 71 255
0.14647605 -0.052748289 1.5220001 65 70 66 255
0.15055138 -0.05271107 1.521 72 77 73 255
0.15482411 -0.052743096 1.5220001 73 79 72 255
0.15910172 -0.052775059 1.5230001 75 81 74 255
0.16338418 -0.052806951 1.524 70 76 69 255
0.16756155 -0.052804135 1.524 69 75 68 255
0.1715129 -0.052731965 1.5220001 70 76 69 255
0.17556806 -0.052694388 1.521 74 80 73 255
0.17949891 -0.052622117 1.5190001 79 84 80 255
0.18341814 -0.052549791 1.5170001 74 79 75 255
0.18744935 -0.052512053 1.516 70 77 74 255
0.19147442 -0.052474268 1.5150001 72 79 75 255
0.1956224 -0.052471064 1.5150001 76 83 80 255
0.19963783 -0.052433178 1.5140001 77 84 81 255
0.20364709 -0.052395247 1.5130001 78 85 82 255
0.20751277 -0.05232263 1.511 96 103 102 255
0.21150687 -0.05228461 1.5100001 84 91 90 255
0.21578032 -0.052315779 1.511 76 83 80 255
0.22034964 -0.052416138 1.5140001 76 83 79 255
0.22463802 -0.052447207 1.5150001 74 81 77 255
0.22878006 -0.052443601 1.5150001 70 78 71 255
0.23322885 -0.052509181 1.5170001 73 79 72 255
0.23768777 -0.052574698 1.5190001 71 77 70 255
0.24215686 -0.052640174 1.521 70 76 69 255
0.24615024 -0.052601766 1.5200001 67 73 66 255
0.249808 -0.05249412 1.5170001 60 65 61 255
0.25344861 -0.052386452 1.5140001 58 63 59 255
0.25724217 -0.052313358 1.5120001 63 68 64 255
0.26188827 -0.05241321 1.5150001 83 88 84 255
0.26742792 -0.052685983 1.5230001 62 67 63 255
0.27247545 -0.052854903 1.5280001 42 47 43 255
0.27682525 -0.052885402 1.529 35 41 34 255
0.28007701 -0.052708365 1.524 33 39 32 255
0.28274113 -0.052427556 1.516 82 89 85 255
0.28555003 -0.052181352 1.5090001 83 90 87 255
0.28947172 -0.052142616 1.508 74 81 78 255
0.29377651 -0.052173007 1.5090001 76 83 82 255
0.29788852 -0.052168798 1.5090001 74 79 76 255
0.30199969 -0.052164558 1.5090001 76 81 77 255
0.30590719 -0.052125726 1.508 71 78 74 255
0.31001404 -0.052121446 1.508 72 79 75 255
0.31412005 -0.052117143 1.508 77 83 76 255
0.31822526 -0.052112814 1.508 75 80 76 255
0.32254341 -0.05214303 1.5090001 77 82 78 255
0.32664976 -0.052138656 1.5090001 73 78 74 255
0.33097446 -0.052168828 1.5100001 74 79 75 255
0.33508193 -0.052164428 1.5100001 75 81 74 255
0.33941323 -0.052194554 1.511 74 80 73 255
0.34306711 -0.052121043 1.5090001 76 81 77 255
0.34739959 -0.052151147 1.5100001 75 80 76 255
0.35173669 -0.052181229 1.511 80 85 81 255
0.35631403 -0.052245837 1.5130001 75 82 78 255
0.36066321 -0.052275892 1.5140001 75 82 78 255
0.36549896 -0.052374985 1.5170001 76 83 79 255
0.37132487 -0.052612148 1.524 72 79 75 255
0.37718806 -0.052849267 1.531 75 82 78 255
0.3828395 -0.053051837 1.5370001 75 82 78 255
0.38927817 -0.053357903 1.5460001 81 88 85 255
0.5082258 -0.053860016 1.5640001 176 182 184 255
0.51081955 -0.053683877 1.559 142 149 148 255
0.51503801 -0.053679973 1.559 120 127 126 255
0.51925617 -0.053676121 1.559 112 119 118 255
0.5234744 -0.053672325 1.559 94 101 100 255
0.52464616 -0.053358756 1.5500001 63 70 69 255
0.52201617 -0.052666638 1.5300001 71 78 75 255
0.52030951 -0.052077919 1.5130001 91 96 93 255
0.52267003 -0.051902357 1.508 74 79 76 255
0.5257023 -0.051795721 1.5050001 68 73 70 255
0.52871841 -0.051689148 1.5020001 69 74 70 255
0.54461288 -0.05164209 1.501 77 85 78 255
0.55269605 -0.052017536 1.5120001 78 84 77 255
0.56525797 -0.052805822 1.5350001 74 80 73 255
0.59514731 -0.053998441 1.5700001 14 21 10 255
0.59138125 -0.053273555 1.549 10 16 8 255
0.59019339 -0.052789554 1.5350001 47 53 45 255
0.59047914 -0.052443247 1.5250001 88 96 89 255
0.59266073 -0.052268989 1.5200001 81 89 82 255
0.59481597 -0.05209484 1.5150001 82 89 85 255
0.59734011 -0.051955178 1.511 86 93 89 255
0.59984338 -0.051815625 1.5070001 80 87 83 255
0.60272646 -0.051710561 1.5040001 72 79 75 255
0.60559404 -0.05160559 1.501 74 81 77 255
0.60925865 -0.051569492 1.5000001 73 80 76 255
-0.95661998 -0.060582891 1.626 22 23 9 255
-0.98653191 -0.062769204 1.6850001 25 26 12 255
-0.96542549 -0.061714716 1.6570001 26 24 13 255
-0.96651721 -0.062075976 1.6670001 25 24 10 255
-0.95601934 -0.061692774 1.6570001 24 23 9 255
-0.94902939 -0.061533369 1.6530001 26 27 15 255
-0.93178463 -0.060704365 1.631 28 29 17 255
-0.91637594 -0.059987567 1.6120001 24 25 13 255
-0.90221137 -0.059345689 1.595 22 20 9 255
-0.91122448 -0.060229555 1.6190001 22 20 9 255
-0.93914843 -0.062378105 1.677 23 20 6 255
-0.93387675 -0.062332056 1.6760001 21 18 4 255
-0.93360573 -0.062620983 1.6840001 27 19 2 255
-0.93439829 -0.062984459 1.6940001 42 30 13 255
-0.93020117 -0.063013524 1.6950001 64 50 27 255
-0.92654938 -0.063080028 1.697 72 56 32 255
-0.92343497 -0.063183963 1.7 75 55 31 255
-0.92193002 -0.06339962 1.7060001 76 56 32 255
-0.91932118 -0.063541174 1.71 69 48 26 255
-0.91188127 -0.063348554 1.705 63 42 20 255
-0.90713423 -0.063342005 1.705 40 17 0 255
-0.90292114 -0.06337285 1.7060001 69 45 19 255
-0.89975983 -0.063478224 1.7090001 85 61 33 255
-0.89449131 -0.063435256 1.7080001 107 81 53 255
-0.88923287 -0.063392565 1.7070001 76 53 23 255
-0.88398391 -0.063350096 1.7060001 72 48 20 255
-0.87977546 -0.063382134 1.7070001 75 51 23 255
-0.87659067 -0.063488662 1.71 76 52 24 255
-0.87186354 -0.063484028 1.71 81 57 29 255
-0.86815464 -0.063553877 1.7120001 78 56 28 255
-0.8624208 -0.063475437 1.71 74 52 24 255
-0.85870808 -0.063545719 1.7120001 73 54 25 255
-0.85199481 -0.063393511 1.7080001 68 49 20 255
-0.84778738 -0.063427106 1.7090001 64 47 18 255
-0.84357774 -0.063460909 1.71 62 47 18 255
-0.83887535 -0.063457794 1.71 59 43 17 255
-0.82783437 -0.062972493 1.697 63 47 24 255
-0.79406935 -0.060743421 1.6370001 61 47 30 255
-0.74664909 -0.05743869 1.5480001 247 251 244 255
-0.73425013 -0.056805834 1.531 198 204 197 255
-0.72719228 -0.056581341 1.5250001 201 209 202 255
-0.72254032 -0.056542534 1.524 200 208 200 255
-0.71695346 -0.056429695 1.521 190 198 190 255
-0.70997953 -0.056205735 1.5150001 186 195 184 255
-0.70257467 -0.055944838 1.508 179 188 176 255
-0.69659972 -0.055795409 1.5040001 179 187 170 255
-0.69203007 -0.055757437 1.503 169 177 160 255
-0.68838334 -0.055793811 1.5040001 153 162 143 255
-0.68382305 -0.055756129 1.503 151 160 141 255
-0.67836577 -0.055644426 1.5000001 146 155 136 255
-0.23114815 -0.056222893 1.5050001 141 148 127 255
-0.22824101 -0.056525677 1.5130001 131 140 121 255
-0.22543749 -0.056865815 1.5220001 128 137 118 255
-0.22258398 -0.057205949 1.531 35 44 25 255
-0.21939521 -0.057471346 1.5380001 38 46 29 255
-0.21574757 -0.057624605 1.5420001 43 51 36 255
-0.21180297 -0.057703096 1.544 49 54 42 255
-0.20744336 -0.057669409 1.5430001 48 53 42 255
-0.20308845 -0.05763565 1.5420001 51 56 45 255
-0.19860934 -0.05756446 1.5400001 53 58 47 255
-0.19439287 -0.057567965 1.5400001 51 56 45 255
-0.19005226 -0.057534028 1.539 55 60 49 255
-0.18559563 -0.057462633 1.5370001 58 63 52 255
-0.18126729 -0.057428565 1.536 60 65 54 255
-0.17705905 -0.057431813 1.536 60 64 56 255
-0.17285012 -0.057435002 1.536 69 73 65 255
-0.16853073 -0.05740073 1.5350001 69 73 65 255
-0.16421618 -0.057366382 1.534 71 77 69 255
-0.15990649 -0.057331983 1.5330001 67 73 65 255
-0.15580478 -0.057372294 1.534 61 67 60 255
-0.15169701 -0.057412554 1.5350001 56 62 55 255
-0.14748706 -0.05741534 1.5350001 54 60 53 255
-0.14327651 -0.057418048 1.5350001 54 60 52 255
-0.13897482 -0.057383288 1.534 53 57 49 255
-0.13485375 -0.057423275 1.5350001 49 55 47 255
-0.13081178 -0.057500601 1.5370001 49 53 45 255
-0.12651117 -0.05746562 1.536 58 62 54 255
-0.12213596 -0.057393152 1.534 56 60 52 255
-0.1178481 -0.057358023 1.5330001 56 60 53 255
-0.11363937 -0.057360228 1.5330001 60 64 56 255
-0.10943017 -0.057362363 1.5330001 64 68 60 255
-0.10522053 -0.057364419 1.5330001 63 67 59 255
-0.10101043 -0.057366401 1.5330001 62 66 58 255
-0.096736781 -0.05733088 1.5320001 65 69 61 255
-0.092589013 -0.057370126 1.5330001 67 71 64 255
-0.088320062 -0.057334453 1.5320001 72 76 69 255
-0.084056236 -0.057298698 1.531 72 78 71 255
-0.079693235 -0.057188004 1.5280001 73 79 72 255
-0.075445212 -0.057152092 1.5270001 70 76 69 255
-0.07115569 -0.057078656 1.5250001 71 77 70 255
-0.06692078 -0.057042573 1.524 71 75 68 255
-0.062814564 -0.057118703 1.526 64 68 61 255
-0.058620255 -0.057119887 1.526 63 67 60 255
-0.054497037 -0.057195861 1.5280001 63 67 60 255
-0.050296742 -0.057196885 1.5280001 63 64 58 255
-0.046156574 -0.057272695 1.5300001 62 66 59 255
-0.041950371 -0.057273563 1.5300001 57 61 54 255
-0.037768658 -0.057311781 1.531 60 64 57 255
-0.03355936 -0.057312489 1.531 60 64 57 255
-0.029349919 -0.0573131 1.531 60 64 57 255
-0.025140351 -0.05731364 1.531 61 65 58 255
-0.020917002 -0.057276659 1.5300001 58 62 55 255
-0.016731827 -0.057351906 1.5320001 56 60 53 255
-0.012527407 -0.057389628 1.5330001 58 62 55 255
-0.0083174333 -0.057427268 1.534 58 62 55 255
-0.0040965807 -0.05738996 1.5330001 60 64 57 255
0.0001187908 -0.057352562 1.5320001 61 65 57 255
0.0043258346 -0.057277642 1.5300001 65 69 61 255
0.0085218614 -0.057202645 1.5280001 66 70 62 255
0.012715179 -0.057164997 1.5270001 67 71 64 255
0.01690294 -0.057127263 1.526 65 69 62 255
0.021126609 -0.057201765 1.5280001 69 73 66 255
0.025311455 -0.057163872 1.5270001 70 73 69 255
0.029510017 -0.057163324 1.5270001 69 72 68 255
0.033664305 -0.057087839 1.5250001 72 76 69 255
0.037832271 -0.057049703 1.524 71 77 70 255
0.041994575 -0.057011481 1.5230001 71 77 70 255
0.04618153 -0.057010621 1.5230001 72 78 71 255
0.050368272 -0.057009667 1.5230001 71 77 70 255
0.054518983 -0.056971211 1.5220001 71 79 72 255
0.0586254 -0.056895241 1.5200001 72 80 73 255
0.06276188 -0.056856625 1.5190001 72 80 73 255
0.066936657 -0.056855358 1.5190001 71 79 72 255
0.071111158 -0.05685401 1.5190001 74 80 73 255
0.075334921 -0.056890015 1.5200001 68 74 67 255
0.079459235 -0.056851078 1.5190001 73 78 74 255
0.083522655 -0.056774642 1.5170001 75 81 74 255
0.087632537 -0.05673556 1.516 69 77 70 255
0.091797121 -0.056733832 1.516 72 80 73 255
0.09602461 -0.056769446 1.5170001 68 76 68 255
0.10025719 -0.056804974 1.5180001 69 77 69 255
0.10435726 -0.05676559 1.5170001 71 79 71 255
0.10845141 -0.056726124 1.516 69 77 70 255
0.11261391 -0.056724019 1.516 68 76 69 255
0.11685297 -0.056759246 1.5170001 72 78 71 255
0.12101728 -0.056756988 1.5170001 72 78 71 255
0.12509854 -0.056717236 1.516 72 77 73 255
0.12917385 -0.05667742 1.5150001 69 74 70 255
0.13359517 -0.056787178 1.5180001 73 78 74 255
0.13803241 -0.056896847 1.521 72 77 73 255
0.14229855 -0.056931626 1.5220001 69 74 70 255
0.14637716 -0.05689152 1.521 68 74 67 255
0.15035072 -0.056813952 1.5190001 71 77 70 255
0.15441446 -0.05677373 1.5180001 72 78 71 255
0.15868102 -0.05680823 1.5190001 73 79 72 255
0.16305965 -0.056880057 1.521 72 78 71 255
0.16722874 -0.056877032 1.521 65 71 64 255
0.17117183 -0.056799155 1.5190001 69 75 68 255
0.17533413 -0.056795996 1.5190001 76 82 75 255
0.17937762 -0.05675539 1.5180001 77 82 78 255
0.18329403 -0.056677341 1.516 64 69 65 255
0.18744612 -0.056674007 1.516 70 77 73 255
0.19134474 -0.056595847 1.5140001 82 89 85 255
0.19548993 -0.056592394 1.5140001 81 88 85 255
0.19937071 -0.05651414 1.5120001 76 83 80 255
0.20323984 -0.056435838 1.5100001 68 75 74 255
0.20695993 -0.056320108 1.5070001 102 109 108 255
0.21066287 -0.056204338 1.5040001 89 96 95 255
0.2146343 -0.05616327 1.503 76 83 80 255
0.21903612 -0.056234248 1.5050001 78 85 81 255
0.22359635 -0.056342516 1.508 75 83 76 255
0.22817226 -0.056450732 1.511 71 79 72 255
0.2327638 -0.056558881 1.5140001 68 73 69 255
0.23737095 -0.056666963 1.5170001 70 75 71 255
0.24167535 -0.056700289 1.5180001 66 71 67 255
0.24566045 -0.056658849 1.5170001 60 65 61 255
0.24914536 -0.056505345 1.5130001 59 64 60 255
0.25294235 -0.056426495 1.511 56 61 57 255
0.25706795 -0.056422301 1.511 60 65 61 255
0.2617113 -0.056530077 1.5140001 84 89 85 255
0.2667214 -0.056712475 1.5190001 58 63 59 255
0.27157962 -0.056857467 1.5230001 38 44 37 255
0.27555364 -0.056815751 1.5220001 30 36 29 255
0.27860251 -0.056587372 1.516 89 94 90 255
0.28161782 -0.056358989 1.5100001 86 93 89 255
0.28497806 -0.056205261 1.506 76 83 80 255
0.28927544 -0.056238104 1.5070001 75 82 79 255
0.29318812 -0.056196284 1.506 72 79 78 255
0.29709452 -0.056154441 1.5050001 74 79 76 255
0.30119479 -0.056149885 1.5050001 74 79 75 255
0.30529422 -0.056145303 1.5050001 76 81 77 255
0.30939287 -0.056140695 1.5050001 72 77 73 255
0.31307405 -0.056061462 1.503 74 79 75 255
0.31737667 -0.056094117 1.5040001 72 77 73 255
0.32168391 -0.05612674 1.5050001 72 77 73 255
0.32577935 -0.056122046 1.5050001 71 76 72 255
0.33009315 -0.056154624 1.506 71 76 72 255
0.33441162 -0.056187179 1.5070001 71 76 72 255
0.33851013 -0.056182429 1.5070001 74 81 77 255
0.34215316 -0.056103114 1.5050001 74 79 75 255
0.34647471 -0.056135621 1.506 75 80 76 255
0.35080096 -0.056168113 1.5070001 76 82 75 255
0.35466087 -0.056126051 1.506 74 82 75 255
0.35875282 -0.056121252 1.506 74 82 75 255
0.36284405 -0.056116454 1.506 76 84 77 255
0.36815277 -0.056297943 1.511 72 80 73 255
0.37225607 -0.056293111 1.511 76 83 79 255
0.37685686 -0.056362797 1.5130001 75 82 78 255
0.38146776 -0.056432456 1.5150001 75 82 78 255
0.38634339 -0.056539364 1.5180001 76 81 77 255
0.39097738 -0.056609008 1.5200001 80 85 81 255
0.39614138 -0.056753118 1.524 82 85 81 255
0.40211439 -0.05700893 1.531 83 86 82 255
0.40918618 -0.05741363 1.5420001 89 92 88 255
0.41604888 -0.057781041 1.552 95 98 94 255
0.42106977 -0.057887822 1.5550001 96 100 93 255
0.42583278 -0.057957374 1.557 94 100 93 255
0.43032974 -0.057989694 1.5580001 101 106 102 255
0.48799193 -0.058262944 1.567 176 180 182 255
0.49191931 -0.058221258 1.5660001 138 142 144 255
0.49520728 -0.058105268 1.5630001 84 87 91 255
0.49815914 -0.057952162 1.559 59 63 65 255
0.50044471 -0.057724789 1.5530001 61 68 67 255
0.50367236 -0.057608992 1.5500001 60 67 66 255
0.50688368 -0.057493273 1.5470001 68 75 72 255
0.51106966 -0.057489105 1.5470001 69 76 73 255
0.51492238 -0.057447836 1.5460001 69 76 73 255
0.51776236 -0.057295147 1.5420001 71 78 75 255
0.51787275 -0.056845311 1.5300001 67 74 71 255
0.51723576 -0.056321293 1.516 91 98 95 255
0.51893032 -0.056057449 1.5090001 77 82 78 255
0.52231991 -0.055979438 1.5070001 70 73 69 255
0.52569884 -0.055901498 1.5050001 64 69 65 255
0.52836293 -0.055749342 1.501 62 67 63 255
0.55641699 -0.056100659 1.511 73 81 74 255
0.56792605 -0.056840103 1.531 75 83 76 255
0.57543337 -0.057171181 1.5400001 74 82 75 255
0.57809716 -0.057019714 1.536 78 86 78 255
0.57998163 -0.056794114 1.5300001 77 86 75 255
0.58336121 -0.056717109 1.5280001 77 85 77 255
0.58596146 -0.056565952 1.524 80 88 81 255
0.58776629 -0.056340683 1.5180001 73 81 74 255
0.5899291 -0.056152638 1.5130001 73 81 74 255
0.59206545 -0.055964701 1.508 69 76 73 255
0.59496605 -0.055851106 1.5050001 83 90 87 255
0.59785116 -0.055737615 1.5020001 92 99 95 255
0.60112149 -0.055661339 1.5000001 65 72 68 255
-0.984918 -0.066646598 1.6660001 23 26 14 255
-0.98957884 -0.067273475 1.682 24 25 13 255
-0.97696507 -0.067355938 1.6850001 28 26 15 255
-0.95314556 -0.066025212 1.6520001 26 27 13 255
-0.94846582 -0.06601394 1.6520001 27 28 14 255
-0.90731174 -0.06406492 1.6040001 18 19 5 255
-0.93262154 -0.066171758 1.6570001 21 20 4 255
-0.93411762 -0.066601254 1.6680001 24 16 0 255
-0.93778634 -0.067190625 1.6830001 79 65 48 255
-0.93527758 -0.067341037 1.687 66 49 29 255
-0.9338553 -0.067571536 1.6930001 60 40 16 255
-0.92911178 -0.067562826 1.6930001 62 42 18 255
-0.92601138 -0.067674115 1.6960001 73 53 27 255
-0.92235631 -0.067745768 1.6980001 71 53 29 255
-0.92139703 -0.068017147 1.705 67 49 25 255
-0.9187907 -0.068169087 1.7090001 32 19 0 255
-0.91135347 -0.067962326 1.7040001 34 18 0 255
-0.90501279 -0.067835622 1.7010001 99 74 51 255
-0.90133971 -0.067908615 1.7030001 108 84 58 255
-0.89871293 -0.068061605 1.7070001 110 84 56 255
-0.89449722 -0.0680952 1.7080001 91 65 37 255
-0.88975936 -0.068089202 1.7080001 62 38 10 255
-0.88502556 -0.068083465 1.7080001 71 47 19 255
-0.88029599 -0.068077989 1.7080001 76 52 24 255
-0.87557042 -0.068072759 1.7080001 76 52 24 255
-0.87084854 -0.068067767 1.7080001 80 56 28 255
-0.86765188 -0.068182573 1.7110001 80 56 28 255
-0.86393809 -0.068257764 1.7130001 72 50 22 255
-0.86071837 -0.068373024 1.7160001 73 51 23 255
-0.85299617 -0.068129919 1.71 69 50 21 255
-0.8477909 -0.068086281 1.7090001 65 48 19 255
-0.84160775 -0.067963198 1.7060001 65 48 19 255
-0.83691621 -0.06795986 1.7060001 67 49 23 255
-0.82734936 -0.067558393 1.6960001 71 54 25 255
-0.79358679 -0.065165572 1.636 66 52 29 255
-0.74665129 -0.061657898 1.5480001 246 250 243 255
-0.73377258 -0.060938727 1.5300001 160 166 159 255
-0.72624046 -0.0606579 1.5230001 215 223 216 255
-0.72254199 -0.060695879 1.524 216 224 217 255
-0.71695501 -0.060574736 1.521 205 213 205 255
-0.70998091 -0.060334314 1.5150001 191 198 187 255
-0.70210993 -0.060014419 1.5070001 141 148 137 255
-0.69613755 -0.059853997 1.503 174 182 167 255
-0.69203091 -0.05985304 1.503 185 193 176 255
-0.6888417 -0.059931897 1.5050001 190 199 180 255
-0.68473357 -0.059931271 1.5050001 168 177 158 255
-0.6788184 -0.059771512 1.501 154 160 142 255
-0.2401648 -0.0605435 1.5100001 113 121 96 255
-0.23838358 -0.061149273 1.5250001 50 57 35 255
-0.23544443 -0.061474375 1.5330001 39 46 25 255
-0.23170651 -0.061598942 1.536 38 47 28 255
-0.22795145 -0.061723482 1.539 43 49 32 255
-0.22417919 -0.061847977 1.5420001 45 53 36 255
-0.22024713 -0.061932329 1.544 46 54 39 255
-0.2161634 -0.061976515 1.5450001 48 56 41 255
-0.2119363 -0.061980531 1.5450001 48 55 43 255
-0.20757399 -0.061944366 1.544 53 58 47 255
-0.20308474 -0.061868016 1.5420001 55 60 49 255
-0.19873466 -0.06183172 1.5410001 58 63 52 255
-0.19451551 -0.061835475 1.5410001 60 65 54 255
-0.1901722 -0.061799038 1.5400001 64 69 58 255
-0.18571295 -0.061722409 1.5380001 65 69 61 255
-0.18138193 -0.06168583 1.5370001 66 70 62 255
-0.1770557 -0.061649173 1.536 66 70 62 255
-0.17284684 -0.061652597 1.536 63 67 60 255
-0.16863732 -0.061655942 1.536 66 72 64 255
-0.1643201 -0.061619077 1.5350001 73 79 71 255
-0.16000773 -0.061582133 1.534 72 78 71 255
-0.15559867 -0.061504971 1.5320001 74 80 73 255
-0.15139762 -0.06150803 1.5320001 68 74 67 255
-0.14709988 -0.061470855 1.531 65 71 64 255
-0.14290039 -0.061473761 1.531 61 67 60 255
-0.13860974 -0.061436437 1.5300001 57 63 55 255
-0.13467541 -0.061559658 1.5330001 52 58 50 255
-0.13063902 -0.061642658 1.5350001 51 55 47 255
-0.12642634 -0.061645262 1.5350001 48 52 44 255
-0.12213356 -0.061607625 1.534 47 51 43 255
-0.11784577 -0.06156991 1.5330001 53 57 49 255
-0.11371125 -0.061612442 1.534 54 58 50 255
-0.10957075 -0.061654892 1.5350001 53 57 49 255
-0.10521843 -0.061576769 1.5330001 59 64 53 255
-0.10094251 -0.061538719 1.5320001 58 62 54 255
-0.096734837 -0.061540756 1.5320001 61 65 57 255
-0.092587158 -0.061582886 1.5330001 65 69 62 255
-0.088375941 -0.061584763 1.5330001 63 67 60 255
-0.084054545 -0.061506208 1.531 67 71 64 255
-0.079743795 -0.061427563 1.529 68 74 67 255
-0.075493105 -0.061389007 1.5280001 75 81 74 255
-0.071247578 -0.061350361 1.5270001 76 82 75 255
-0.067051157 -0.061351806 1.5270001 80 84 77 255
-0.06277214 -0.061272807 1.5250001 73 77 70 255
-0.05854224 -0.061233897 1.524 71 75 68 255
-0.054317605 -0.0611949 1.5230001 67 71 64 255
-0.050131142 -0.061196003 1.5230001 68 72 65 255
-0.046004798 -0.061277375 1.5250001 65 69 62 255
-0.041812427 -0.061278302 1.5250001 63 67 60 255
-0.037644543 -0.061319321 1.526 63 67 60 255
-0.033470996 -0.061360251 1.5270001 61 65 58 255
-0.029272642 -0.061360918 1.5270001 59 65 58 255
-0.025090577 -0.061401673 1.5280001 61 65 58 255
-0.020875564 -0.061361976 1.5270001 61 65 58 255
-0.016709642 -0.061482929 1.5300001 59 63 56 255
-0.012510807 -0.061523419 1.531 58 62 55 255
-0.0083118426 -0.061604012 1.5330001 58 62 55 255
-0.0040964969 -0.061604142 1.5330001 61 65 58 255
0.0001188659 -0.061604187 1.5330001 61 65 57 255
0.0043285741 -0.061523769 1.531 63 67 59 255
0.008527264 -0.061443262 1.529 65 69 61 255
0.012723244 -0.06140285 1.5280001 65 69 61 255
0.016913671 -0.061362352 1.5270001 66 70 63 255
0.021126175 -0.061402135 1.5280001 66 70 63 255
0.02529436 -0.061321273 1.526 68 72 65 255
0.029509414 -0.061360877 1.5270001 68 72 65 255
0.033685692 -0.061320025 1.526 71 77 70 255
0.037856326 -0.061279096 1.5250001 71 77 70 255
0.042021289 -0.061238065 1.524 73 79 72 255
0.046150263 -0.061156776 1.5220001 72 78 71 255
0.050367251 -0.061195947 1.5230001 73 79 72 255
0.054553699 -0.061194845 1.5230001 74 82 75 255
0.058739912 -0.061193649 1.5230001 71 79 72 255
0.062884554 -0.061152197 1.5220001 74 82 75 255
0.066979371 -0.061070479 1.5200001 79 85 78 255
0.071109727 -0.061028864 1.5190001 77 83 76 255
0.075283833 -0.061027326 1.5190001 77 82 78 255
0.07940533 -0.060985547 1.5180001 75 80 76 255
0.083520979 -0.060943678 1.5170001 77 83 76 255
0.087572984 -0.060861554 1.5150001 76 82 75 255
0.091795281 -0.060899865 1.516 77 83 76 255
0.095959388 -0.060897924 1.516 74 82 75 255
0.10005707 -0.060855731 1.5150001 75 81 74 255
0.10414881 -0.06081346 1.5140001 75 81 74 255
0.10830619 -0.060811277 1.5140001 64 72 65 255
0.11246312 -0.060809024 1.5140001 73 79 72 255
0.11669663 -0.060846847 1.5150001 72 77 73 255
0.12077557 -0.060804263 1.5140001 73 78 74 255
0.12493107 -0.060801763 1.5140001 69 74 70 255
0.12900081 -0.06075903 1.5130001 71 76 72 255
0.13350455 -0.060917005 1.5170001 73 78 74 255
0.13793898 -0.061034735 1.5200001 70 75 71 255
0.1422023 -0.06107207 1.521 70 75 71 255
0.14618187 -0.060988881 1.5190001 68 73 69 255
0.15024886 -0.060945779 1.5180001 68 74 67 255
0.15430978 -0.060902599 1.5170001 71 77 70 255
0.158678 -0.060979791 1.5190001 69 75 68 255
0.16294935 -0.061016757 1.5200001 69 75 68 255
0.16700567 -0.060973361 1.5190001 63 69 62 255
0.17094323 -0.060889777 1.5170001 67 73 66 255
0.17498454 -0.060846265 1.516 73 79 72 255
0.1792561 -0.060882956 1.5170001 74 79 75 255
0.18316972 -0.060799178 1.5150001 64 69 65 255
0.1870717 -0.060715348 1.5130001 69 74 70 255
0.19096205 -0.060631461 1.511 83 88 84 255
0.19496985 -0.060587648 1.5100001 76 83 80 255
0.19910336 -0.060583908 1.5100001 68 75 74 255
0.20296693 -0.060499851 1.508 91 98 97 255
0.20681885 -0.060415752 1.506 101 108 107 255
0.21037894 -0.060251378 1.5020001 85 92 91 255
0.21420202 -0.060167193 1.5000001 73 80 77 255
0.21845004 -0.060203284 1.501 78 83 79 255
0.2231476 -0.060359646 1.5050001 76 82 75 255
0.22771522 -0.060475811 1.508 71 77 70 255
0.23214474 -0.060551822 1.5100001 69 74 70 255
0.23689738 -0.060707953 1.5140001 72 77 73 255
0.24135269 -0.060783826 1.516 71 76 72 255
0.24533236 -0.060739364 1.5150001 60 65 61 255
0.24897638 -0.060614679 1.5120001 56 61 57 255
0.25277063 -0.060530059 1.5100001 51 58 54 255
0.25672331 -0.060485478 1.5090001 60 68 61 255
0.2611883 -0.060561102 1.511 85 91 84 255
0.26583898 -0.060676757 1.5140001 61 67 60 255
0.27032688 -0.060752269 1.516 36 42 35 255
0.2739197 -0.060627375 1.5130001 43 49 42 255
0.27731156 -0.060462397 1.5090001 90 95 91 255
0.28086722 -0.060337469 1.506 73 80 76 255
0.28459501 -0.060252588 1.5040001 76 83 80 255
0.28869495 -0.060247805 1.5040001 71 78 75 255
0.29259938 -0.060202923 1.503 70 77 74 255
0.29649761 -0.060158029 1.5020001 73 78 74 255
0.30078977 -0.060193203 1.503 75 80 76 255
0.30508661 -0.060228344 1.5040001 71 76 72 255
0.30918252 -0.060223408 1.5040001 73 78 74 255
0.31306925 -0.06017841 1.503 73 78 74 255
0.31694978 -0.060133394 1.5020001 73 78 74 255
0.32125154 -0.060168426 1.503 72 77 73 255
0.32534155 -0.060163405 1.503 70 75 71 255
0.32986909 -0.060238414 1.5050001 73 78 74 255
0.33396292 -0.060233351 1.5050001 70 77 73 255
0.33783132 -0.060188252 1.5040001 70 77 73 255
0.34169349 -0.060143135 1.503 72 79 75 255
0.34623969 -0.060218062 1.5050001 75 82 78 255
0.35079598 -0.060292959 1.5070001 73 79 72 255
0.35465589 -0.060247816 1.506 75 83 76 255
0.35850963 -0.060202677 1.5050001 74 82 75 255
0.3623572 -0.060157537 1.5040001 75 83 76 255
0.3669295 -0.060232382 1.506 76 84 77 255
0.37077293 -0.060187243 1.5050001 74 82 75 255
0.37485924 -0.060182083 1.5050001 72 80 73 255
0.37919667 -0.060216926 1.506 75 80 76 255
0.38353881 -0.060251754 1.5070001 73 78 74 255
0.38788569 -0.060286574 1.508 72 77 73 255
0.39197743 -0.060281429 1.508 77 82 78 255
0.39685643 -0.060396202 1.511 75 80 76 255
0.40228182 -0.0605909 1.516 80 85 81 255
0.40773365 -0.060785569 1.521 82 87 83 255
0.4137536 -0.061060149 1.5280001 83 88 84 255
0.41926387 -0.061254781 1.5330001 81 86 82 255
0.42480066 -0.061449386 1.5380001 80 87 83 255
0.43120077 -0.061763838 1.5460001 80 87 84 255
0.43764359 -0.062078245 1.554 76 83 80 255
0.44327626 -0.062272795 1.559 79 86 83 255
0.44663924 -0.062147822 1.5560001 158 165 164 255
0.45114431 -0.062182631 1.557 164 171 170 255
0.45857897 -0.062616803 1.5680001 164 170 172 255
0.46548244 -0.062971078 1.577 166 172 174 255
0.46885967 -0.062846199 1.5740001 133 139 141 255
0.47191963 -0.062681444 1.5700001 85 91 94 255
0.47435087 -0.062436912 1.5640001 63 69 71 255
0.47705525 -0.062232364 1.559 68 72 74 255
0.48004094 -0.062067814 1.5550001 65 69 69 255
0.48393884 -0.062023062 1.554 67 71 71 255
0.48783106 -0.061978366 1.5530001 69 73 75 255
0.49140075 -0.061893806 1.5510001 67 71 73 255
0.49495924 -0.061809309 1.549 73 77 79 255
0.49818459 -0.061684985 1.5460001 72 76 76 255
0.50171822 -0.061600611 1.544 72 79 78 255
0.50458574 -0.061436526 1.5400001 76 83 82 255
0.50875288 -0.061432082 1.5400001 74 81 80 255
0.51192057 -0.061308026 1.5370001 72 79 78 255
0.51339316 -0.060984626 1.529 69 76 75 255
0.5134685 -0.060501806 1.5170001 95 102 99 255
0.51484352 -0.060178626 1.5090001 84 91 87 255
0.51858252 -0.060134694 1.508 69 75 68 255
0.5223161 -0.06009084 1.5070001 61 67 60 255
0.52569503 -0.060007181 1.5050001 59 65 58 255
0.52800733 -0.059804 1.5000001 63 69 62 255
0.56124574 -0.060297471 1.5130001 71 78 74 255
0.56870443 -0.060652912 1.5220001 33 41 34 255
0.57244867 -0.060609918 1.521 42 48 41 255
0.57505083 -0.060447492 1.5170001 51 59 51 255
0.57839525 -0.060364857 1.5150001 51 59 52 255
0.58211386 -0.060322169 1.5140001 58 66 59 255
0.58544046 -0.060239743 1.5120001 69 75 68 255
0.58836693 -0.060117591 1.5090001 73 79 72 255
0.59088522 -0.059955712 1.5050001 72 79 76 255
0.59338242 -0.059793945 1.501 76 83 80 255
-0.96411991 -0.071355306 1.6710001 33 34 20 255
-0.96053427 -0.0714285 1.6730001 30 31 17 255
-0.94665986 -0.070733629 1.6570001 24 25 11 255
-0.91298538 -0.068545505 1.6060001 26 27 13 255
-0.91637254 -0.069132216 1.6200001 26 23 9 255
-0.9399488 -0.071255118 1.6700001 22 21 5 255
-0.93860781 -0.071500599 1.6760001 26 16 0 255
-0.9383533 -0.071831658 1.6840001 100 74 56 255
-0.93750483 -0.072120287 1.6910001 72 49 26 255
-0.93386447 -0.072195932 1.6930001 69 45 19 255
-0.92912066 -0.072186597 1.6930001 62 39 16 255
-0.92602003 -0.072305486 1.6960001 56 36 12 255
-0.92399424 -0.072509907 1.7010001 46 27 5 255
-0.92194545 -0.072714582 1.7060001 70 52 28 255
-0.91826081 -0.072791658 1.7080001 48 27 5 255
-0.9086867 -0.072400279 1.6990001 101 78 55 255
-0.9023596 -0.07226491 1.6960001 101 64 42 255
-0.89922947 -0.072385497 1.6990001 119 91 66 255
-0.89871955 -0.07271935 1.7070001 100 74 46 255
-0.89555097 -0.07284043 1.71 58 34 6 255
-0.89080733 -0.072834 1.71 64 40 12 255
-0.8855496 -0.072785251 1.7090001 68 44 16 255
-0.88030148 -0.072736777 1.7080001 73 51 23 255
-0.87506312 -0.072688594 1.7070001 77 55 27 255
-0.87085348 -0.072725825 1.7080001 78 56 28 255
-0.86765671 -0.072848476 1.7110001 76 54 26 255
-0.86394262 -0.072928786 1.7130001 72 50 22 255
-0.86022109 -0.073009335 1.715 70 50 24 255
-0.85300016 -0.072792158 1.71 68 48 22 255
-0.84680259 -0.072660387 1.7070001 69 50 21 255
-0.83914477 -0.072401173 1.7010001 75 56 27 255
-0.8344667 -0.072397597 1.7010001 73 53 27 255
-0.82686466 -0.072138891 1.6950001 80 60 34 255
-0.79892552 -0.070093013 1.6470001 70 55 35 255
-0.7500301 -0.066175044 1.5550001 248 249 243 255
-0.73425436 -0.065151297 1.531 196 202 195 255
-0.72576559 -0.064766131 1.5220001 128 136 128 255
-0.72159559 -0.064764142 1.5220001 175 181 173 255
-0.71601385 -0.064634703 1.5190001 229 235 227 255
-0.70998228 -0.064462915 1.5150001 203 210 199 255
-0.70164526 -0.064078562 1.506 148 155 143 255
-0.69613862 -0.063949697 1.503 136 143 131 255
-0.6920318 -0.063948661 1.503 157 165 150 255
-0.68884242 -0.064032897 1.5050001 178 183 169 255
-0.68473417 -0.064032204 1.5050001 192 197 183 255
-0.67881876 -0.063861512 1.501 182 188 171 255
-0.24725832 -0.064375922 1.503 127 134 112 255
-0.24606505 -0.065151617 1.521 117 124 103 255
-0.24397746 -0.065713182 1.534 36 41 27 255
-0.24119274 -0.066103421 1.5430001 50 56 39 255
-0.23743658 -0.066236593 1.5460001 50 55 41 255
-0.23321061 -0.066241175 1.5460001 50 55 43 255
-0.22883581 -0.066202849 1.5450001 47 52 40 255
-0.22446565 -0.066164464 1.544 48 53 41 255
-0.22038552 -0.06621173 1.5450001 49 56 44 255
-0.21615922 -0.066216074 1.5450001 49 56 44 255
-0.21179497 -0.066177487 1.544 49 56 44 255
-0.20743552 -0.066138849 1.5430001 48 55 44 255
-0.20308073 -0.066100128 1.5420001 55 60 49 255
-0.19873072 -0.066061348 1.5410001 58 63 52 255
-0.19451168 -0.066065356 1.5410001 62 66 58 255
-0.19016843 -0.066026419 1.5400001 63 69 61 255
-0.18582997 -0.065987416 1.539 68 74 67 255
-0.18149629 -0.06594833 1.5380001 71 77 70 255
-0.17716742 -0.06590917 1.5370001 69 75 68 255
-0.17295587 -0.06591282 1.5370001 74 78 71 255
-0.16863389 -0.065873504 1.536 64 70 63 255
-0.16442379 -0.065876998 1.536 66 72 65 255
-0.16010876 -0.065837532 1.5350001 72 80 73 255
-0.1557986 -0.065797985 1.534 77 84 80 255
-0.1513945 -0.065715455 1.5320001 75 82 78 255
-0.14709684 -0.065675728 1.531 75 83 76 255
-0.14280407 -0.065635934 1.5300001 75 81 74 255
-0.13842566 -0.065553151 1.5280001 68 74 67 255
-0.13432121 -0.06559898 1.529 63 69 62 255
-0.13029584 -0.065687649 1.531 58 64 57 255
-0.1261766 -0.065733328 1.5320001 56 60 52 255
-0.12189214 -0.06569311 1.531 52 56 48 255
-0.1177664 -0.065738626 1.5320001 50 54 46 255
-0.11370884 -0.065826967 1.534 51 55 47 255
-0.10949704 -0.065829411 1.534 52 56 48 255
-0.10528482 -0.065831766 1.534 54 59 48 255
-0.10094037 -0.065748192 1.5320001 58 62 54 255
-0.096795917 -0.065793291 1.5330001 55 59 51 255
-0.092524782 -0.065752469 1.5320001 53 57 50 255
-0.088316396 -0.065754466 1.5320001 59 63 56 255
-0.084052742 -0.06571345 1.531 62 66 59 255
-0.079846382 -0.065715268 1.531 65 69 62 255
-0.075590283 -0.065674081 1.5300001 66 72 65 255
-0.071386009 -0.065675713 1.5300001 72 78 71 255
-0.067181438 -0.065677255 1.5300001 79 84 80 255
-0.062935419 -0.065635778 1.529 78 84 77 255
-0.058579389 -0.065465428 1.5250001 81 87 80 255
-0.054316424 -0.065380841 1.5230001 74 80 73 255
-0.050130058 -0.065382011 1.5230001 69 75 68 255
-0.045973632 -0.065426022 1.524 67 72 68 255
-0.041756682 -0.065384075 1.5230001 67 72 68 255
-0.03756972 -0.065384969 1.5230001 66 71 67 255
-0.033382595 -0.065385766 1.5230001 63 68 64 255
-0.029233666 -0.065472335 1.5250001 64 70 63 255
-0.025024347 -0.065430008 1.524 61 67 60 255
-0.020847764 -0.06547346 1.5250001 59 65 58 255
-0.016687436 -0.06560269 1.5280001 59 65 58 255
-0.012510533 -0.065731816 1.531 58 64 57 255
-0.0083062388 -0.065774992 1.5320001 57 63 56 255
-0.004093735 -0.065775134 1.5320001 57 63 56 255
0.00011870822 -0.065732233 1.531 60 64 56 255
0.0043256516 -0.065689251 1.5300001 58 62 54 255
0.0085270768 -0.065646172 1.529 60 64 56 255
0.012731292 -0.065645933 1.529 65 69 61 255
0.016924378 -0.065602668 1.5280001 66 70 63 255
0.021153366 -0.065688103 1.5300001 66 70 63 255
0.02532696 -0.065601714 1.5280001 67 71 64 255
0.029508771 -0.065558165 1.5270001 67 71 64 255
0.033707034 -0.06555745 1.5270001 71 74 70 255
0.037905149 -0.065556645 1.5270001 71 76 72 255
0.042047955 -0.065469891 1.5250001 72 77 73 255
0.046179578 -0.065383032 1.5230001 70 75 71 255
0.050366148 -0.065381944 1.5230001 73 78 74 255
0.054552507 -0.065380767 1.5230001 74 79 75 255
0.058738638 -0.065379508 1.5230001 71 77 70 255
0.062883198 -0.065335214 1.5220001 74 79 75 255
0.066977933 -0.065247916 1.5200001 77 82 78 255
0.071154997 -0.065246366 1.5200001 77 82 78 255
0.075331777 -0.065244742 1.5200001 79 84 80 255
0.07950823 -0.065243013 1.5200001 75 80 76 255
0.083629288 -0.06519828 1.5190001 76 81 77 255
0.087744519 -0.065153465 1.5180001 78 83 79 255
0.091793314 -0.065065637 1.516 79 85 78 255
0.095957346 -0.065063566 1.516 80 86 79 255
0.099988885 -0.064975575 1.5140001 80 86 79 255
0.10407782 -0.064930424 1.5130001 78 84 77 255
0.10816083 -0.064885184 1.5120001 74 79 75 255
0.11246074 -0.064968593 1.5140001 76 81 77 255
0.11654011 -0.064923197 1.5130001 77 82 79 255
0.12069327 -0.064920612 1.5130001 73 78 75 255
0.1246809 -0.064832136 1.511 75 80 76 255
0.12882759 -0.064829394 1.511 71 76 72 255
0.13314974 -0.064912379 1.5130001 70 77 73 255
0.13748236 -0.064995274 1.5150001 72 79 75 255
0.1417319 -0.065035172 1.516 70 75 71 255
0.14579393 -0.064989209 1.5150001 71 76 72 255
0.14994885 -0.064986058 1.5150001 71 77 70 255
0.15420489 -0.065025724 1.516 71 77 70 255
0.15867473 -0.065151088 1.5190001 73 79 72 255
0.16283883 -0.065147698 1.5190001 69 75 68 255
0.16678241 -0.06505847 1.5170001 66 72 65 255
0.17071441 -0.064969167 1.5150001 72 78 71 255
0.17475019 -0.06492269 1.5140001 74 80 73 255
0.17901616 -0.064961895 1.5150001 71 77 70 255
0.18304515 -0.064915277 1.5140001 67 72 68 255
0.18694434 -0.064825721 1.5120001 65 70 66 255
0.19083187 -0.064736106 1.5100001 73 78 74 255
0.19470778 -0.064646438 1.508 72 79 76 255
0.19909944 -0.064728178 1.5100001 66 73 72 255
0.20296298 -0.064638384 1.508 91 97 99 255
0.20667751 -0.064505681 1.5050001 95 101 103 255
0.21023482 -0.064330071 1.501 77 83 85 255
0.21419792 -0.064282991 1.5000001 74 79 76 255
0.21830036 -0.064278714 1.5000001 80 85 81 255
0.22269852 -0.064360067 1.5020001 74 79 75 255
0.22710688 -0.064441353 1.5040001 69 75 68 255
0.2313717 -0.064479731 1.5050001 73 78 74 255
0.23611061 -0.064646572 1.5090001 73 78 74 255
0.24055222 -0.064727657 1.511 68 73 69 255
0.24484199 -0.064765841 1.5120001 59 64 60 255
0.2484778 -0.064632647 1.5090001 60 65 61 255
0.25243121 -0.064585067 1.508 43 50 46 255
0.25637841 -0.064537466 1.5070001 47 55 48 255
0.260665 -0.064575456 1.508 87 95 88 255
0.26513189 -0.06465622 1.5100001 65 71 64 255
0.26925218 -0.064651288 1.5100001 34 42 35 255
0.27300963 -0.064560682 1.508 91 97 90 255
0.27638784 -0.064384453 1.5040001 79 84 80 255
0.28030285 -0.064336605 1.503 73 80 76 255
0.28421161 -0.064288743 1.5020001 71 78 75 255
0.28811413 -0.064240851 1.501 70 77 74 255
0.29201043 -0.064192921 1.5000001 73 80 76 255
0.29609779 -0.064187765 1.5000001 75 80 76 255
0.30018437 -0.064182565 1.5000001 76 81 77 255
0.30447295 -0.06422013 1.501 76 81 77 255
0.3085607 -0.064214878 1.501 76 81 78 255
0.31306413 -0.06429515 1.503 71 76 73 255
0.31715563 -0.064289838 1.503 72 77 73 255
0.3210327 -0.064241745 1.5020001 73 78 74 255
0.32533637 -0.064279154 1.503 70 75 71 255
0.32942548 -0.064273775 1.503 70 77 73 255
0.33373579 -0.064311147 1.5040001 72 79 75 255
0.33737683 -0.064220205 1.5020001 72 79 75 255
0.34146091 -0.064214781 1.5020001 71 78 74 255
0.34554428 -0.064209349 1.5020001 72 79 75 255
0.34962684 -0.064203903 1.5020001 73 78 74 255
0.35394412 -0.064241178 1.503 77 83 76 255
0.35802788 -0.064235702 1.503 74 82 75 255
0.36211094 -0.064230226 1.503 74 82 75 255
0.36643693 -0.064267479 1.5040001 73 81 74 255
0.37027487 -0.064219266 1.503 72 80 73 255
0.37435579 -0.064213775 1.503 71 77 70 255
0.3781842 -0.06416557 1.5020001 72 78 71 255
0.38226095 -0.064160094 1.5020001 70 75 71 255
0.38607991 -0.064111911 1.501 74 79 75 255
0.38989273 -0.064063735 1.5000001 76 81 77 255
0.3942247 -0.064100981 1.501 78 83 79 255
0.39909226 -0.064223647 1.5040001 79 84 80 255
0.40424347 -0.064388998 1.508 78 83 79 255
0.40941578 -0.064554326 1.5120001 78 83 79 255
0.41488275 -0.064762339 1.5170001 74 82 75 255
0.4206523 -0.065013021 1.5230001 81 88 84 255
0.42701173 -0.065349042 1.531 83 90 86 255
0.43341395 -0.065685034 1.539 83 90 86 255
0.43929034 -0.065935642 1.5450001 78 85 82 255
0.44347644 -0.06593018 1.5450001 76 83 80 255
0.44795179 -0.065967426 1.5460001 79 86 83 255
0.45360193 -0.066175364 1.5510001 77 84 83 255
0.45957384 -0.066425949 1.557 75 82 81 255
0.46408841 -0.066463247 1.5580001 72 78 80 255
0.46800688 -0.066415258 1.557 70 76 78 255
0.47161612 -0.066324659 1.5550001 70 76 78 255
0.47521421 -0.066234119 1.5530001 74 78 80 255
0.47818369 -0.06605833 1.549 71 78 77 255
0.48237684 -0.066053197 1.549 70 74 74 255
0.48594144 -0.065962829 1.5470001 69 73 73 255
0.48949492 -0.06587252 1.5450001 73 77 77 255
0.49271774 -0.065739639 1.5420001 73 77 77 255
0.49656862 -0.065692089 1.5410001 78 85 84 255
0.50041378 -0.065644607 1.5400001 81 88 87 255
0.50392586 -0.065554574 1.5380001 74 81 78 255
0.50808758 -0.065549836 1.5380001 72 79 78 255
0.50958467 -0.065204233 1.5300001 78 85 84 255
0.50935954 -0.064645663 1.5170001 85 92 91 255
0.51041788 -0.064257689 1.508 84 91 88 255
0.514157 -0.064210698 1.5070001 72 79 76 255
0.51857835 -0.064248987 1.508 64 70 63 255
0.52231205 -0.064202145 1.5070001 63 69 62 255
0.52464318 -0.063984975 1.5020001 60 66 59 255
0.55679095 -0.063912071 1.501 73 80 76 255
0.56459093 -0.064334452 1.511 77 83 76 255
0.56943464 -0.064416289 1.5130001 34 40 33 255
0.57277322 -0.064327911 1.511 46 52 44 255
0.57571977 -0.064197078 1.508 56 62 55 255
0.57865059 -0.064066365 1.5050001 58 64 57 255
0.58234012 -0.064020902 1.5040001 60 66 59 255
0.58563489 -0.063932978 1.5020001 68 75 71 255
-0.97278732 -0.076607771 1.6860001 33 36 24 255
-0.95652777 -0.075686067 1.6660001 32 33 19 255
-0.9306199 -0.074344218 1.6370001 26 25 11 255
-0.9333536 -0.07492286 1.6500001 26 23 9 255
-0.93939686 -0.075774089 1.669 21 20 4 255
-0.93917859 -0.076126069 1.677 30 16 0 255
-0.93836367 -0.076432906 1.6840001 95 67 48 255
-0.93696046 -0.076694623 1.6900001 77 50 27 255
-0.93277103 -0.07672973 1.6910001 73 48 25 255
-0.92803252 -0.076719798 1.6910001 60 37 15 255
-0.92493719 -0.076846279 1.6940001 78 55 33 255
-0.92291665 -0.077063777 1.6990001 48 27 5 255
-0.92141366 -0.077326909 1.705 60 40 16 255
-0.91558105 -0.077227511 1.7030001 62 37 14 255
-0.9076249 -0.076947086 1.697 84 60 34 255
-0.90130317 -0.076803043 1.6940001 102 64 37 255
-0.89870757 -0.076976664 1.6980001 113 84 56 255
-0.89767355 -0.077286549 1.705 57 31 3 255
-0.89503419 -0.077460714 1.7090001 61 37 9 255
-0.889772 -0.077408522 1.7080001 63 39 11 255
-0.8845194 -0.077356644 1.7070001 72 48 20 255
-0.87979215 -0.077350371 1.7070001 77 53 25 255
-0.87506872 -0.077344388 1.7070001 78 54 26 255
-0.87034917 -0.077338688 1.7070001 78 56 28 255
-0.86614054 -0.077378556 1.7080001 78 56 28 255
-0.86293882 -0.077509299 1.7110001 77 55 27 255
-0.85972422 -0.077640302 1.7140001 77 55 29 255
-0.85350347 -0.077499785 1.7110001 75 55 29 255
-0.84631062 -0.077268951 1.7060001 76 56 30 255
-0.83865523 -0.076993115 1.7 78 58 32 255
-0.83348906 -0.076944001 1.6990001 79 56 33 255
-0.82638019 -0.076714002 1.6940001 82 62 38 255
-0.7989285 -0.074582346 1.6470001 66 50 35 255
-0.75292671 -0.070685111 1.5610001 245 246 240 255
-0.73473626 -0.069369368 1.5320001 199 205 197 255
-0.72576773 -0.068914235 1.5220001 135 142 131 255
-0.72064936 -0.068821557 1.5200001 136 143 132 255
-0.71648705 -0.068819635 1.5200001 173 180 169 255
-0.71092111 -0.068682089 1.5170001 228 235 223 255
-0.7030443 -0.068318374 1.5090001 175 182 170 255
-0.69660294 -0.068090692 1.5040001 136 144 129 255
-0.69203281 -0.068044305 1.503 135 143 128 255
-0.68792778 -0.068043366 1.503 134 139 125 255
-0.68382478 -0.068042621 1.503 162 165 151 255
-0.67881918 -0.067951515 1.501 183 188 174 255
-0.67427588 -0.067905858 1.5000001 191 196 182 255
-0.67018664 -0.06790565 1.5000001 163 169 152 255
-0.25219411 -0.068720333 1.508 136 143 121 255
-0.25087264 -0.069500111 1.5250001 113 119 101 255
-0.24897218 -0.070143238 1.539 41 47 30 255
-0.24572209 -0.07042174 1.5450001 46 51 37 255
-0.2419695 -0.07056348 1.5480001 49 54 42 255
-0.23773897 -0.07056842 1.5480001 48 53 41 255
-0.23350762 -0.070573308 1.5480001 51 56 44 255
-0.2289793 -0.070486933 1.5460001 51 56 44 255
-0.22475186 -0.070491679 1.5460001 49 54 42 255
-0.22052366 -0.070496365 1.5460001 46 53 42 255
-0.21615478 -0.070455387 1.5450001 35 42 31 255
-0.21179062 -0.070414335 1.544 39 46 35 255
-0.2074312 -0.0703732 1.5430001 39 46 35 255
-0.2030765 -0.070331998 1.5420001 49 56 45 255
-0.19872656 -0.070290729 1.5410001 55 60 49 255
-0.19450757 -0.070294984 1.5410001 59 65 57 255
-0.19028789 -0.070299163 1.5410001 60 66 58 255
-0.18594676 -0.070257664 1.5400001 60 66 59 255
-0.18161042 -0.070216075 1.539 64 70 63 255
-0.17727889 -0.070174403 1.5380001 70 76 69 255
-0.1731772 -0.070223905 1.539 71 77 70 255
-0.1689596 -0.070227705 1.539 72 78 71 255
-0.16463433 -0.070185795 1.5380001 63 69 62 255
-0.1602096 -0.070098162 1.536 60 68 61 255
-0.15589675 -0.070056073 1.5350001 70 77 73 255
-0.15158881 -0.070013903 1.534 79 86 82 255
-0.14718969 -0.069926001 1.5320001 75 83 76 255
-0.14289425 -0.069883645 1.531 77 85 78 255
-0.13842259 -0.069749907 1.5280001 75 83 76 255
-0.13431822 -0.069798671 1.529 70 78 71 255
-0.13012274 -0.069801703 1.529 73 79 72 255
-0.12592672 -0.069804646 1.529 63 69 62 255
-0.12173019 -0.0698075 1.529 65 69 61 255
-0.11753315 -0.069810271 1.529 56 60 52 255
-0.11355803 -0.069949917 1.5320001 50 54 46 255
-0.10949457 -0.070043832 1.534 52 56 48 255
-0.10535108 -0.070092 1.5350001 51 55 47 255
-0.10106985 -0.070048735 1.534 51 55 47 255
-0.096793711 -0.070005387 1.5330001 52 56 48 255
-0.092522673 -0.069961943 1.5320001 53 57 50 255
-0.088256724 -0.069918394 1.531 56 60 53 255
-0.084050819 -0.069920421 1.531 55 59 52 255
-0.079792403 -0.069876686 1.5300001 58 62 55 255
