ply
format ascii 1.0
comment PCL generated
element vertex 970
property float x
property float y
property float z
property uchar red
property uchar green
property uchar blue
property uchar alpha
element camera 0
property float view_px
property float view_py
property float view_pz
property float x_axisx
property float x_axisy
property float x_axisz
property float y_axisx
property float y_axisy
property float y_axisz
property float z_axisx
property float z_axisy
property float z_axisz
property float focal
property float scalex
property float scaley
property float centerx
property float centery
property int viewportx
property int viewporty
property float k1
property float k2
end_header
0.72547323 -0.29926831 1.511 186 193 196 255
0.72627103 -0.29790503 1.5040001 187 193 196 255
0.72458971 -0.31371322 1.5630001 182 188 190 255
0.72469783 -0.31192547 1.554 184 190 192 255
0.72522825 -0.31033921 1.5460001 184 190 192 255
0.72477359 -0.3083522 1.536 184 190 193 255
0.72474122 -0.30656666 1.5270001 185 192 195 255
0.72513944 -0.30498263 1.5190001 185 192 195 255
0.72645664 -0.30380088 1.5130001 184 191 194 255
0.72629505 -0.30201757 1.5040001 186 192 195 255
0.72629595 -0.32060915 1.5760001 182 188 190 255
0.72599918 -0.31859329 1.5660001 183 189 191 255
0.72565007 -0.31657818 1.5560001 183 189 191 255
0.72665596 -0.31517419 1.549 184 190 192 255
0.72573853 -0.31295705 1.5380001 183 190 193 255
0.72571248 -0.3111476 1.529 185 192 194 255
0.72611707 -0.30954236 1.521 185 192 194 255
0.72648042 -0.30793792 1.5130001 186 193 196 255
0.72680265 -0.3063342 1.5050001 186 192 194 255
0.72609967 -0.32675135 1.585 183 189 191 255
0.72539258 -0.32450193 1.5740001 184 190 192 255
0.72555482 -0.32266554 1.5650001 184 190 192 255
0.72520381 -0.32062376 1.5550001 183 189 191 255
0.72620779 -0.31920126 1.5480001 184 190 192 255
0.72623229 -0.31736717 1.539 183 190 193 255
0.72668451 -0.31573999 1.531 185 192 195 255
0.72852772 -0.31473237 1.526 185 192 195 255
0.72794539 -0.31269428 1.516 186 193 196 255
0.72779381 -0.31086317 1.5070001 187 193 195 255
0.72631085 -0.33315164 1.595 180 187 190 255
0.72657609 -0.33128986 1.5860001 181 188 191 255
0.72633344 -0.32921991 1.5760001 182 189 191 255
0.72650206 -0.32735962 1.567 180 187 189 255
0.72522455 -0.3248733 1.5550001 183 190 192 255
0.72576028 -0.32322341 1.5470001 180 187 189 255
0.72625476 -0.3215743 1.539 183 190 193 255
0.72813183 -0.32055286 1.534 186 193 196 255
0.7290296 -0.31911439 1.5270001 184 191 194 255
0.72797066 -0.31684062 1.516 185 192 195 255
0.727337 -0.31477663 1.506 186 192 194 255
0.72646838 -0.33960652 1.605 179 185 191 255
0.72587341 -0.33729684 1.5940001 180 187 190 255
0.72613668 -0.33541104 1.585 181 188 191 255
0.72543132 -0.33310282 1.5740001 182 189 192 255
0.72605896 -0.33143023 1.5660001 179 186 188 255
0.72477961 -0.32891178 1.554 184 191 193 255
0.72578269 -0.32745236 1.5470001 184 191 193 255
0.72580618 -0.3255704 1.5380001 184 191 194 255
0.72863072 -0.32495937 1.5350001 185 192 195 255
0.72809976 -0.3228673 1.5250001 185 192 195 255
0.72847688 -0.32119939 1.5170001 185 191 194 255
0.72688091 -0.31868526 1.5050001 187 193 196 255
0.72522283 -0.34547314 1.6120001 178 185 188 255
0.72603357 -0.34377623 1.6040001 178 185 188 255
0.72498131 -0.34122273 1.5920001 176 183 186 255
0.72386557 -0.33866999 1.58 182 189 192 255
0.72515291 -0.33528152 1.5640001 182 189 191 255
0.72526813 -0.33337408 1.5550001 182 189 192 255
0.72580564 -0.33168185 1.5470001 183 190 192 255
0.72677386 -0.33020481 1.5400001 183 190 193 255
0.72865564 -0.32915747 1.5350001 185 192 195 255
0.72860301 -0.32725322 1.526 184 191 194 255
0.72754312 -0.32492077 1.5150001 186 193 196 255
0.72642553 -0.32258904 1.5040001 187 194 197 255
0.72569025 -0.35009316 1.613 178 185 188 255
0.72650456 -0.34837505 1.605 181 188 191 255
0.72454512 -0.34535533 1.5910001 179 186 189 255
0.72434378 -0.34320456 1.5810001 181 187 190 255
0.72409004 -0.34105462 1.5710001 181 187 190 255
0.72563851 -0.3397738 1.5650001 182 189 192 255
0.72482449 -0.33740819 1.554 179 186 189 255
0.72536027 -0.33569482 1.5460001 183 190 193 255
0.72585464 -0.33398217 1.5380001 183 190 193 255
0.72678244 -0.33248749 1.531 185 192 195 255
0.72576475 -0.33012494 1.5200001 184 191 194 255
0.72516936 -0.32798028 1.5100001 185 192 195 255
0.72452182 -0.32583633 1.5000001 186 192 198 255
0.72525847 -0.35427961 1.6120001 182 188 190 255
0.72516572 -0.35210073 1.6020001 183 189 191 255
0.72502041 -0.34992257 1.5920001 180 186 189 255
0.72390634 -0.34730557 1.58 182 188 191 255
0.72503346 -0.34578842 1.5730001 181 187 190 255
0.72566104 -0.34405223 1.5650001 183 189 192 255
0.72624725 -0.3423169 1.557 170 176 179 255
0.72585386 -0.34014267 1.5470001 178 185 188 255
0.72588003 -0.33818901 1.5380001 185 192 195 255
0.72633404 -0.33645603 1.5300001 183 189 195 255
0.72626942 -0.33450395 1.521 185 191 197 255
0.72567773 -0.3323327 1.511 185 191 197 255
0.72648299 -0.33082211 1.5040001 186 192 198 255
0.72482741 -0.3584612 1.6110001 181 187 189 255
0.72563809 -0.35670069 1.603 182 188 190 255
0.72640729 -0.35494098 1.595 182 188 191 255
0.72597778 -0.35053381 1.575 184 190 193 255
0.72568452 -0.34833136 1.5650001 183 188 194 255
0.72580516 -0.34635228 1.5560001 184 189 195 255
0.72634828 -0.34459659 1.5480001 181 187 193 255
0.72637808 -0.34261909 1.539 185 191 197 255
0.7249369 -0.33997449 1.5270001 183 189 195 255
0.72390985 -0.33755317 1.516 185 191 197 255
0.72522646 -0.33624598 1.5100001 186 192 198 255
0.72651285 -0.33493966 1.5040001 187 193 199 255
0.72570854 -0.35261106 1.5650001 181 186 192 255
0.72590506 -0.34860602 1.5470001 183 189 195 255
0.72640502 -0.34683001 1.539 185 191 197 255
0.72543955 -0.34437868 1.5280001 185 191 197 255
0.72584879 -0.34260431 1.5200001 185 191 197 255
0.72765762 -0.34150696 1.5150001 187 193 199 255
0.72847587 -0.33995971 1.508 186 192 198 255
0.72877276 -0.33818787 1.5000001 188 194 200 255
0.726264 -0.3614035 1.585 182 188 191 255
0.72499323 -0.35238251 1.5450001 182 188 194 255
0.72596073 -0.35081345 1.5380001 184 190 196 255
0.72594291 -0.34878907 1.529 185 191 197 255
0.72587842 -0.34676549 1.5200001 186 192 198 255
0.72720796 -0.3454271 1.5140001 185 191 197 255
0.72802448 -0.34386149 1.5070001 186 191 197 255
0.72880542 -0.34229678 1.5000001 187 192 198 255
0.72582948 -0.36550695 1.5840001 180 186 192 255
0.72642851 -0.35730284 1.5480001 182 187 193 255
0.72740531 -0.35571551 1.5410001 184 189 195 255
0.7278716 -0.3538982 1.5330001 185 191 197 255
0.72829664 -0.35208175 1.5250001 185 191 197 255
0.72916085 -0.35049701 1.5180001 186 192 198 255
0.72902316 -0.34845132 1.5090001 185 190 196 255
0.72932476 -0.34663737 1.501 187 192 198 255
0.72330856 -0.37074867 1.5880001 181 186 192 255
0.7244792 -0.36913866 1.5810001 182 187 193 255
0.72561401 -0.36752957 1.5740001 182 188 194 255
0.72578532 -0.36545426 1.5650001 184 189 195 255
0.7263763 -0.36361331 1.557 183 188 194 255
0.72739542 -0.36200678 1.5500001 185 190 196 255
0.7279067 -0.36016756 1.5420001 185 190 196 255
0.72790188 -0.35809562 1.5330001 184 190 196 255
0.72785038 -0.3560245 1.524 186 192 198 255
0.72775215 -0.3539542 1.5150001 185 191 197 255
0.72712409 -0.35165101 1.5050001 185 190 196 255
0.72424382 -0.37556413 1.59 181 186 192 255
0.72542101 -0.37393579 1.5830001 182 188 194 255
0.7260167 -0.36554098 1.5470001 184 189 195 255
0.72510445 -0.36297169 1.536 185 190 196 255
0.72508407 -0.36087587 1.5270001 184 190 196 255
0.72597212 -0.35925353 1.5200001 185 191 197 255
0.72682458 -0.35763204 1.5130001 185 191 197 255
0.72522551 -0.35482952 1.501 185 191 197 255
0.72426885 -0.3799133 1.59 182 187 193 255
0.72612822 -0.37638181 1.575 184 190 196 255
0.72676808 -0.37449786 1.567 183 188 194 255
0.72643352 -0.37213683 1.557 186 191 197 255
0.72371912 -0.36646092 1.5330001 183 189 195 255
0.72321653 -0.36410213 1.5230001 184 190 196 255
0.72409451 -0.36246136 1.516 186 192 198 255
0.72349572 -0.3601042 1.506 186 192 198 255
0.72513884 -0.3735294 1.5450001 185 191 197 255
0.72516721 -0.37138519 1.536 184 190 196 255
0.72467393 -0.36899993 1.526 185 191 197 255
0.72651666 -0.36782467 1.521 185 191 197 255
0.72497183 -0.36495742 1.5090001 185 191 197 255
0.72572374 -0.38475919 1.5740001 183 188 194 255
0.72729051 -0.38332203 1.5680001 184 189 195 255
0.72836053 -0.38164142 1.5610001 185 190 196 255
0.72704804 -0.37873921 1.549 185 190 196 255
0.72708845 -0.37657124 1.5400001 185 191 197 255
0.72660726 -0.3741596 1.5300001 186 192 198 255
0.72655147 -0.37199333 1.521 188 193 199 255
0.72500759 -0.36909413 1.5090001 187 192 198 255
0.72485012 -0.36692947 1.5000001 187 192 198 255
0.72711688 -0.37860021 1.531 186 191 197 255
0.7275427 -0.37665758 1.5230001 187 192 198 255
0.72648579 -0.37397376 1.5120001 187 192 198 255
0.72633761 -0.3717854 1.503 186 191 197 255
0.72392154 -0.39706761 1.5890001 183 189 195 255
0.72601777 -0.39584744 1.5840001 183 188 194 255
0.72624469 -0.39362854 1.575 186 191 197 255
0.72688884 -0.39166051 1.567 184 189 195 255
0.72471309 -0.37933317 1.5170001 187 192 198 255
0.72460151 -0.37712017 1.508 187 192 198 255
0.72540987 -0.37540823 1.501 189 194 200 255
0.7271983 -0.39844766 1.577 184 189 195 255
0.7264573 -0.39570054 1.5660001 187 192 198 255
0.72528934 -0.38598397 1.5270001 186 191 197 255
0.7257061 -0.3839992 1.5190001 187 192 198 255
0.72608167 -0.38201538 1.511 187 192 198 255
0.72544962 -0.37952673 1.501 187 192 198 255
0.72815287 -0.40327856 1.5790001 184 189 195 255
0.72649062 -0.39999151 1.5660001 184 189 195 255
0.72615933 -0.39747149 1.5560001 187 192 198 255
0.72483689 -0.39444128 1.544 185 190 196 255
0.72486782 -0.39217836 1.5350001 187 192 198 255
0.72532684 -0.3901718 1.5270001 188 193 199 255
0.72622252 -0.38842165 1.5200001 188 193 199 255
0.72804374 -0.38718361 1.5150001 188 193 199 255
0.72694045 -0.38441306 1.5040001 187 192 198 255
0.72619462 -0.40173683 1.5560001 186 191 197 255
0.72487324 -0.39867473 1.544 188 193 199 255
0.72632194 -0.39716282 1.5380001 187 192 198 255
0.72631532 -0.39487708 1.529 188 193 199 255
0.72865117 -0.39388362 1.5250001 187 192 198 255
0.72856504 -0.39159977 1.516 188 193 199 255
0.72794908 -0.38905844 1.506 189 194 201 255
0.72436398 -0.40495944 1.552 186 191 197 255
0.72538 -0.40317008 1.5450001 187 192 198 255
0.72730488 -0.40190369 1.5400001 187 192 198 255
0.72777998 -0.39985538 1.5320001 188 193 199 255
0.72821409 -0.39780796 1.524 188 193 199 255
0.72908759 -0.39602247 1.5170001 189 194 200 255
0.72895885 -0.39371589 1.508 188 193 199 255
0.7263574 -0.40793568 1.5470001 188 193 199 255
0.72687209 -0.40586543 1.539 188 193 199 255
0.72639549 -0.40326869 1.529 188 193 199 255
0.72730017 -0.40146405 1.5220001 188 193 199 255
0.72720802 -0.39913282 1.5130001 189 194 200 255
0.72755271 -0.39706627 1.5050001 189 194 200 255
0.72592717 -0.41191387 1.5460001 188 193 199 255
0.72596806 -0.40955627 1.5370001 189 194 200 255
0.7269122 -0.40773252 1.5300001 186 191 197 255
0.72734308 -0.40564325 1.5220001 188 193 199 255
0.72725201 -0.40328833 1.5130001 191 196 202 255
0.72663087 -0.40066776 1.503 190 195 201 255
0.72713566 -0.42172948 1.567 186 191 197 255
0.72647983 -0.41166449 1.529 189 194 200 255
0.7278648 -0.4100928 1.5230001 189 194 200 255
0.72729701 -0.40744504 1.5130001 188 193 199 255
0.72716051 -0.40506741 1.5040001 189 194 200 255
0.72578281 -0.42521337 1.5640001 186 191 197 255
0.72937465 -0.41749594 1.5350001 189 194 200 255
0.72982162 -0.41536501 1.5270001 189 194 200 255
0.72878534 -0.41241893 1.516 188 193 199 255
0.72865838 -0.41001785 1.5070001 189 194 200 255
0.72751886 -0.42061418 1.531 189 194 200 255
0.72938991 -0.41928664 1.526 189 194 200 255
0.72931349 -0.416861 1.5170001 190 195 201 255
0.73015755 -0.41498598 1.5100001 190 195 201 255
0.72999346 -0.41256219 1.501 190 195 201 255
0.72661448 -0.42426664 1.529 187 192 198 255
0.72800332 -0.42264888 1.5230001 189 194 200 255
0.72743893 -0.41992211 1.5130001 190 195 201 255
0.72827303 -0.4180288 1.506 191 196 202 255
0.72566164 -0.42543533 1.5180001 190 195 201 255
0.72604609 -0.42324263 1.5100001 191 196 202 255
0.72638953 -0.42105085 1.5020001 189 194 200 255
0.72609681 -0.42739707 1.5100001 190 195 202 255
0.72595781 -0.42490146 1.501 192 197 203 255
0.72842932 -0.43046275 1.506 190 195 202 255
0.72896761 -0.43489867 1.5070001 192 197 204 255
0.72853971 -0.43875882 1.506 192 197 204 255
0.72919792 -0.44579253 1.516 190 195 201 255
0.72811317 -0.44261485 1.5050001 190 195 201 255
0.72980285 -0.45288104 1.526 190 195 201 255
0.7292552 -0.44997033 1.516 191 196 202 255
0.72962302 -0.44765422 1.508 192 197 203 255
0.72835159 -0.45355052 1.5140001 195 200 206 255
0.72968292 -0.45181286 1.508 192 197 203 255
0.72744924 -0.45712116 1.5120001 190 195 201 255
0.72926027 -0.45567057 1.5070001 192 197 203 255
0.72883886 -0.45952433 1.506 192 197 203 255
0.72987086 -0.46429786 1.508 191 196 202 255
0.72855109 -0.47168928 1.5050001 196 199 205 255
0.72871506 -0.48974416 1.5500001 189 194 200 255
0.72765106 -0.47521693 1.503 196 199 205 255
0.72868919 -0.48001114 1.5050001 194 197 203 255
0.72972894 -0.4848181 1.5070001 193 196 200 255
0.73045093 -0.5212518 1.516 195 197 197 255
0.72938937 -0.51755399 1.5050001 195 197 199 255
0.7309317 -0.54545528 1.5250001 194 196 196 255
0.73137558 -0.54268593 1.5170001 194 196 196 255
0.73032373 -0.53884435 1.506 195 197 197 255
0.72862726 -0.54789853 1.5200001 193 195 195 255
0.72954088 -0.54546911 1.5130001 194 196 196 255
0.72993433 -0.54268032 1.5050001 194 196 196 255
0.7282691 -0.56801647 1.5650001 187 191 191 255
0.72798449 -0.56447464 1.5550001 188 192 192 255
0.72764778 -0.56093383 1.5450001 190 195 192 255
0.728724 -0.55530739 1.529 192 195 192 255
0.72824198 -0.5517695 1.5190001 191 193 193 255
0.72770768 -0.5482325 1.5090001 192 194 196 255
0.72809148 -0.54542309 1.501 195 197 199 255
0.72928798 -0.57310039 1.567 188 192 192 255
0.72901058 -0.56953281 1.557 191 194 191 255
0.72868097 -0.56596601 1.5470001 191 193 193 255
0.72786516 -0.55883539 1.5270001 192 194 194 255
0.72785848 -0.55563748 1.5180001 192 194 194 255
0.72876978 -0.55317265 1.511 192 194 196 255
0.73013115 -0.5510754 1.5050001 192 194 196 255
0.7287606 -0.68588936 1.8670001 171 176 172 255
0.72880292 -0.68116677 1.8540001 170 175 171 255
0.73035944 -0.67791474 1.845 172 177 173 255
0.72989714 -0.66375542 1.8060001 173 178 174 255
0.72960466 -0.65903735 1.7930001 173 178 174 255
0.72760445 -0.65284985 1.7760001 175 180 176 255
0.72881252 -0.6496039 1.7670001 177 182 178 255
0.72955841 -0.64599144 1.7570001 177 182 178 255
0.72857988 -0.64090931 1.743 177 182 178 255
0.72778141 -0.6238988 1.6960001 180 185 181 255
0.73042595 -0.59581149 1.618 184 189 186 255
0.73268515 -0.59405464 1.613 187 192 189 255
0.73284042 -0.58363473 1.5840001 186 191 188 255
0.73030907 -0.57819808 1.5690001 188 190 190 255
0.72957051 -0.57423598 1.5580001 189 191 191 255
0.73065847 -0.57174933 1.5510001 190 192 192 255
0.73123729 -0.56889528 1.5430001 190 192 192 255
0.73177516 -0.5660423 1.5350001 191 193 193 255
0.73131317 -0.56245303 1.5250001 191 193 193 255
0.73176372 -0.55960232 1.5170001 192 194 194 255
0.73120296 -0.55601484 1.5070001 192 194 194 255
0.73205435 -0.5535354 1.5000001 194 196 196 255
0.73412794 -0.70097464 1.8940001 170 173 169 255
0.73310822 -0.69510692 1.8780001 167 172 168 255
0.73003727 -0.68738914 1.8570001 170 175 171 255
0.72962397 -0.68226302 1.8430001 171 177 170 255
0.73073077 -0.67861873 1.8330001 173 179 172 255
0.73419344 -0.67719704 1.8290001 172 178 171 255
0.73359495 -0.67207396 1.8150001 174 179 175 255
0.73088717 -0.66510016 1.7960001 173 178 174 255
0.72930598 -0.6592378 1.7800001 172 179 175 255
0.73093921 -0.65633923 1.7720001 173 180 176 255
0.73003936 -0.65121931 1.7580001 175 180 176 255
0.72990096 -0.64684111 1.7460001 175 180 176 255
0.72675335 -0.63987035 1.7270001 177 182 178 255
0.73028088 -0.63882864 1.7240001 178 183 179 255
0.73038375 -0.63482374 1.7130001 178 183 179 255
0.7299996 -0.63044924 1.7010001 179 184 180 255
0.72955197 -0.62607569 1.6890001 181 185 178 255
0.72947568 -0.62207371 1.6780001 181 185 178 255
0.72890383 -0.61770177 1.6660001 182 185 181 255
0.73046857 -0.60393226 1.628 185 188 185 255
0.72960746 -0.59956497 1.6160001 183 188 185 255
0.73216194 -0.590922 1.5920001 183 188 185 255
0.73108047 -0.58655834 1.58 189 192 189 255
0.72900474 -0.58145291 1.5660001 189 192 189 255
0.72825909 -0.57746196 1.5550001 188 191 188 255
0.72934043 -0.57495761 1.5480001 189 192 189 255
0.73133439 -0.57319748 1.5430001 191 194 191 255
0.73235077 -0.57069582 1.536 191 194 191 255
0.731893 -0.56708056 1.526 191 194 191 255
0.73186564 -0.56383801 1.5170001 192 194 194 255
0.73179185 -0.56059641 1.508 193 195 195 255
0.73215973 -0.55772769 1.5000001 192 194 194 255
0.74734533 -0.73436892 1.9700001 164 169 165 255
0.74360424 -0.72547454 1.9460001 166 171 167 255
0.74204272 -0.71881771 1.9280001 166 171 167 255
0.73728329 -0.70917863 1.9020001 168 171 167 255
0.73394454 -0.70103127 1.8800001 167 172 168 255
0.72930753 -0.69176561 1.8550001 167 172 168 255
0.72730637 -0.68511069 1.8370001 170 175 171 255
0.73238486 -0.68517017 1.8370001 172 177 173 255
0.73907191 -0.68672341 1.8410001 170 175 171 255
0.74012476 -0.683056 1.8310001 170 175 171 255
0.7370553 -0.67565882 1.8110001 171 176 172 255
0.73346817 -0.66788888 1.7900001 171 178 174 255
0.73224294 -0.66235822 1.7750001 174 179 175 255
0.73093742 -0.65682834 1.7600001 175 180 176 255
0.73247826 -0.65391171 1.7520001 177 182 178 255
0.73271525 -0.64987648 1.7410001 177 182 178 255
0.73501253 -0.64770889 1.7350001 178 183 179 255
0.73386824 -0.64255577 1.7210001 178 183 179 255
0.73393691 -0.63852352 1.71 177 182 178 255
0.73265177 -0.63337201 1.6960001 179 185 178 255
0.73259634 -0.6293416 1.6850001 180 186 179 255
0.73248297 -0.62531215 1.674 179 184 180 255
0.73143113 -0.62053651 1.6610001 180 185 181 255
0.72912014 -0.61098737 1.6350001 185 188 185 255
0.7301048 -0.60808253 1.6270001 185 188 185 255
0.73104835 -0.60517889 1.6190001 182 187 184 255
0.72922474 -0.60003334 1.605 184 189 186 255
0.72915524 -0.59638405 1.595 184 189 186 255
0.73041326 -0.59385759 1.5880001 186 191 188 255
0.73163593 -0.59133244 1.5810001 187 190 187 255
0.73049545 -0.5869382 1.5690001 186 189 186 255
0.73022807 -0.58329284 1.559 186 191 188 255
0.73273611 -0.58189386 1.5550001 189 192 189 255
0.73569965 -0.58087069 1.552 187 192 189 255
0.73340529 -0.57573181 1.5380001 188 193 190 255
0.7319954 -0.57134205 1.526 190 195 192 255
0.73148715 -0.56770182 1.516 191 193 193 255
0.73092687 -0.5640626 1.506 193 195 195 255
0.75138503 -0.74913138 1.9950001 164 169 165 255
0.74853641 -0.74092335 1.973 162 168 161 255
0.74556911 -0.73271596 1.9510001 164 170 163 255
0.74017346 -0.72225541 1.9230001 164 170 163 255
0.73927784 -0.71630228 1.9070001 165 170 166 255
0.73712528 -0.70922309 1.8880001 165 170 167 255
0.73093849 -0.69838768 1.8590001 164 169 165 255
0.7305333 -0.69318765 1.845 170 175 171 255
0.73643321 -0.69400066 1.8470001 171 176 172 255
0.74234676 -0.69481534 1.8490001 172 177 173 255
0.74301904 -0.69074655 1.8380001 172 177 173 255
0.74200523 -0.68517536 1.8230001 171 176 172 255
0.73968178 -0.67847723 1.8050001 173 178 174 255
0.73602396 -0.67065191 1.784 172 177 173 255
0.73516005 -0.66545856 1.7700001 174 179 175 255
0.73673028 -0.66252196 1.7620001 175 180 176 255
0.7365756 -0.65808249 1.7500001 175 180 176 255
0.73635739 -0.65364385 1.738 173 178 174 255
0.73394346 -0.64732552 1.7210001 175 180 176 255
0.73401362 -0.64326465 1.71 177 183 176 255
0.73272979 -0.63807619 1.6960001 177 183 176 255
0.73484987 -0.63589841 1.6900001 179 185 178 255
0.73518968 -0.63221693 1.6800001 179 184 180 255
0.73547709 -0.62853646 1.6700001 179 184 180 255
0.73216665 -0.6218456 1.6520001 180 185 181 255
0.73143524 -0.61741388 1.6400001 183 186 182 255
0.73108906 -0.61335939 1.6290001 182 185 181 255
0.73294306 -0.61118871 1.623 181 186 183 255
0.73113203 -0.60600638 1.6090001 182 187 184 255
0.72924638 -0.60082465 1.595 184 189 186 255
0.72866619 -0.59677368 1.5840001 184 189 186 255
0.72941649 -0.59385395 1.5760001 185 190 187 255
0.73012584 -0.59093541 1.5680001 187 192 189 255
0.73126274 -0.588395 1.5610001 184 189 186 255
0.73330694 -0.58660996 1.5560001 187 192 189 255
0.73485315 -0.58444941 1.5500001 187 192 189 255
0.73303133 -0.57965046 1.5370001 186 191 188 255
0.73209989 -0.57560629 1.526 190 195 192 255
0.73255849 -0.57269496 1.5180001 188 192 192 255
0.73394698 -0.57053924 1.5120001 192 194 194 255
0.7518155 -0.75500733 1.9960001 160 166 159 255
0.75200605 -0.74976671 1.9820001 158 164 157 255
0.74371403 -0.73620403 1.9460001 163 169 162 255
0.73907536 -0.72642452 1.9200001 162 167 163 255
0.74011129 -0.72232085 1.909 166 171 167 255
0.74147952 -0.7185967 1.899 166 171 168 255
0.73964936 -0.71184605 1.881 167 172 169 255
0.7373265 -0.70471758 1.8620001 166 171 167 255
0.73928761 -0.70175326 1.8540001 169 174 170 255
0.74160886 -0.69916868 1.8470001 171 177 170 255
0.74146843 -0.694314 1.8340001 169 175 168 255
0.7404449 -0.688703 1.8190001 169 175 168 255
0.74098033 -0.68460727 1.8080001 170 176 169 255
0.73898238 -0.67824054 1.7910001 172 178 171 255
0.73813921 -0.67301041 1.7770001 172 177 173 255
0.73763961 -0.66816002 1.7640001 174 179 176 255
0.73875475 -0.66482562 1.7550001 175 180 177 255
0.73812819 -0.65997696 1.7420001 176 181 177 255
0.73572648 -0.65361351 1.725 177 182 178 255
0.73452145 -0.64838737 1.7110001 175 183 176 255
0.73367381 -0.64354086 1.6980001 175 183 176 255
0.73667103 -0.64210665 1.6940001 174 182 175 255
0.73702353 -0.63839948 1.6840001 180 185 181 255
0.73732358 -0.63469326 1.674 178 183 179 255
0.7326957 -0.62681699 1.6530001 178 183 179 255
0.73241448 -0.622733 1.6420001 181 186 182 255
0.73252434 -0.61902934 1.6320001 179 184 180 255
0.7352919 -0.61760283 1.628 182 187 184 255
0.73213285 -0.61124557 1.6110001 181 186 183 255
0.73116869 -0.60678589 1.5990001 182 187 184 255
0.72922093 -0.60156786 1.585 183 188 185 255
0.7299757 -0.59862787 1.577 184 189 186 255
0.73022389 -0.59530944 1.5680001 184 189 186 255
0.73276824 -0.59389079 1.5640001 185 190 187 255
0.73482281 -0.592094 1.559 186 191 188 255
0.73543096 -0.58915925 1.5510001 186 191 188 255
0.73265934 -0.58356625 1.536 187 192 189 255
0.73316616 -0.58063346 1.5280001 189 194 191 255
0.73459738 -0.578462 1.5220001 190 195 192 255
0.73599911 -0.57629192 1.516 188 192 192 255
0.73346502 -0.57108176 1.5020001 190 193 190 255
0.75282168 -0.7559948 1.9840001 154 159 155 255
0.7441538 -0.74195373 1.9470001 161 167 160 255
0.73797899 -0.73057973 1.9170001 162 168 161 255
0.74017119 -0.72759074 1.909 164 169 165 255
0.74310273 -0.72536534 1.9030001 165 170 166 255
0.74207145 -0.71932936 1.8870001 164 169 165 255
0.73937035 -0.7117691 1.8670001 166 171 167 255
0.73815644 -0.70573443 1.8510001 166 172 165 255
0.73806161 -0.70084435 1.8380001 169 175 168 255
0.73830199 -0.69633651 1.8260001 169 175 168 255
0.73766458 -0.6910668 1.812 170 176 169 255
0.73982173 -0.68846798 1.8050001 169 175 168 255
0.73946714 -0.68358171 1.7920001 169 175 168 255
0.73904365 -0.67869633 1.779 171 176 172 255
0.73813272 -0.6734302 1.7650001 174 179 176 255
0.73841023 -0.66930956 1.7540001 174 179 176 255
0.73820609 -0.66480845 1.7420001 175 180 176 255
0.73580563 -0.6583997 1.725 175 180 176 255
0.73546064 -0.65390003 1.7130001 174 182 175 255
0.7341879 -0.64863771 1.6990001 176 184 177 255
0.73545003 -0.64566702 1.6910001 174 181 177 255
0.73579556 -0.6419338 1.6810001 175 182 178 255
0.73564833 -0.63781971 1.6700001 180 185 181 255
0.73278356 -0.63141471 1.6530001 180 185 181 255
0.73339593 -0.62806612 1.6440001 179 184 180 255
0.733513 -0.62433672 1.6340001 179 184 180 255
0.73583633 -0.62251902 1.6290001 182 187 183 255
0.7317723 -0.61535215 1.6100001 181 186 183 255
0.73126405 -0.61124313 1.5990001 182 187 184 255
0.72977781 -0.60637051 1.5860001 181 186 183 255
0.73100013 -0.60379273 1.5790001 184 189 186 255
0.73125559 -0.60045129 1.5700001 184 189 186 255
0.73240167 -0.59787613 1.5630001 184 189 186 255
0.73398399 -0.59568483 1.557 183 188 185 255
0.73174292 -0.59043378 1.5430001 186 191 188 255
0.73276645 -0.58786219 1.536 186 191 188 255
0.73279506 -0.5845263 1.5270001 188 193 190 255
0.73567355 -0.58348876 1.524 188 193 190 255
0.7346552 -0.57938957 1.5130001 188 193 190 255
0.73357898 -0.5752911 1.5020001 189 194 191 255
0.75022399 -0.75878239 1.9770001 158 166 159 255
0.74153739 -0.74464065 1.9400001 159 165 158 255
0.73880917 -0.73664033 1.9190001 159 167 160 255
0.74100828 -0.73363101 1.9110001 166 172 165 255
0.74004179 -0.72755152 1.8950001 163 169 162 255
0.73938292 -0.72185677 1.8800001 165 170 166 255
0.73468333 -0.71232295 1.8550001 166 172 165 255
0.73503286 -0.70778143 1.8430001 170 176 169 255
0.73531878 -0.70324105 1.8310001 169 175 168 255
0.73796737 -0.70100623 1.825 168 174 167 255
0.73855001 -0.69685215 1.8140001 169 175 168 255
0.74112415 -0.69462001 1.8080001 170 176 169 255
0.74036664 -0.68931538 1.794 169 174 170 255
0.73995006 -0.68439597 1.7810001 170 175 171 255
0.7390461 -0.679093 1.7670001 177 180 177 255
0.73933065 -0.67494392 1.756 171 176 172 255
0.73998111 -0.67118019 1.7460001 175 180 176 255
0.73759311 -0.66472644 1.7290001 175 181 174 255
0.73683131 -0.65981102 1.7160001 173 181 174 255
0.73600036 -0.65489644 1.7030001 174 182 175 255
0.73466551 -0.649598 1.6890001 176 183 179 255
0.73544484 -0.64622355 1.6800001 176 183 179 255
0.73529631 -0.64208078 1.669 177 184 180 255
0.73509014 -0.63793904 1.6580001 178 183 179 255
0.73527205 -0.63418293 1.6480001 181 186 182 255
0.73405504 -0.62927324 1.6350001 180 185 181 255
0.73593122 -0.6270588 1.6290001 180 185 181 255
0.73232275 -0.62022585 1.6110001 181 186 182 255
0.73227626 -0.61647344 1.6010001 183 188 184 255
0.73079705 -0.61156666 1.5880001 180 185 181 255
0.73248976 -0.6093567 1.582 183 188 185 255
0.73368698 -0.60676295 1.575 183 188 185 255
0.73391175 -0.60339999 1.5660001 182 187 183 255
0.73456156 -0.60042357 1.5580001 184 189 185 255
0.73232454 -0.59513557 1.544 185 190 186 255
0.73239851 -0.5917756 1.5350001 185 190 187 255
0.73242593 -0.58841658 1.526 189 194 190 255
0.73578662 -0.58775836 1.524 188 193 190 255
0.73525542 -0.58401626 1.5140001 187 192 188 255
0.73418373 -0.57988936 1.503 189 194 191 255
0.74838662 -0.76230699 1.9720001 158 166 159 255
0.74159819 -0.74999774 1.9400001 160 166 159 255
0.74002606 -0.743101 1.9220001 163 169 162 255
0.73719388 -0.73504496 1.9010001 160 166 159 255
0.73932552 -0.73201638 1.8930001 163 169 162 255
0.73708904 -0.7247349 1.8740001 165 171 164 255
0.73554242 -0.71822757 1.8570001 165 171 164 255
0.73470241 -0.71249449 1.8420001 166 172 165 255
0.73739678 -0.71024364 1.8360001 170 176 169 255
0.7408697 -0.70876813 1.8320001 167 173 166 255
0.74228764 -0.70535952 1.8230001 169 175 168 255
0.74242878 -0.7007913 1.8110001 170 176 169 255
0.74126828 -0.69506294 1.7960001 171 176 172 255
0.73919648 -0.6885612 1.779 170 175 171 255
0.73996156 -0.68476963 1.7690001 172 177 173 255
0.7381478 -0.67865634 1.7530001 173 178 174 255
0.73836774 -0.67447948 1.7420001 174 180 173 255
0.73554295 -0.667593 1.7240001 174 180 173 255
0.73562753 -0.66341776 1.7130001 174 180 173 255
0.73738313 -0.66079295 1.7060001 173 181 174 255
0.73605794 -0.65545768 1.692 175 183 176 255
0.73684734 -0.65206033 1.6830001 175 182 178 255
0.73714936 -0.64827663 1.6730001 176 181 177 255
0.73961633 -0.64643174 1.6680001 179 184 180 255
0.73938167 -0.64226282 1.6570001 180 185 181 255
0.73729318 -0.63654411 1.6420001 178 183 179 255
0.73783553 -0.63315231 1.6330001 180 185 181 255
0.7342394 -0.62627149 1.6150001 181 186 182 255
0.73374826 -0.6221056 1.6040001 180 185 181 255
0.73227894 -0.61716479 1.5910001 183 188 184 255
0.73398197 -0.61494035 1.585 181 186 182 255
0.73565549 -0.61271751 1.5790001 183 188 184 255
0.7354244 -0.6089437 1.5690001 182 187 183 255
0.7360844 -0.6059472 1.5610001 183 188 184 255
0.73385721 -0.60062236 1.5470001 186 191 187 255
0.7368046 -0.59956944 1.544 185 190 186 255
0.73397917 -0.59385788 1.529 186 191 187 255
0.73686761 -0.59280795 1.526 188 193 189 255
0.73585814 -0.58865172 1.5150001 188 193 189 255
0.73625648 -0.58566213 1.5070001 190 193 189 255
0.74978721 -0.77469897 1.9900001 155 163 156 255
0.74541217 -0.76463878 1.9640001 157 165 158 255
0.74127853 -0.75496823 1.9390001 159 165 158 255
0.73816466 -0.74646598 1.9170001 162 168 161 255
0.73958576 -0.74263722 1.9070001 160 166 159 255
0.7409544 -0.73880965 1.8970001 160 166 159 255
0.73991024 -0.73264617 1.881 164 170 163 255
0.73561138 -0.72336715 1.8570001 162 168 161 255
0.73477268 -0.71759439 1.8420001 165 171 164 255
0.7354604 -0.71338081 1.8310001 168 174 167 255
0.73892117 -0.71189576 1.8270001 166 172 165 255
0.7411412 -0.7092433 1.8200001 168 174 167 255
0.74373543 -0.70698202 1.8140001 168 174 167 255
0.74299741 -0.70160395 1.8000001 168 173 169 255
0.74093813 -0.69505721 1.7830001 170 175 171 255
0.74087912 -0.69046021 1.771 172 177 173 255
0.73991448 -0.6850844 1.7570001 173 179 172 255
0.7405709 -0.68126911 1.7470001 173 179 172 255
0.73776138 -0.67433482 1.7290001 175 181 174 255
0.73614347 -0.668571 1.7140001 174 180 173 255
0.73660672 -0.66475844 1.7040001 174 180 173 255
0.73527735 -0.6593861 1.6900001 175 181 174 255
0.73781425 -0.65752655 1.6850001 176 181 177 255
0.73768276 -0.65332681 1.674 177 182 178 255
0.74059784 -0.65186042 1.6700001 177 182 178 255
0.73947793 -0.6468823 1.6570001 177 182 179 255
0.73783988 -0.64151436 1.6430001 179 184 181 255
0.73793477 -0.63770902 1.6330001 180 185 181 255
0.73524916 -0.63156122 1.6170001 181 186 182 255
0.73476529 -0.6273669 1.6060001 180 185 181 255
0.73330289 -0.622392 1.5930001 181 186 182 255
0.7336241 -0.61898082 1.5840001 183 188 184 255
0.73389876 -0.61557072 1.575 184 189 185 255
0.73506451 -0.61294353 1.5680001 185 190 186 255
0.73619509 -0.61031777 1.5610001 184 189 185 255
0.73634154 -0.60691118 1.552 185 190 186 255
0.73691881 -0.60389692 1.544 185 190 186 255
0.73601508 -0.59971023 1.5330001 186 191 187 255
0.73650241 -0.59669811 1.5250001 184 189 185 255
0.73646319 -0.59329593 1.516 188 191 187 255
0.73540038 -0.58911192 1.5050001 191 194 190 255
0.74758875 -0.77784359 1.9840001 155 161 154 255
0.74509603 -0.76967371 1.9630001 158 164 157 255
0.74057817 -0.75954372 1.937 160 166 159 255
0.73977059 -0.75333554 1.9210001 157 163 156 255
0.74120426 -0.74948108 1.9110001 161 166 162 255
0.74453855 -0.74758899 1.9060001 160 166 159 255
0.74116027 -0.73902982 1.8840001 159 164 160 255
0.73845541 -0.73125559 1.8640001 162 168 161 255
0.73644054 -0.72426641 1.8460001 164 170 163 255
0.73754257 -0.72041672 1.8360001 165 171 164 255
0.74101901 -0.71892279 1.8320001 167 173 166 255
0.74203289 -0.71507573 1.8220001 167 173 166 255
0.74340421 -0.71162224 1.8130001 169 175 168 255
0.74307758 -0.70659977 1.8000001 169 175 168 255
0.74101961 -0.7000078 1.7830001 170 175 171 255
0.74263561 -0.69695002 1.7750001 169 175 168 255
0.74252594 -0.69232297 1.7630001 171 177 170 255
0.74362457 -0.6888749 1.7540001 173 179 172 255
0.73998225 -0.6811074 1.7340001 171 177 170 255
0.73795009 -0.67491126 1.7180001 173 179 172 255
0.73799378 -0.67068017 1.7070001 175 181 174 255
0.73667419 -0.66527116 1.6930001 175 181 174 255
0.73834556 -0.66261381 1.6860001 176 182 175 255
0.73821843 -0.65838563 1.6750001 175 180 176 255
0.73980778 -0.6557309 1.6680001 177 182 178 255
0.73868358 -0.65071839 1.6550001 178 183 179 255
0.73973614 -0.64767283 1.6470001 178 183 179 255
0.73939192 -0.64344859 1.636 180 185 181 255
0.73717082 -0.63765192 1.6210001 182 187 183 255
0.7344119 -0.63146204 1.605 179 184 180 255
0.7329483 -0.62645298 1.5920001 182 187 183 255
0.73280501 -0.62262511 1.582 181 186 182 255
0.73260969 -0.6187982 1.572 183 188 184 255
0.73236221 -0.61497229 1.562 183 188 184 255
0.73489279 -0.61351007 1.5580001 185 190 186 255
0.73503262 -0.61008036 1.549 184 189 185 255
0.73655796 -0.60783356 1.5430001 184 189 185 255
0.73517269 -0.6032241 1.531 186 191 187 255
0.73517317 -0.59979773 1.5220001 185 190 186 255
0.73415548 -0.59558386 1.511 188 191 187 255
0.74727595 -0.78293216 1.983 157 163 156 255
0.74478167 -0.77470613 1.9620001 159 165 158 255
0.74217397 -0.76648057 1.9410001 160 165 161 255
0.74060833 -0.75944012 1.9230001 159 165 158 255
0.74088532 -0.7543751 1.9100001 160 165 161 255
0.74304652 -0.75128597 1.9020001 162 167 163 255
0.73926497 -0.74227273 1.8790001 163 169 162 255
0.73535872 -0.73325962 1.8560001 163 169 162 255
0.73571682 -0.72859281 1.8440001 164 170 163 255
0.73721653 -0.72511244 1.835 167 173 166 255
0.74231011 -0.72519004 1.835 163 169 162 255
0.74455583 -0.72250313 1.8280001 165 171 164 255
0.74389511 -0.71705049 1.8140001 168 174 167 255
0.74398553 -0.71238929 1.802 169 175 168 255
0.74484384 -0.70851982 1.7920001 167 173 166 255
0.74355763 -0.70267439 1.7770001 170 175 171 255
0.74556106 -0.69999337 1.7700001 171 176 172 255
0.74498492 -0.69494063 1.7570001 171 176 172 255
0.74305928 -0.68870193 1.7410001 170 175 171 255
0.74061841 -0.68206817 1.7240001 174 180 173 255
0.73981553 -0.67701733 1.7110001 174 180 173 255
0.73633271 -0.66959298 1.692 174 180 173 255
0.73625112 -0.665335 1.6810001 174 180 173 255
0.7356708 -0.66068208 1.669 176 181 177 255
0.73724502 -0.65800953 1.6620001 177 182 178 255
0.73789114 -0.6545465 1.6530001 177 182 178 255
0.73849064 -0.6510846 1.6440001 178 183 179 255
0.73949564 -0.64801997 1.636 179 184 180 255
0.73773074 -0.64257962 1.6220001 180 185 181 255
0.73497587 -0.63634729 1.6060001 182 185 181 255
0.73259556 -0.63051152 1.5910001 183 186 182 255
0.73106134 -0.62546873 1.5780001 182 187 183 255
0.73272085 -0.62320155 1.572 185 188 184 255
0.73153716 -0.61855686 1.5600001 182 187 183 255
0.73453587 -0.61748201 1.557 181 186 182 255
0.7342 -0.61363256 1.5470001 184 189 185 255
0.7347669 -0.61057764 1.539 185 190 186 255
0.73385215 -0.60633337 1.5280001 185 190 186 255
0.73384577 -0.60288364 1.5190001 186 191 187 255
0.73330718 -0.59903806 1.5090001 186 191 187 255
0.75224125 -0.79358429 1.9960001 152 160 153 255
0.75092292 -0.78649539 1.978 149 156 152 255
0.74644864 -0.77622598 1.9520001 157 162 159 255
0.74144804 -0.76555872 1.9250001 158 163 159 255
0.73901665 -0.75767565 1.9050001 158 163 159 255
0.7392121 -0.75257736 1.8920001 161 167 160 255
0.73658419 -0.74469525 1.8720001 162 168 161 255
0.73701829 -0.73999637 1.8600001 161 167 160 255
0.73738897 -0.73529845 1.848 164 170 163 255
0.74091041 -0.73378491 1.8440001 164 170 163 255
0.74684006 -0.7346608 1.8460001 168 174 167 255
0.74667388 -0.72956878 1.8330001 168 174 167 255
0.74479812 -0.72288537 1.8160001 166 172 165 255
0.74324405 -0.71660054 1.8000001 169 175 168 255
0.74326706 -0.71190894 1.7880001 168 174 167 255
0.74364495 -0.70761639 1.7770001 170 175 171 255
0.74312252 -0.70252848 1.7640001 172 177 173 255
0.74125892 -0.69624639 1.748 170 175 171 255
0.73802894 -0.6887697 1.7290001 171 176 172 255
0.73727435 -0.68368363 1.7160001 173 179 172 255
0.7381804 -0.68019223 1.7070001 174 180 173 255
0.73642844 -0.6743108 1.692 174 180 173 255
0.73547238 -0.66922718 1.6790001 176 182 175 255
0.73621047 -0.6657387 1.6700001 177 183 176 255
0.73867673 -0.66384631 1.6650001 175 181 174 255
0.7379936 -0.65916413 1.6530001 178 184 177 255
0.73814559 -0.65528047 1.6430001 177 183 176 255
0.73779327 -0.65099889 1.6320001 180 186 179 255
0.73692828 -0.64631927 1.6200001 179 185 178 255
0.73508447 -0.64084232 1.6060001 182 186 179 255
0.73270553 -0.63496679 1.5910001 184 188 181 255
0.73117274 -0.62988973 1.5780001 185 189 182 255
0.73376656 -0.62840652 1.5740001 186 190 183 255
0.73118299 -0.62253261 1.559 183 188 184 255
0.73512483 -0.62225044 1.5580001 183 188 184 255
0.73384416 -0.61757636 1.5460001 183 188 184 255
0.73488748 -0.61490065 1.539 184 189 185 255
0.73205304 -0.60902941 1.524 185 190 186 255
0.73252028 -0.60595608 1.516 183 188 184 255
0.73148888 -0.60168475 1.5050001 185 190 186 255
0.75440961 -0.79557347 1.9870001 132 139 135 255
0.74690157 -0.78203088 1.9530001 154 159 155 255
0.74151963 -0.77089053 1.9250001 157 163 156 255
0.73753738 -0.76135194 1.9010001 157 163 156 255
0.73928618 -0.75782156 1.8920001 158 164 157 255
0.7394141 -0.75269008 1.8790001 163 169 162 255
0.73947275 -0.74755949 1.8660001 160 168 161 255
0.73786616 -0.74082714 1.8490001 164 170 163 255
0.73938298 -0.73730099 1.84 163 169 162 255
0.74287611 -0.73577994 1.8360001 164 172 165 255
0.74186885 -0.72985178 1.8210001 165 173 166 255
0.74365246 -0.72673017 1.8130001 169 175 168 255
0.74291736 -0.72120458 1.7990001 169 175 168 255
0.7433548 -0.71688253 1.7880001 169 175 168 255
0.74206024 -0.71095759 1.7730001 168 173 169 255
0.74194938 -0.7062363 1.761 169 174 170 255
0.73753411 -0.69750512 1.7390001 170 175 171 255
0.734707 -0.69037825 1.7210001 171 176 172 255
0.73522061 -0.68646127 1.7110001 172 178 171 255
0.73524934 -0.68214411 1.7 173 179 172 255
0.73522043 -0.67782795 1.6890001 176 182 175 255
0.73513353 -0.67351264 1.6780001 177 182 178 255
0.7376343 -0.67160696 1.6730001 174 179 175 255
0.73833603 -0.66809696 1.664 176 181 177 255
0.73809808 -0.66378492 1.6530001 176 181 177 255
0.73465711 -0.65666246 1.6350001 177 182 178 255
0.73609251 -0.65395862 1.628 177 182 178 255
0.73521781 -0.64924741 1.6160001 178 184 177 255
0.73473752 -0.64493865 1.605 181 185 178 255
0.73373884 -0.64022899 1.5930001 182 185 181 255
0.7340669 -0.6367259 1.5840001 181 185 178 255
0.73667985 -0.63523418 1.58 184 187 183 255
0.73505276 -0.63012511 1.567 184 187 183 255
0.73807585 -0.62903869 1.5640001 182 187 183 255
0.73681372 -0.62433374 1.552 183 188 184 255
0.73739839 -0.62123883 1.544 183 188 184 255
0.73265779 -0.61371839 1.5250001 184 189 186 255
0.73167998 -0.6094175 1.5140001 186 191 188 255
0.73161668 -0.60592264 1.5050001 186 191 188 255
0.7344408 -0.60484487 1.5020001 187 192 189 255
0.75334233 -0.79986674 1.9840001 154 162 155 255
0.7485041 -0.78905416 1.9570001 155 163 156 255
0.74390453 -0.77864474 1.9310001 156 164 157 255
0.73993993 -0.7690419 1.9070001 153 161 154 255
0.74170697 -0.76548874 1.8980001 157 165 158 255
0.74185294 -0.76032346 1.8850001 161 169 162 255
0.74351501 -0.7567727 1.876 162 170 163 255
0.7395429 -0.74757493 1.853 160 168 161 255
0.73946494 -0.74241215 1.84 161 169 162 255
0.73850864 -0.73644322 1.825 161 169 162 255
0.7407316 -0.73370337 1.8180001 164 172 165 255
0.74127805 -0.72935069 1.807 163 171 164 255
0.74217963 -0.72540265 1.7970001 165 173 166 255
0.73928672 -0.71782219 1.7780001 171 177 170 255
0.74047703 -0.71427965 1.7690001 169 175 168 255
0.74077809 -0.70993084 1.7580001 170 175 171 255
0.73974872 -0.70437127 1.7440001 169 174 170 255
0.73522907 -0.69558096 1.7220001 171 177 170 255
0.73660654 -0.69244623 1.7140001 173 179 172 255
0.73534763 -0.68688858 1.7 174 180 173 255
0.73444957 -0.68173563 1.687 175 181 174 255
0.73435879 -0.67739165 1.6760001 175 180 176 255
0.7368558 -0.67547411 1.6710001 175 180 176 255
0.73755366 -0.67194104 1.6620001 176 181 177 255
0.73597199 -0.66638726 1.6480001 178 183 179 255
0.73476517 -0.66123855 1.6350001 176 182 175 255
0.73529798 -0.65770835 1.626 179 185 178 255
0.73441923 -0.65296566 1.6140001 181 187 180 255
0.73347706 -0.64822364 1.6020001 179 185 178 255
0.73339278 -0.6442917 1.5920001 180 185 181 255
0.73603731 -0.64278954 1.5880001 181 187 180 255
0.73679835 -0.63966978 1.58 183 188 184 255
0.73517281 -0.63452667 1.567 184 187 183 255
0.73489422 -0.63059902 1.557 181 186 182 255
0.73503834 -0.62707746 1.5480001 183 188 184 255
0.73370284 -0.62234145 1.536 183 188 184 255
0.73230398 -0.61760598 1.524 183 188 184 255
0.73132509 -0.61327654 1.5130001 184 189 185 255
0.73174691 -0.61016399 1.5050001 185 190 187 255
0.73408431 -0.60867471 1.501 187 192 189 255
0.75245214 -0.81016105 1.9960001 154 162 155 255
0.75151742 -0.80333453 1.9790001 152 160 153 255
0.74704874 -0.79285496 1.9530001 154 162 154 255
0.74359488 -0.78359336 1.9300001 157 165 157 255
0.73962855 -0.7739259 1.9060001 156 164 156 255
0.73904955 -0.76791334 1.891 157 165 157 255
0.73917753 -0.76271367 1.8780001 160 168 161 255
0.74042547 -0.75873339 1.868 160 168 161 255
0.74042368 -0.75353575 1.8550001 160 168 161 255
0.73954886 -0.74752641 1.84 160 168 161 255
0.73859394 -0.74151784 1.825 162 170 163 255
0.73674375 -0.73469716 1.8080001 164 172 165 255
0.74095643 -0.73397309 1.8060001 163 171 164 255
0.74309611 -0.73121864 1.7990001 165 173 166 255
0.74145746 -0.72480702 1.7830001 165 173 166 255
0.73931438 -0.71798939 1.766 169 175 168 255
0.74213719 -0.71605146 1.761 166 173 169 255
0.74366301 -0.71289533 1.7530001 171 177 170 255
0.74130452 -0.70607996 1.7360001 169 177 170 255
0.73971426 -0.70007837 1.7210001 170 178 171 255
0.73847646 -0.69448423 1.7070001 173 179 172 255
0.73672855 -0.68848372 1.692 173 179 172 255
0.73621517 -0.68370467 1.6800001 173 178 174 255
0.73828441 -0.68136853 1.674 160 165 161 255
0.73721713 -0.67618436 1.6610001 176 181 177 255
0.736974 -0.67181516 1.6500001 175 180 176 255
0.7353248 -0.66622514 1.636 176 182 175 255
0.73586231 -0.66267216 1.6270001 178 184 177 255
0.73407763 -0.65708333 1.613 178 184 177 255
0.73267627 -0.65190256 1.6 179 185 178 255
0.73304892 -0.64835232 1.5910001 180 185 181 255
0.73708344 -0.64806384 1.59 180 186 179 255
0.74018413 -0.64696252 1.5870001 181 186 182 255
0.7395184 -0.64260125 1.5760001 181 186 182 255
0.73690665 -0.63660955 1.5610001 182 187 183 255
0.7337395 -0.63021004 1.5450001 184 189 185 255
0.73335266 -0.62625843 1.5350001 181 186 182 255
0.73387498 -0.62312382 1.5270001 183 188 184 255
0.73435652 -0.61999047 1.5190001 184 189 185 255
0.73382485 -0.61604196 1.5090001 184 189 185 255
0.73470855 -0.61331928 1.5020001 185 190 186 255
0.75101835 -0.81405842 1.9920001 153 159 152 255
0.74513668 -0.80187345 1.9620001 158 164 157 255
0.74368238 -0.79459316 1.9440001 158 164 156 255
0.74020475 -0.7852695 1.9210001 157 165 158 255
0.73737878 -0.77676356 1.9000001 156 164 157 255
0.7391296 -0.77316421 1.891 155 163 156 255
0.73768449 -0.7662949 1.8740001 160 166 159 255
0.73971581 -0.7631067 1.8660001 164 170 163 255
0.74050832 -0.75869286 1.8550001 158 166 159 255
0.74204677 -0.75509822 1.8460001 157 165 158 255
0.73787183 -0.74577749 1.8230001 161 169 162 255
0.73846263 -0.74136639 1.812 163 171 164 255
0.73899555 -0.73695636 1.8010001 164 172 165 255
0.74442798 -0.73745823 1.802 165 173 166 255
0.74404675 -0.73223227 1.789 165 173 166 255
0.74066567 -0.72414172 1.7690001 165 173 166 255
0.74181288 -0.72055465 1.7600001 166 174 167 255
0.74418622 -0.71819723 1.7540001 169 175 168 255
0.74695671 -0.71625084 1.7490001 170 178 171 255
0.74282503 -0.70775294 1.728 171 179 172 255
0.73857957 -0.69925487 1.7070001 173 179 172 255
0.73509115 -0.69157588 1.6880001 173 179 172 255
0.73500633 -0.68717498 1.677 173 179 172 255
0.73795128 -0.68564379 1.6730001 164 169 165 255
0.73732668 -0.68083543 1.6610001 174 179 175 255
0.73708522 -0.67643762 1.6500001 175 180 176 255
0.73633653 -0.6716308 1.6380001 178 184 177 255
0.73597664 -0.66723472 1.6270001 178 184 177 255
0.7346487 -0.66201931 1.6140001 179 184 180 255
0.73416758 -0.65762484 1.603 180 185 181 255
0.73316801 -0.652821 1.5910001 180 185 181 255
0.73581409 -0.65130097 1.5870001 179 184 180 255
0.73797548 -0.64937234 1.582 181 186 182 255
0.73964393 -0.647035 1.5760001 182 187 183 255
0.73703349 -0.64100349 1.5610001 182 187 183 255
0.73481762 -0.63538283 1.5470001 182 187 183 255
0.73539388 -0.63222724 1.539 181 187 180 255
0.73689091 -0.62989473 1.5330001 184 189 185 255
0.73739147 -0.62674183 1.5250001 184 190 183 255
0.735906 -0.62194604 1.5130001 183 188 184 255
0.73484612 -0.61756176 1.5020001 185 190 186 255
0.74468464 -0.81258821 1.9750001 151 157 150 255
0.74369442 -0.80567068 1.9580001 158 164 157 255
0.7422303 -0.79834223 1.9400001 157 163 156 255
0.74144024 -0.79183751 1.9240001 157 163 156 255
0.74056429 -0.78533345 1.9080001 157 165 158 255
0.73960268 -0.77883011 1.8920001 155 163 156 255
0.73934269 -0.77315074 1.8780001 159 165 158 255
0.73940456 -0.76788396 1.8650001 162 168 161 255
0.74259132 -0.76591229 1.8600001 158 166 159 255
0.74253726 -0.76064771 1.8470001 161 169 162 255
0.74039012 -0.75332451 1.8290001 161 169 162 255
0.73814625 -0.74600178 1.8110001 160 168 161 255
0.73949862 -0.74238706 1.802 165 173 166 255
0.74204391 -0.74000978 1.7960001 165 173 165 255
0.74539107 -0.73845828 1.7920001 164 172 164 255
0.74118197 -0.72948998 1.7700001 166 174 167 255
0.74275523 -0.72629225 1.7620001 170 176 169 255
0.74259019 -0.72144693 1.7500001 169 175 168 255
0.74876851 -0.72278714 1.7530001 170 176 169 255
0.74464911 -0.71423304 1.7320001 171 177 170 255
0.73781937 -0.7032041 1.705 166 172 165 255
0.73476207 -0.69588667 1.687 174 180 173 255
0.73862129 -0.69517028 1.6850001 174 180 173 255
0.74070847 -0.69280547 1.6790001 171 176 172 255
0.74010223 -0.68796605 1.6670001 174 179 175 255
0.73898578 -0.68271476 1.654 176 181 177 255
0.73600197 -0.67581272 1.6370001 178 183 179 255
0.73428369 -0.67014939 1.623 178 183 179 255
0.73340112 -0.66531247 1.6110001 179 184 180 255
0.73474562 -0.66254157 1.6040001 180 185 181 255
0.73282862 -0.65688014 1.59 179 184 180 255
0.73454666 -0.65452486 1.5840001 179 184 180 255
0.73763484 -0.65341091 1.5810001 181 186 182 255
0.7421189 -0.65353924 1.5810001 180 185 181 255
0.7404685 -0.64829528 1.5680001 181 186 182 255
0.73874903 -0.64305174 1.5550001 183 188 184 255
0.73935008 -0.6398769 1.5470001 182 187 183 255
0.73846805 -0.63546205 1.536 184 189 185 255
0.73801196 -0.6314618 1.526 184 189 185 255
0.73555797 -0.62580693 1.5120001 184 190 183 255
0.73449695 -0.6213941 1.501 186 192 185 255
0.74551648 -0.81889695 1.9770001 155 161 154 255
0.74453306 -0.81193435 1.96 157 163 156 255
0.74498892 -0.80662966 1.9470001 157 163 156 255
0.74691749 -0.80298328 1.9380001 157 163 156 255
0.74375272 -0.79395127 1.9160001 157 163 156 255
0.7439875 -0.78864914 1.9030001 158 164 157 255
0.74100339 -0.78003216 1.8820001 161 167 160 255
0.7434569 -0.7772187 1.8750001 161 167 160 255
0.7442776 -0.77274835 1.8640001 162 168 161 255
0.74463832 -0.76786453 1.8520001 159 165 158 255
0.74210149 -0.76007897 1.8330001 164 170 163 255
0.74190807 -0.75478196 1.8200001 161 169 162 255
0.74123526 -0.74907106 1.8060001 162 170 163 255
0.74090105 -0.74377573 1.7930001 164 172 164 255
0.74132985 -0.73931098 1.7820001 164 172 164 255
0.7404443 -0.73360246 1.7680001 167 175 167 255
0.73864096 -0.72706461 1.7520001 168 174 166 255
0.73802501 -0.72177231 1.7390001 168 174 167 255
0.74417508 -0.7231226 1.7420001 170 176 169 255
0.74303597 -0.7174176 1.728 171 177 170 255
0.73879248 -0.70880663 1.7070001 166 172 165 255
0.73661321 -0.70227182 1.6910001 171 177 170 255
0.74004745 -0.70113701 1.6880001 170 176 169 255
0.74170387 -0.6983425 1.6810001 173 179 172 255
0.74021685 -0.69264102 1.6670001 174 179 175 255
0.73954874 -0.68777114 1.6550001 176 181 177 255
0.73971671 -0.6837334 1.6450001 175 180 176 255
0.73666495 -0.67678654 1.628 178 183 179 255
0.73488754 -0.67108709 1.6140001 174 181 177 255
