ply
format ascii 1.0
comment PCL generated
element vertex 980
property float x
property float y
property float z
property uchar red
property uchar green
property uchar blue
property uchar alpha
element camera 0
property float view_px
property float view_py
property float view_pz
property float x_axisx
property float x_axisy
property float x_axisz
property float y_axisx
property float y_axisy
property float y_axisz
property float z_axisx
property float z_axisy
property float z_axisz
property float focal
property float scalex
property float scaley
property float centerx
property float centery
property int viewportx
property int viewporty
property float k1
property float k2
end_header
0.43514615 -0.092449285 1.6400001 71 78 67 255
0.44120222 -0.092779741 1.646 71 78 67 255
0.44729033 -0.093110152 1.6520001 74 81 70 255
0.4523164 -0.0932151 1.654 79 85 77 255
0.45707649 -0.093263716 1.6550001 65 71 63 255
0.46072587 -0.09308695 1.6520001 67 75 67 255
0.46407688 -0.092853911 1.6480001 67 75 68 255
0.4679741 -0.092733607 1.646 64 72 65 255
0.4724341 -0.092726037 1.646 66 72 65 255
0.4760243 -0.092549525 1.6430001 69 75 68 255
0.47930533 -0.092316739 1.6390001 68 74 67 255
0.48256427 -0.09208405 1.6350001 68 74 67 255
0.48699236 -0.092076704 1.6350001 68 76 68 255
0.49111953 -0.092013091 1.6340001 66 74 66 255
0.4949376 -0.091893248 1.6320001 67 75 67 255
0.49843848 -0.091717169 1.6290001 68 76 68 255
0.50192279 -0.091541179 1.626 71 79 72 255
0.50632459 -0.09153416 1.626 69 77 70 255
0.51104027 -0.091583498 1.6270001 63 71 63 255
0.51481062 -0.091464028 1.6250001 66 74 66 255
0.51665276 -0.091006972 1.6170001 64 72 64 255
0.51684034 -0.090268672 1.6040001 86 94 86 255
0.5182569 -0.089755632 1.595 76 82 74 255
0.52093524 -0.089467824 1.59 63 69 62 255
0.52457744 -0.089348949 1.5880001 60 66 58 255
0.52820861 -0.089230165 1.5860001 62 68 60 255
0.53216469 -0.089167744 1.585 68 74 66 255
0.5364536 -0.089161672 1.585 83 89 81 255
0.54108381 -0.089211941 1.5860001 80 87 76 255
0.5477826 -0.089599773 1.5930001 71 78 67 255
0.55625218 -0.090268873 1.605 71 76 64 255
0.56478679 -0.090937987 1.6170001 43 48 36 255
0.57021868 -0.091101006 1.6200001 60 65 51 255
0.57318389 -0.090870485 1.6160001 63 70 58 255
0.57648516 -0.090696335 1.613 70 79 67 255
0.57941025 -0.090466112 1.6090001 73 82 70 255
0.5834024 -0.090404682 1.608 71 80 69 255
0.58556193 -0.090062305 1.6020001 69 78 67 255
0.58805746 -0.0897763 1.5970001 71 78 67 255
0.58978438 -0.089378022 1.59 75 82 71 255
0.59408927 -0.089373387 1.59 81 88 77 255
0.59688932 -0.089144059 1.5860001 63 70 59 255
0.60080534 -0.089083508 1.585 69 76 65 255
0.60357112 -0.088854484 1.5810001 69 76 65 255
0.60708481 -0.088738039 1.5790001 73 78 67 255
0.6109755 -0.088677943 1.5780001 78 83 72 255
0.61564112 -0.088730387 1.5790001 7 9 0 255
0.61952764 -0.088670582 1.5780001 22 25 13 255
0.62103766 -0.088273823 1.5710001 24 27 15 255
0.62330657 -0.087989613 1.5660001 23 26 12 255
0.6255492 -0.08770559 1.5610001 26 29 15 255
0.6277656 -0.087421745 1.5560001 28 31 17 255
0.63239264 -0.087475166 1.557 30 33 19 255
0.63579959 -0.087360233 1.5550001 25 28 14 255
0.63960826 -0.087301649 1.554 25 26 12 255
0.64175534 -0.087018535 1.549 24 25 11 255
0.64512753 -0.086904146 1.5470001 22 24 7 255
0.64681095 -0.086565249 1.5410001 27 29 12 255
0.65015292 -0.086451232 1.539 25 27 10 255
0.65135938 -0.08605656 1.5320001 21 24 10 255
0.65509635 -0.085999109 1.531 22 23 9 255
0.65710688 -0.085717171 1.526 21 22 8 255
0.66169167 -0.085772477 1.5270001 21 22 10 255
0.66497523 -0.085659459 1.5250001 19 22 10 255
0.66912681 -0.085658982 1.5250001 17 20 8 255
0.67328012 -0.085658722 1.5250001 19 22 10 255
0.67743492 -0.085658662 1.5250001 20 23 11 255
0.6802507 -0.085490309 1.5220001 20 23 9 255
0.68260229 -0.085266016 1.5180001 20 23 9 255
0.68493366 -0.085041925 1.5140001 22 26 9 255
0.69225168 -0.085435942 1.521 23 27 10 255
0.69640476 -0.085436992 1.521 23 27 9 255
0.70055979 -0.085438274 1.521 25 29 11 255
0.70518035 -0.085495971 1.5220001 19 28 9 255
0.70980847 -0.085553907 1.5230001 12 22 5 255
0.71397549 -0.085555926 1.5230001 94 105 92 255
0.71720165 -0.085445814 1.521 141 151 142 255
0.72041911 -0.085335955 1.5190001 161 172 165 255
0.72219712 -0.085057795 1.5140001 164 173 168 255
0.72299069 -0.084667526 1.5070001 169 178 171 255
0.72374833 -0.084277481 1.5000001 167 176 169 255
-0.9407748 -0.09824571 1.6630001 24 27 13 255
-0.9569121 -0.10041611 1.7 29 31 14 255
-0.9588452 -0.10110985 1.7120001 24 26 9 255
-0.95124286 -0.10079996 1.7070001 22 23 9 255
-0.96751571 -0.10302946 1.7450001 22 23 9 255
-0.95489532 -0.102189 1.7310001 27 29 12 255
-0.93851709 -0.10093602 1.71 26 28 11 255
-0.90205824 -0.097500071 1.6520001 25 26 12 255
-0.92405617 -0.10037971 1.7010001 25 22 8 255
-0.96361995 -0.10520625 1.7830001 25 22 8 255
-0.95004052 -0.10425026 1.7670001 26 20 4 255
-0.94564807 -0.10429777 1.7680001 39 25 6 255
-0.94391531 -0.10464063 1.774 68 53 33 255
-0.94109565 -0.10486589 1.7780001 62 41 19 255
-0.93720496 -0.10497353 1.7800001 62 40 14 255
-0.93330801 -0.10508159 1.7820001 57 35 9 255
-0.93044639 -0.10530797 1.7860001 63 43 17 255
-0.92601222 -0.1053578 1.7870001 66 48 24 255
-0.92157704 -0.10540804 1.7880001 51 28 5 255
-0.91560245 -0.10528181 1.7860001 113 89 63 255
-0.91066277 -0.10527387 1.7860001 102 68 41 255
-0.90471286 -0.10514843 1.784 125 96 67 255
-0.90180421 -0.105377 1.7880001 95 69 40 255
-0.89787388 -0.10548803 1.7900001 58 35 5 255
-0.89393628 -0.10559942 1.7920001 68 45 15 255
-0.88899916 -0.1055933 1.7920001 69 48 18 255
-0.88406563 -0.10558755 1.7920001 72 51 21 255
-0.8796261 -0.10564105 1.7930001 72 51 21 255
-0.87420863 -0.10557706 1.7920001 73 52 20 255
-0.86928505 -0.10557234 1.7920001 72 51 19 255
-0.86436468 -0.10556794 1.7920001 73 52 22 255
-0.86088622 -0.1057406 1.7950001 75 54 24 255
-0.85501003 -0.10561904 1.7930001 72 53 23 255
-0.84962165 -0.1055567 1.7920001 77 58 29 255
-0.84377038 -0.1054358 1.7900001 77 58 29 255
-0.83793283 -0.1053152 1.7880001 76 60 36 255
-0.83071113 -0.10501822 1.7830001 56 43 19 255
-0.82212979 -0.10454485 1.7750001 218 211 191 255
-0.80899042 -0.10348281 1.7570001 197 193 176 255
-0.7680316 -0.098828405 1.6780001 187 195 178 255
-0.74161088 -0.096000172 1.6300001 204 212 197 255
-0.72856933 -0.094880223 1.6110001 199 209 194 255
-0.71967924 -0.094290592 1.6010001 191 201 186 255
-0.71352637 -0.09405458 1.5970001 182 192 177 255
-0.70739716 -0.093818814 1.5930001 176 187 168 255
-0.70217419 -0.093701072 1.5910001 172 183 164 255
-0.6956479 -0.093406856 1.5860001 164 175 156 255
-0.69089413 -0.093348458 1.585 157 166 145 255
-0.68658066 -0.093349189 1.585 160 169 148 255
-0.68226862 -0.09335012 1.585 160 169 148 255
-0.67710251 -0.093233481 1.5830001 153 164 143 255
-0.67237383 -0.093175948 1.582 152 161 140 255
-0.66765189 -0.093118615 1.5810001 142 152 129 255
-0.66293675 -0.093061484 1.58 146 156 133 255
-0.65864503 -0.093063451 1.58 144 154 129 255
-0.65435457 -0.093065612 1.58 142 152 127 255
-0.6500653 -0.093067966 1.58 138 148 123 255
-0.64536834 -0.093011603 1.5790001 139 147 122 255
-0.64067793 -0.092955433 1.5780001 140 148 123 255
-0.63680041 -0.093017243 1.5790001 139 147 121 255
-0.63251787 -0.093020335 1.5790001 144 152 127 255
-0.62823617 -0.093023583 1.5790001 147 154 132 255
-0.62395537 -0.093027018 1.5790001 148 156 131 255
-0.62006772 -0.093089521 1.58 148 156 131 255
-0.61578578 -0.093093283 1.58 156 164 139 255
-0.61150444 -0.093097195 1.58 154 162 136 255
-0.6068396 -0.093042366 1.5790001 162 171 142 255
-0.60256219 -0.093046583 1.5790001 165 174 145 255
-0.59828544 -0.093050957 1.5790001 165 174 145 255
-0.59363306 -0.092996553 1.5780001 168 179 150 255
-0.58898652 -0.092942275 1.577 167 177 151 255
-0.5839752 -0.092829205 1.575 163 173 147 255
-0.57897496 -0.092716239 1.5730001 176 188 163 255
-0.57435125 -0.092662349 1.572 170 182 159 255
-0.56973344 -0.092608586 1.5710001 175 187 164 255
-0.56512123 -0.092554942 1.5700001 166 178 153 255
-0.5608719 -0.092560358 1.5700001 160 170 145 255
-0.55591387 -0.092447989 1.5680001 154 164 139 255
-0.55061489 -0.092276752 1.5650001 156 166 141 255
-0.54568148 -0.092164569 1.5630001 152 162 137 255
-0.54110533 -0.092111453 1.562 147 157 132 255
-0.53687841 -0.092117406 1.562 140 150 125 255
-0.53196961 -0.092005514 1.5600001 141 151 125 255
-0.52740979 -0.091952674 1.559 139 150 121 255
-0.52285546 -0.091899939 1.5580001 140 151 120 255
-0.51897222 -0.091965251 1.559 138 147 116 255
-0.51409298 -0.091853693 1.557 137 147 114 255
-0.50987941 -0.091860197 1.557 135 145 112 255
-0.50534093 -0.09180779 1.5560001 140 150 117 255
-0.50112969 -0.091814451 1.5560001 153 163 130 255
-0.49627963 -0.091703169 1.554 165 176 145 255
-0.4917568 -0.09165097 1.5530001 169 180 149 255
-0.48723912 -0.091598816 1.552 162 173 144 255
-0.48272654 -0.091546744 1.5510001 137 146 117 255
-0.47821912 -0.091494709 1.5500001 135 144 115 255
-0.4737168 -0.091442734 1.549 137 146 117 255
-0.46921954 -0.091390818 1.5480001 139 149 123 255
-0.46502775 -0.091397978 1.5480001 147 157 131 255
-0.46053779 -0.091346145 1.5470001 162 172 146 255
-0.45634788 -0.091353424 1.5470001 169 182 153 255
-0.45128071 -0.091183566 1.544 119 132 103 255
-0.44680849 -0.091131844 1.5430001 126 140 108 255
-0.44234115 -0.091080159 1.5420001 121 135 103 255
-0.43816295 -0.091087587 1.5420001 162 175 146 255
-0.43370283 -0.09103597 1.5410001 177 190 161 255
-0.42869008 -0.090866208 1.5380001 166 179 150 255
-0.42424503 -0.09081462 1.5370001 145 158 129 255
-0.42007819 -0.090822138 1.5370001 127 140 113 255
-0.41564026 -0.090770602 1.536 140 153 126 255
-0.41120708 -0.090719067 1.5350001 161 174 147 255
-0.40624842 -0.090549342 1.5320001 151 164 137 255
-0.40156779 -0.090438701 1.5300001 138 151 124 255
-0.39715713 -0.090387173 1.529 136 149 120 255
-0.39326537 -0.090453893 1.5300001 132 145 116 255
-0.38936752 -0.090520628 1.531 136 149 120 255
-0.38546354 -0.090587385 1.5320001 119 132 103 255
-0.38105568 -0.090535879 1.531 153 164 133 255
-0.37665251 -0.090484373 1.5300001 110 119 88 255
-0.37249762 -0.090492003 1.5300001 144 153 122 255
-0.36810118 -0.090440474 1.529 129 138 107 255
-0.36347142 -0.090329774 1.5270001 140 149 118 255
-0.35908714 -0.090278201 1.526 153 162 131 255
-0.35494012 -0.090285778 1.526 122 131 100 255
-0.35102224 -0.090352513 1.5270001 125 136 107 255
-0.34641665 -0.090241715 1.5250001 134 147 118 255
-0.34159678 -0.090071701 1.5220001 165 178 149 255
-0.3374576 -0.090079196 1.5220001 139 152 123 255
-0.33309862 -0.090027466 1.521 142 155 126 255
-0.32874432 -0.089975715 1.5200001 119 132 103 255
-0.32460824 -0.089983121 1.5200001 135 146 117 255
-0.32026047 -0.089931279 1.5190001 148 158 132 255
-0.31633365 -0.089997835 1.5200001 141 151 125 255
-0.31157899 -0.0898275 1.5170001 142 152 127 255
-0.30744791 -0.089834765 1.5170001 147 157 132 255
-0.30311602 -0.089782752 1.516 128 140 115 255
-0.29918325 -0.089849159 1.5170001 133 145 120 255
-0.2950497 -0.089856289 1.5170001 144 155 126 255
-0.29072359 -0.089804135 1.516 135 146 117 255
-0.28640217 -0.089751936 1.5150001 140 149 118 255
-0.28227165 -0.089758918 1.5150001 136 143 111 255
-0.27850753 -0.089884348 1.5170001 126 134 99 255
-0.27455086 -0.089950494 1.5180001 126 134 98 255
-0.27040976 -0.089957327 1.5180001 125 133 98 255
-0.26626787 -0.089964107 1.5180001 122 129 97 255
-0.26212513 -0.08997082 1.5180001 127 134 102 255
-0.25798166 -0.089977473 1.5180001 122 129 97 255
-0.25383735 -0.089984059 1.5180001 123 130 98 255
-0.24969226 -0.089990586 1.5180001 131 138 106 255
-0.2453846 -0.089937754 1.5170001 128 138 105 255
-0.24092264 -0.089825548 1.5150001 130 139 108 255
-0.2367834 -0.089831859 1.5150001 136 145 114 255
-0.23310405 -0.090015985 1.5180001 136 145 114 255
-0.22940752 -0.090200052 1.521 119 129 96 255
-0.22495338 -0.09008754 1.5190001 124 134 101 255
-0.22065482 -0.090034254 1.5180001 122 132 99 255
-0.21621826 -0.089921534 1.516 129 139 106 255
-0.21235152 -0.090046018 1.5180001 130 140 105 255
-0.20806164 -0.089992456 1.5170001 136 146 111 255
-0.20391092 -0.089998133 1.5170001 134 142 107 255
-0.19975947 -0.090003714 1.5170001 128 136 101 255
-0.1956073 -0.090009205 1.5170001 131 138 106 255
-0.19158065 -0.090073958 1.5180001 133 140 109 255
-0.18742436 -0.09007927 1.5180001 130 137 106 255
-0.1832674 -0.090084493 1.5180001 125 132 101 255
-0.17899175 -0.090030268 1.5170001 143 150 119 255
-0.17495143 -0.090094648 1.5180001 145 154 123 255
-0.17067996 -0.090040222 1.5170001 139 148 117 255
-0.16663289 -0.090104416 1.5180001 144 152 117 255
-0.16268671 -0.090227865 1.5200001 145 153 117 255
-0.15862468 -0.090291865 1.521 141 150 111 255
-0.15465808 -0.090415128 1.5230001 140 148 112 255
-0.15048234 -0.090419576 1.5230001 145 153 117 255
-0.14630601 -0.090423904 1.5230001 143 150 118 255
-0.14203578 -0.090368748 1.5220001 137 147 114 255
-0.13813278 -0.090550981 1.5250001 141 149 114 255
-0.13412496 -0.090673752 1.5270001 141 149 114 255
-0.13027582 -0.090915173 1.531 139 146 114 255
-0.12648654 -0.091215909 1.536 133 143 110 255
-0.12306736 -0.091813482 1.5460001 134 141 110 255
-0.12051509 -0.093123674 1.5680001 147 154 132 255
-0.11769333 -0.094315052 1.5880001 21 23 3 255
-0.11426172 -0.095090643 1.6010001 51 49 31 255
-0.10986616 -0.095094003 1.6010001 54 48 31 255
-0.10553602 -0.095156655 1.6020001 55 47 30 255
-0.10113683 -0.095159769 1.6020001 57 47 30 255
-0.096918367 -0.09534096 1.605 52 44 28 255
-0.092625394 -0.095462635 1.6070001 53 45 29 255
-0.088211261 -0.095465377 1.6070001 49 41 25 255
-0.083848909 -0.095527396 1.608 49 43 27 255
-0.079480723 -0.095589302 1.6090001 50 46 29 255
-0.075199999 -0.09576989 1.6120001 50 47 31 255
-0.070814669 -0.095831528 1.613 52 49 33 255
-0.066341236 -0.095774211 1.6120001 51 50 34 255
-0.061873022 -0.09571676 1.6110001 46 47 33 255
-0.057445705 -0.0957186 1.6110001 50 51 37 255
-0.053018138 -0.095720299 1.6110001 52 53 39 255
-0.048590347 -0.095721863 1.6110001 51 54 40 255
-0.044162348 -0.095723286 1.6110001 50 53 39 255
-0.039758824 -0.095783994 1.6120001 53 54 42 255
-0.035349634 -0.095844574 1.613 56 57 43 255
-0.030934798 -0.095905013 1.6140001 55 56 44 255
-0.026497912 -0.095905907 1.6140001 55 56 44 255
-0.022047242 -0.095847227 1.613 54 56 46 255
-0.017591059 -0.095729001 1.6110001 57 59 49 255
-0.013153968 -0.095670067 1.6100001 55 58 46 255
-0.0087277377 -0.095670395 1.6100001 55 58 46 255
-0.0043014716 -0.095670596 1.6100001 55 58 46 255
0.00012481355 -0.095670663 1.6100001 58 61 49 255
0.0045482712 -0.095611162 1.6090001 58 61 47 255
0.0089773629 -0.095670387 1.6100001 59 60 48 255
0.013403591 -0.095670044 1.6100001 62 63 49 255
0.017818684 -0.095610127 1.6090001 60 61 47 255
0.022200556 -0.095431238 1.6060001 51 54 40 255
0.026615558 -0.095430493 1.6060001 60 63 49 255
0.031049766 -0.095489018 1.6070001 58 63 49 255
0.035467267 -0.095487997 1.6070001 58 63 51 255
0.03983498 -0.09536799 1.605 61 66 54 255
0.044246662 -0.095366694 1.605 61 66 54 255
0.048688479 -0.095424682 1.6060001 57 62 50 255
0.05306945 -0.095363706 1.605 61 64 52 255
0.057480507 -0.095362 1.605 63 66 54 255
0.061852772 -0.095300756 1.6040001 65 68 54 255
0.066260576 -0.095298797 1.6040001 60 65 51 255
0.070579998 -0.095177889 1.6020001 61 66 52 255
0.074934922 -0.095116243 1.6010001 59 64 50 255
0.079333603 -0.095113888 1.6010001 58 63 51 255
0.083784252 -0.095170818 1.6020001 64 69 57 255
0.088350125 -0.095346414 1.605 65 70 59 255
0.09275873 -0.095343664 1.605 65 70 59 255
0.097106434 -0.095281392 1.6040001 61 66 55 255
0.10144822 -0.095218994 1.603 65 72 61 255
0.10578411 -0.095156468 1.6020001 66 72 64 255
0.11018283 -0.095153213 1.6020001 66 72 64 255
0.11458114 -0.095149852 1.6020001 63 71 63 255
0.11897894 -0.095146343 1.6020001 69 77 69 255
0.12322225 -0.095023952 1.6 68 77 66 255
0.12761359 -0.095020197 1.6 67 74 62 255
0.13216944 -0.09513513 1.6020001 70 77 66 255
0.13665049 -0.095190518 1.603 65 72 61 255
0.14087249 -0.095067658 1.6010001 66 73 62 255
0.14517371 -0.095004067 1.6 67 73 65 255
0.14956234 -0.094999745 1.6 71 79 71 255
0.15433528 -0.095232792 1.6040001 68 77 66 255
0.15893163 -0.095346965 1.6060001 65 74 63 255
0.16333491 -0.095342286 1.6060001 60 68 60 255
0.16742425 -0.095159397 1.603 65 71 63 255
0.17171085 -0.095095143 1.6020001 76 82 74 255
0.17599133 -0.095030785 1.6010001 70 76 68 255
0.18037833 -0.095025688 1.6010001 63 69 62 255
0.18441842 -0.094842419 1.598 75 81 73 255
0.1886777 -0.094777778 1.5970001 83 91 83 255
0.19280991 -0.094653681 1.595 73 81 74 255
0.19717769 -0.09464819 1.595 64 72 65 255
0.20103934 -0.094405256 1.5910001 98 106 99 255
0.20500743 -0.094221584 1.5880001 80 88 81 255
0.2090902 -0.09409716 1.5860001 70 78 71 255
0.21383418 -0.094269298 1.5890001 75 81 73 255
0.21859379 -0.094441324 1.5920001 74 80 72 255
0.22322899 -0.094553903 1.5940001 65 71 63 255
0.2277316 -0.09460707 1.595 67 73 65 255
0.23252992 -0.094778769 1.598 68 74 66 255
0.2370474 -0.094831757 1.5990001 62 68 60 255
0.24126755 -0.094766028 1.598 54 60 52 255
0.24502027 -0.094522335 1.5940001 49 56 45 255
0.24921969 -0.094456494 1.5930001 46 53 42 255
0.25373119 -0.094509155 1.5940001 57 64 53 255
0.25840923 -0.094621003 1.5960001 72 79 68 255
0.26309738 -0.094732791 1.598 47 53 45 255
0.26712614 -0.094607368 1.5960001 37 43 35 255
0.27097303 -0.094422609 1.5930001 80 86 78 255
0.27445704 -0.094119273 1.5880001 80 86 78 255
0.27879071 -0.09411224 1.5880001 72 79 68 255
0.28330186 -0.094164409 1.5890001 68 75 64 255
0.28781763 -0.094216511 1.59 68 75 64 255
0.29197052 -0.094150044 1.5890001 69 76 65 255
0.29611707 -0.094083525 1.5880001 71 78 67 255
0.30044657 -0.094076201 1.5880001 65 74 63 255
0.30477518 -0.094068825 1.5880001 66 75 64 255
0.30871364 -0.093942933 1.5860001 68 77 66 255
0.31323254 -0.093994714 1.5870001 69 76 65 255
0.3175559 -0.093987197 1.5870001 69 76 65 255
0.32208121 -0.094038859 1.5880001 67 74 63 255
0.32620016 -0.09397205 1.5870001 68 74 66 255
0.33052099 -0.09396442 1.5870001 69 75 67 255
0.33484095 -0.093956746 1.5870001 67 73 65 255
0.33937389 -0.094008245 1.5880001 72 78 70 255
0.34369498 -0.094000511 1.5880001 71 77 69 255
0.34823442 -0.094051935 1.5890001 70 76 68 255
0.35255656 -0.094044134 1.5890001 70 76 68 255
0.35687792 -0.094036318 1.5890001 71 77 69 255
0.36097112 -0.093969293 1.5880001 68 76 68 255
0.36574823 -0.094079778 1.59 69 75 67 255
0.37030265 -0.09413106 1.5910001 70 76 68 255
0.37462628 -0.094123162 1.5910001 67 73 65 255
0.37918729 -0.0941744 1.5920001 69 75 67 255
0.38351211 -0.094166487 1.5920001 68 74 66 255
0.38783613 -0.09415856 1.5920001 70 76 68 255
0.39265206 -0.094268896 1.5940001 73 79 71 255
0.39797622 -0.094497494 1.598 71 77 69 255
0.4038249 -0.094844304 1.6040001 74 80 72 255
0.40919644 -0.095072813 1.608 71 78 67 255
0.41484621 -0.095360413 1.613 72 79 68 255
0.42052245 -0.095647976 1.618 70 76 68 255
0.42648768 -0.095994607 1.6240001 69 75 67 255
0.43248489 -0.096341208 1.6300001 70 77 66 255
0.43770981 -0.096510455 1.6330001 68 75 64 255
0.44322106 -0.096738786 1.6370001 65 72 61 255
0.44875345 -0.096967109 1.641 78 85 74 255
0.45458302 -0.0972545 1.646 79 86 75 255
0.45932359 -0.097305551 1.6470001 66 74 66 255
0.46322429 -0.097179413 1.6450001 64 72 64 255
0.46739775 -0.097112387 1.6440001 66 72 65 255
0.47099125 -0.096927285 1.641 67 73 66 255
0.47456804 -0.09674225 1.6380001 64 70 63 255
0.47783557 -0.096498229 1.6340001 66 72 65 255
0.48167127 -0.096372403 1.6320001 67 73 65 255
0.48579353 -0.096305698 1.631 69 75 67 255
0.48990998 -0.096239053 1.6300001 70 78 70 255
0.49402046 -0.096172474 1.6290001 70 78 71 255
0.49812526 -0.096105956 1.628 70 78 71 255
0.50129819 -0.095862426 1.6240001 69 77 70 255
0.50538331 -0.095796078 1.623 68 76 69 255
0.5091486 -0.095670782 1.6210001 69 75 68 255
0.5119524 -0.095368527 1.6160001 70 76 68 255
0.5121727 -0.094594315 1.603 85 91 83 255
0.51328915 -0.093997315 1.5930001 81 88 77 255
0.5166257 -0.093813486 1.59 70 75 64 255
0.52060115 -0.093747765 1.5890001 63 68 57 255
0.524571 -0.09368214 1.5880001 57 64 53 255
0.52786916 -0.093498625 1.585 62 69 58 255
0.53148687 -0.093374215 1.5830001 66 72 64 255
0.5354321 -0.093308903 1.582 88 94 86 255
0.53903079 -0.093184717 1.58 83 89 81 255
0.54433799 -0.093355522 1.5830001 70 77 66 255
0.55208731 -0.093939185 1.5930001 71 76 65 255
0.56024033 -0.094581857 1.6040001 35 40 28 255
0.56563705 -0.094752856 1.6070001 35 40 26 255
0.56892198 -0.09457019 1.6040001 46 51 37 255
0.57219088 -0.094387665 1.6010001 44 51 39 255
0.57580382 -0.094264239 1.5990001 59 66 54 255
0.57976907 -0.094199896 1.598 62 69 57 255
0.58336371 -0.094076753 1.5960001 64 71 59 255
0.58621132 -0.09383586 1.5920001 64 71 59 255
0.58866686 -0.093536198 1.5870001 65 72 60 255
0.59221649 -0.093413502 1.585 85 92 81 255
0.59575576 -0.093290955 1.5830001 75 84 73 255
0.59966385 -0.093227498 1.582 60 69 58 255
0.60280335 -0.093046337 1.5790001 65 74 63 255
0.60592735 -0.092865355 1.5760001 67 76 65 255
0.60980999 -0.092802368 1.575 68 75 64 255
0.61407775 -0.092798464 1.575 51 56 44 255
0.61873883 -0.092853643 1.5760001 19 24 12 255
0.61984831 -0.09237875 1.5680001 25 28 14 255
0.62210923 -0.092080794 1.5630001 21 24 10 255
0.62474459 -0.091841921 1.559 26 27 13 255
0.6285696 -0.091779992 1.5580001 30 31 17 255
0.63320225 -0.091836028 1.559 26 27 13 255
0.6366148 -0.091715544 1.557 28 29 15 255
0.64001751 -0.09159524 1.5550001 23 24 10 255
0.64299607 -0.091416225 1.552 22 23 9 255
0.64595956 -0.091237418 1.549 26 28 11 255
0.64806837 -0.090940997 1.544 23 27 10 255
0.65141869 -0.090821482 1.5420001 24 26 9 255
0.65348381 -0.090525486 1.5370001 21 24 10 255
0.65552306 -0.090229683 1.5320001 19 22 8 255
0.65667534 -0.089816317 1.5250001 19 22 10 255
0.66082424 -0.089815423 1.5250001 19 22 10 255
0.66497457 -0.089814737 1.5250001 18 21 9 255
0.66912645 -0.089814268 1.5250001 19 22 10 255
0.67283839 -0.089755133 1.524 19 22 10 255
0.67610234 -0.089637309 1.5220001 19 22 10 255
0.680251 -0.08963751 1.5220001 20 21 7 255
0.68440145 -0.089637935 1.5220001 22 23 9 255
0.68855363 -0.089638591 1.5220001 23 27 10 255
0.69316292 -0.089698389 1.5230001 24 28 11 255
0.69777954 -0.089758411 1.524 25 29 12 255
0.70378548 -0.089995384 1.5280001 21 27 10 255
0.7070353 -0.089879207 1.526 16 26 9 255
0.70981038 -0.089704402 1.5230001 24 34 19 255
0.71303999 -0.089588732 1.521 97 107 96 255
0.71626097 -0.089473307 1.5190001 139 151 142 255
0.71899903 -0.089299247 1.516 162 173 166 255
0.72076905 -0.089007623 1.511 166 175 170 255
0.72251403 -0.088716246 1.506 168 177 172 255
0.72375178 -0.088366218 1.5000001 167 176 171 255
-0.96726161 -0.10671636 1.7270001 23 25 8 255
-0.96741837 -0.10725693 1.7360001 25 27 10 255
-0.96586686 -0.10761251 1.7420001 26 28 11 255
-0.98083693 -0.10982146 1.7780001 28 30 13 255
-0.9720102 -0.10937469 1.771 34 38 21 255
-0.95612943 -0.10812575 1.751 32 34 17 255
-0.96535552 -0.10971776 1.7770001 27 28 14 255
-0.96093017 -0.10976647 1.7780001 25 22 6 255
-0.95919281 -0.11012427 1.784 24 16 0 255
-0.94940376 -0.1095566 1.7750001 93 79 62 255
-0.94552284 -0.10966837 1.7770001 67 46 24 255
-0.94057691 -0.10965713 1.7770001 76 52 26 255
-0.93668878 -0.10976975 1.779 60 36 8 255
-0.93227041 -0.10982106 1.7800001 75 53 25 255
-0.92993486 -0.11011956 1.7850001 53 33 7 255
-0.9260214 -0.11023336 1.7870001 60 40 14 255
-0.92107028 -0.11022419 1.7870001 65 41 13 255
-0.91458541 -0.11003041 1.784 107 81 53 255
-0.90965086 -0.11002207 1.784 109 76 47 255
-0.90522766 -0.11007581 1.7850001 116 85 56 255
-0.90181142 -0.11025324 1.7880001 62 36 7 255
-0.89888406 -0.11049269 1.7920001 65 42 12 255
-0.89394283 -0.11048587 1.7920001 66 44 16 255
-0.88850927 -0.11041778 1.7910001 64 45 16 255
-0.8830846 -0.11035006 1.7900001 71 52 22 255
-0.8796314 -0.1105293 1.7930001 72 53 23 255
-0.8747015 -0.11052395 1.7930001 68 51 21 255
-0.870745 -0.11064225 1.7950001 68 51 21 255
-0.86485136 -0.11051433 1.7930001 73 54 24 255
-0.86136979 -0.11069493 1.7960001 74 55 26 255
-0.85501361 -0.11050607 1.7930001 75 56 27 255
-0.8505733 -0.11056408 1.794 76 57 28 255
-0.84471613 -0.11043753 1.7920001 74 56 30 255
-0.83840418 -0.11024968 1.789 62 48 25 255
-0.83024752 -0.10981566 1.7820001 129 115 95 255
-0.82166868 -0.10932036 1.774 206 200 183 255
-0.75659037 -0.10186046 1.6530001 207 215 198 255
-0.73660725 -0.099764034 1.6190001 207 217 202 255
-0.72676128 -0.099023581 1.6070001 205 215 200 255
-0.71923029 -0.098591492 1.6 195 205 190 255
-0.71307987 -0.098344527 1.5960001 181 191 176 255
-0.70695317 -0.098097824 1.5920001 173 184 165 255
-0.70129132 -0.097912975 1.5890001 168 179 160 255
-0.6956476 -0.097728372 1.5860001 166 177 158 255
-0.6904577 -0.097605616 1.5840001 158 169 148 255
-0.68657976 -0.097667947 1.585 161 172 151 255
-0.68183714 -0.097607285 1.5840001 158 169 148 255
-0.67752898 -0.097608447 1.5840001 159 170 149 255
-0.67194736 -0.097424977 1.5810001 155 166 145 255
-0.66765022 -0.097426586 1.5810001 149 161 138 255
-0.66251528 -0.097305156 1.5790001 147 157 134 255
-0.65864295 -0.097368807 1.58 145 155 132 255
-0.65393811 -0.097309411 1.5790001 146 153 131 255
-0.64965141 -0.097311847 1.5790001 146 153 131 255
-0.64495695 -0.097252838 1.5780001 139 146 124 255
-0.64067507 -0.097255662 1.5780001 139 147 122 255
-0.63639402 -0.097258665 1.5780001 139 145 119 255
-0.63211399 -0.097261854 1.5780001 141 147 121 255
-0.62783492 -0.097265236 1.5780001 141 147 121 255
-0.62355655 -0.097268783 1.5780001 138 146 120 255
-0.61967152 -0.097334161 1.5790001 142 150 124 255
-0.61539209 -0.097338066 1.5790001 142 150 124 255
-0.61111337 -0.097342134 1.5790001 143 151 125 255
-0.60606664 -0.097223066 1.577 143 151 125 255
-0.6017946 -0.097227454 1.577 151 160 131 255
-0.59714419 -0.097170338 1.5760001 151 160 131 255
-0.59249979 -0.097113378 1.575 164 173 144 255
-0.5878613 -0.09705656 1.5740001 164 175 146 255
-0.58322865 -0.096999869 1.5730001 168 178 152 255
-0.5789699 -0.097004995 1.5730001 168 178 152 255
-0.57434607 -0.096948572 1.572 165 177 152 255
-0.57009071 -0.096953973 1.572 167 177 152 255
-0.56547576 -0.096897818 1.5710001 179 189 164 255
-0.56122357 -0.096903466 1.5710001 175 185 160 255
-0.55590814 -0.096724182 1.5680001 165 175 150 255
-0.55166453 -0.096730061 1.5680001 164 174 151 255
-0.54637372 -0.096550986 1.5650001 158 168 145 255
-0.54179215 -0.096495397 1.5640001 159 169 146 255
-0.53652859 -0.096316501 1.5610001 157 167 142 255
-0.53128135 -0.096137688 1.5580001 152 162 137 255
-0.5267269 -0.096082382 1.557 140 153 126 255
-0.52217788 -0.096027158 1.5560001 138 151 124 255
-0.51829994 -0.096095465 1.557 142 153 124 255
-0.51375622 -0.096040428 1.5560001 141 152 123 255
-0.50889033 -0.095923759 1.554 135 146 117 255
-0.50468457 -0.095930599 1.554 136 147 116 255
-0.5001567 -0.095875815 1.5530001 136 147 116 255
-0.49627268 -0.095944561 1.554 131 142 111 255
-0.49206641 -0.095951661 1.554 141 150 119 255
-0.48754597 -0.095897086 1.5530001 150 159 128 255
-0.48303065 -0.09584257 1.552 173 182 151 255
-0.47852045 -0.095788114 1.5510001 173 180 149 255
-0.47370958 -0.095671959 1.549 146 155 126 255
-0.46890911 -0.095555842 1.5470001 139 147 121 255
-0.4641192 -0.095439762 1.5450001 139 149 123 255
-0.45993504 -0.09544728 1.5450001 139 149 123 255
-0.45575047 -0.095454842 1.5450001 167 180 151 255
-0.45127323 -0.095400669 1.544 163 174 145 255
-0.4462218 -0.095222957 1.5410001 129 140 109 255
-0.44147301 -0.095107049 1.539 121 132 101 255
-0.43730292 -0.095114775 1.539 127 138 109 255
-0.43341371 -0.095184341 1.5400001 166 179 150 255
-0.42840368 -0.095006697 1.5370001 158 171 144 255
-0.42396134 -0.094952703 1.536 137 150 123 255
-0.41952392 -0.094898723 1.5350001 151 164 137 255
-0.41536194 -0.094906591 1.5350001 144 154 128 255
-0.41039568 -0.094728984 1.5320001 143 153 127 255
-0.40571031 -0.094613202 1.5300001 149 160 131 255
-0.40103513 -0.094497412 1.5280001 136 146 120 255
-0.39662987 -0.09444347 1.5270001 138 151 122 255
-0.39248651 -0.09445139 1.5270001 139 150 121 255
-0.38885111 -0.094583027 1.529 132 145 116 255
-0.38495255 -0.094652846 1.5300001 129 142 113 255
-0.38104787 -0.094722666 1.531 159 170 139 255
-0.37664476 -0.094668753 1.5300001 114 125 94 255
-0.37224635 -0.094614834 1.529 138 149 118 255
-0.36761194 -0.094499014 1.5270001 130 139 108 255
-0.36322564 -0.094445042 1.526 133 142 111 255
-0.3588441 -0.094391078 1.5250001 134 143 112 255
-0.35469979 -0.094398975 1.5250001 135 144 113 255
-0.35078463 -0.094468772 1.526 128 137 108 255
-0.34618181 -0.094352819 1.524 132 143 114 255
-0.34181356 -0.094298758 1.5230001 169 180 151 255
-0.33744994 -0.094244659 1.5220001 142 153 124 255
-0.33330998 -0.094252445 1.5220001 127 138 109 255
-0.32873675 -0.094136357 1.5200001 123 134 103 255
-0.32460067 -0.094144076 1.5200001 139 150 119 255
-0.32025298 -0.094089836 1.5190001 146 157 126 255
-0.31611803 -0.094097488 1.5190001 137 148 117 255
-0.31157154 -0.093981206 1.5170001 140 151 122 255
-0.30744049 -0.093988784 1.5170001 144 154 128 255
-0.30350858 -0.094058283 1.5180001 134 145 116 255
-0.29937315 -0.094065778 1.5180001 160 171 142 255
-0.29523695 -0.094073229 1.5180001 132 143 114 255
-0.29071638 -0.093956672 1.516 133 142 113 255
-0.28639498 -0.093902037 1.5150001 136 145 114 255
-0.28245082 -0.093971305 1.516 136 143 112 255
-0.27850047 -0.09404055 1.5170001 130 137 105 255
-0.27454385 -0.094109729 1.5180001 130 138 103 255
-0.27058092 -0.094178863 1.5190001 130 138 103 255
-0.26643634 -0.094185933 1.5190001 128 135 103 255
-0.26211831 -0.094130956 1.5180001 131 138 106 255
-0.25780493 -0.094075866 1.5170001 125 132 100 255
-0.25383064 -0.094144769 1.5180001 129 136 104 255
-0.24985009 -0.094213597 1.5190001 133 140 108 255
-0.24537806 -0.094096288 1.5170001 135 145 112 255
-0.24107517 -0.094040915 1.516 132 141 110 255
-0.23708956 -0.094109543 1.5170001 133 140 108 255
-0.23340483 -0.09430217 1.5200001 129 136 104 255
-0.22940125 -0.094370656 1.521 122 129 97 255
-0.22509529 -0.094314978 1.5200001 125 132 100 255
-0.22079402 -0.094259202 1.5190001 125 134 103 255
-0.21635491 -0.09414129 1.5170001 133 142 111 255
-0.21248548 -0.094271503 1.5190001 135 145 112 255
-0.20833009 -0.094277531 1.5190001 135 145 112 255
-0.20430842 -0.094345532 1.5200001 127 135 100 255
-0.19988547 -0.094227225 1.5180001 130 137 105 255
-0.19573069 -0.094232962 1.5180001 140 147 116 255
-0.19182758 -0.09436278 1.5200001 139 146 115 255
-0.18778935 -0.094430402 1.521 122 129 98 255
-0.18362428 -0.094435878 1.521 126 133 102 255
-0.17934054 -0.094379149 1.5200001 141 148 117 255
-0.17540735 -0.094508596 1.5220001 140 147 115 255
-0.17123751 -0.094513759 1.5220001 142 149 117 255
-0.16717684 -0.094580926 1.5230001 142 150 115 255
-0.16311003 -0.094647981 1.524 141 149 114 255
-0.15914141 -0.09477704 1.526 139 147 112 255
-0.15505968 -0.094843902 1.5270001 137 145 110 255
-0.15107068 -0.094972782 1.529 138 146 111 255
-0.14697407 -0.095039435 1.5300001 137 144 113 255
-0.14296471 -0.095168106 1.5320001 136 145 114 255
-0.13912496 -0.095420904 1.536 132 141 110 255
-0.13570191 -0.095984258 1.5450001 134 143 112 255
-0.13222891 -0.096547529 1.554 130 139 108 255
-0.12903541 -0.097359255 1.567 133 142 113 255
-0.12569046 -0.098108798 1.5790001 137 145 120 255
-0.1226634 -0.099168956 1.5960001 136 143 121 255
-0.11894964 -0.099731952 1.605 68 74 56 255
-0.11497188 -0.10010844 1.6110001 47 51 33 255
-0.11048038 -0.10004985 1.6100001 49 53 36 255
-0.10612564 -0.10011539 1.6110001 50 52 35 255
-0.10170187 -0.10011866 1.6110001 48 50 33 255
-0.097338058 -0.10018396 1.6120001 48 49 35 255
-0.093025982 -0.10031126 1.6140001 48 49 35 255
-0.088482976 -0.10018984 1.6120001 48 49 37 255
-0.084002733 -0.10013042 1.6110001 49 52 40 255
-0.079527639 -0.10007086 1.6100001 49 52 38 255
-0.075244293 -0.1002598 1.613 49 52 38 255
-0.070856363 -0.10032429 1.6140001 51 54 40 255
-0.066380315 -0.10026431 1.613 49 52 38 255
-0.061947893 -0.10026637 1.613 47 50 36 255
-0.05755087 -0.10033044 1.6140001 49 52 40 255
-0.053082287 -0.10027006 1.613 50 53 41 255
-0.048588816 -0.10014737 1.6110001 50 53 41 255
-0.044133548 -0.1000867 1.6100001 50 53 41 255
-0.039732907 -0.10015021 1.6110001 55 58 46 255
-0.035326604 -0.10021358 1.6120001 53 56 44 255
-0.030933822 -0.10033898 1.6140001 50 55 43 255
-0.026513495 -0.10040209 1.6150001 50 55 43 255
-0.022060214 -0.10034069 1.6140001 53 56 44 255
-0.017601423 -0.100217 1.6120001 49 54 42 255
-0.013178061 -0.10027965 1.613 52 57 43 255
-0.0087383036 -0.10021785 1.6120001 56 61 49 255
-0.0043066791 -0.10021807 1.6120001 56 61 47 255
0.00012488711 -0.10015595 1.6110001 58 63 49 255
0.0045509543 -0.10009371 1.6100001 58 63 51 255
0.0089715039 -0.10003132 1.6090001 57 62 50 255
0.013394841 -0.10003095 1.6090001 60 63 51 255
0.017795973 -0.099906117 1.6070001 58 63 51 255
0.022213679 -0.099905469 1.6070001 57 62 50 255
0.026598144 -0.099780343 1.605 60 65 53 255
0.031048786 -0.099903762 1.6070001 61 66 54 255
0.035444085 -0.099840514 1.6060001 58 63 49 255
0.039833728 -0.099777132 1.605 62 67 53 255
0.044217709 -0.099713624 1.6040001 59 64 50 255
0.048626315 -0.099712119 1.6040001 61 64 52 255
0.053067781 -0.099772654 1.605 63 66 54 255
0.057407081 -0.099646553 1.603 63 66 54 255
0.061773714 -0.099582486 1.6020001 62 67 55 255
0.066175885 -0.099580437 1.6020001 64 69 55 255
0.070489667 -0.099453934 1.6 62 67 53 255
0.074885786 -0.099451624 1.6 59 64 50 255
0.07923203 -0.099387005 1.5990001 64 69 57 255
0.083677046 -0.099446572 1.6 63 68 56 255
0.088072158 -0.099443845 1.6 65 70 59 255
0.0925247 -0.099503137 1.6010001 63 70 59 255
0.096921802 -0.099500135 1.6010001 61 68 57 255
0.10131852 -0.099497013 1.6010001 65 72 61 255
0.10558276 -0.099369459 1.5990001 65 72 61 255
0.11004189 -0.099428214 1.6 65 72 61 255
0.11436305 -0.09936256 1.5990001 69 76 65 255
0.1187525 -0.099358916 1.5990001 68 75 64 255
0.12298748 -0.099230878 1.5970001 68 75 64 255
0.12737045 -0.099226981 1.5970001 69 76 65 255
0.13191792 -0.099347226 1.5990001 70 77 66 255
0.13656111 -0.09952946 1.6020001 65 72 61 255
0.14086825 -0.099463053 1.6010001 64 71 60 255
0.14516936 -0.099396527 1.6 69 76 65 255
0.14955787 -0.099392012 1.6 70 77 66 255
0.15433067 -0.099635847 1.6040001 70 77 66 255
0.15872899 -0.099631086 1.6040001 65 72 61 255
0.16322838 -0.099688306 1.605 62 69 58 255
0.16731484 -0.099496983 1.6020001 63 70 59 255
0.1717058 -0.099491879 1.6020001 69 76 65 255
0.17598616 -0.099424548 1.6010001 71 78 67 255
0.18026039 -0.099357121 1.6 63 67 59 255
0.18429767 -0.099165417 1.5970001 68 72 64 255
0.18855408 -0.099097788 1.5960001 75 81 73 255
0.19280432 -0.099030063 1.595 68 76 68 255
0.19704843 -0.098962255 1.5940001 64 72 65 255
0.20103358 -0.098770164 1.5910001 97 105 97 255
0.20500159 -0.098578013 1.5880001 75 83 75 255
0.20908429 -0.098447867 1.5860001 70 76 68 255
0.21355902 -0.098503835 1.5870001 77 84 73 255
0.21790114 -0.098497629 1.5870001 73 80 69 255
0.22252257 -0.09861546 1.5890001 70 76 68 255
0.2270114 -0.098671123 1.59 67 73 65 255
0.23194149 -0.09891285 1.5940001 70 76 68 255
0.23659614 -0.099030361 1.5960001 62 68 60 255
0.24095899 -0.09902367 1.5960001 57 63 55 255
0.24470621 -0.098768741 1.5920001 58 64 56 255
0.24890007 -0.09869986 1.5910001 44 50 42 255
0.25324684 -0.098692954 1.5910001 46 54 46 255
0.25775471 -0.098747991 1.5920001 72 80 72 255
0.26226717 -0.098802932 1.5930001 48 56 48 255
0.2664496 -0.098733775 1.5920001 46 52 45 255
0.2704556 -0.098602511 1.59 81 87 80 255
0.27427706 -0.098409206 1.5870001 72 78 70 255
0.2787835 -0.098463878 1.5880001 70 76 68 255
0.282938 -0.098394483 1.5870001 67 74 63 255
0.28744826 -0.098449014 1.5880001 70 77 66 255
0.29159561 -0.0983795 1.5870001 68 75 64 255
0.2957367 -0.098309934 1.5860001 73 80 69 255
0.30006063 -0.098302297 1.5860001 73 80 69 255
0.30457568 -0.09835659 1.5870001 69 76 65 255
0.30890068 -0.098348841 1.5870001 67 74 63 255
0.31322488 -0.098341055 1.5870001 67 74 63 255
0.31754822 -0.098333217 1.5870001 68 75 64 255
0.32187068 -0.098325334 1.5870001 66 73 62 255
0.32639787 -0.098379351 1.5880001 68 75 64 255
0.33051315 -0.09830945 1.5870001 72 76 68 255
0.33462214 -0.098239489 1.5860001 73 77 69 255
0.33915228 -0.098293394 1.5870001 69 75 67 255
0.34347066 -0.098285332 1.5870001 68 74 66 255
0.34778813 -0.098277226 1.5870001 70 76 68 255
0.35188299 -0.098207183 1.5860001 73 79 71 255
0.35619614 -0.09819904 1.5860001 69 75 67 255
0.36073583 -0.098252781 1.5870001 70 78 70 255
0.36528015 -0.098306485 1.5880001 71 77 69 255
0.37006187 -0.098422073 1.59 67 73 65 255
0.3739118 -0.098290041 1.5880001 68 74 66 255
0.37846464 -0.098343693 1.5890001 66 72 64 255
0.38254043 -0.098273553 1.5880001 69 75 68 255
0.38709721 -0.098327182 1.5890001 73 79 71 255
0.39116597 -0.098257042 1.5880001 73 79 71 255
0.39647382 -0.098496258 1.5920001 73 79 71 255
0.40180272 -0.098735444 1.5960001 71 77 69 255
0.40715247 -0.098974578 1.6 68 75 64 255
0.41252339 -0.099213704 1.6040001 72 79 68 255
0.41791528 -0.099452779 1.608 73 79 71 255
0.42411605 -0.099877365 1.6150001 71 77 69 255
0.43035406 -0.10030189 1.6220001 73 78 67 255
0.43475318 -0.10029352 1.6220001 68 73 62 255
0.43915167 -0.1002852 1.6220001 71 76 65 255
0.44382292 -0.1003387 1.623 71 78 67 255
0.45015609 -0.10076314 1.6300001 69 76 65 255
0.45569 -0.1010021 1.6340001 73 82 71 255
0.46124497 -0.10124106 1.6380001 74 82 74 255
0.46625248 -0.10135641 1.6400001 71 77 69 255
0.47069627 -0.10134818 1.6400001 66 72 64 255
0.47427028 -0.10115462 1.6370001 66 72 64 255
0.47812009 -0.10102292 1.6350001 66 72 64 255
0.48166341 -0.10082951 1.6320001 67 73 65 255
0.48519003 -0.10063619 1.6290001 69 75 67 255
0.48869994 -0.10044295 1.626 71 77 69 255
0.49249649 -0.10031158 1.6240001 71 77 70 255
0.49628183 -0.10018027 1.6220001 75 81 74 255
0.49974734 -0.099987298 1.6190001 72 78 71 255
0.50381893 -0.099917918 1.618 70 78 71 255
0.50600034 -0.09947814 1.6110001 66 74 67 255
0.50750995 -0.098915003 1.6020001 80 86 78 255
0.50897062 -0.09835203 1.5930001 86 93 82 255
0.51199335 -0.098097898 1.5890001 66 73 62 255
0.51661879 -0.098152533 1.59 61 68 57 255
0.52026671 -0.098022081 1.5880001 54 61 50 255
0.52390361 -0.097891726 1.5860001 57 64 53 255
0.52719647 -0.097699761 1.5830001 58 65 54 255
0.53114462 -0.09763135 1.582 67 73 65 255
0.53441042 -0.097439639 1.5790001 84 90 82 255
0.538001 -0.097309731 1.577 87 93 85 255
0.54192477 -0.09724167 1.5760001 75 81 73 255
0.54896212 -0.097728997 1.5840001 73 78 67 255
0.55674154 -0.098339759 1.5940001 72 77 65 255
0.5638712 -0.098827191 1.6020001 28 33 19 255
0.56749737 -0.098697804 1.6 36 41 27 255
0.57111305 -0.098568574 1.598 45 50 36 255
0.5739978 -0.098316118 1.5940001 51 59 44 255
0.57758683 -0.098187171 1.5920001 56 63 51 255
0.58116531 -0.098058365 1.59 59 66 54 255
0.58510154 -0.097991392 1.5890001 64 71 59 255
0.58754903 -0.097677901 1.5840001 69 76 65 255
0.59071708 -0.097487919 1.5810001 78 85 74 255
0.59462208 -0.097421408 1.58 63 72 61 255
0.59890109 -0.097416699 1.58 60 69 58 255
0.60203546 -0.097227201 1.577 61 70 59 255
0.60515422 -0.097037874 1.5740001 66 75 64 255
0.60864437 -0.09691035 1.572 64 73 62 255
0.61290419 -0.096906327 1.572 75 82 70 255
0.61716473 -0.096902445 1.572 9 14 2 255
0.6190542 -0.09652891 1.5660001 22 25 11 255
0.62170786 -0.096278831 1.562 22 25 11 255
0.62434071 -0.096028954 1.5580001 22 23 9 255
0.62896991 -0.096087433 1.559 22 23 9 255
0.6336056 -0.096146107 1.5600001 23 24 10 255
0.63620329 -0.095896818 1.5560001 22 23 9 255
0.63960344 -0.095770977 1.554 19 22 8 255
0.64133668 -0.095398836 1.5480001 25 28 14 255
0.64554048 -0.095396668 1.5480001 23 27 10 255
0.64764684 -0.095086575 1.5430001 23 27 10 255
0.65099466 -0.094961569 1.5410001 22 25 11 255
0.65220684 -0.094528645 1.534 21 24 10 255
0.65423816 -0.0942192 1.529 19 22 8 255
0.65667433 -0.093971603 1.5250001 19 22 10 255
0.66125667 -0.09403231 1.526 20 23 11 255
0.66628218 -0.094154879 1.5280001 19 22 10 255
0.67000365 -0.094092801 1.5270001 18 21 9 255
0.67327976 -0.09396933 1.5250001 20 23 11 255
0.67654669 -0.093846105 1.5230001 20 23 9 255
0.68114519 -0.093907952 1.524 21 22 8 255
0.68620062 -0.094031669 1.526 25 26 12 255
0.690364 -0.094032392 1.526 25 27 10 255
0.69270879 -0.093786873 1.5220001 22 26 9 255
0.69778085 -0.093911335 1.524 25 29 12 255
0.70562935 -0.094405785 1.5320001 23 29 12 255
0.7088905 -0.094284296 1.5300001 11 21 4 255
0.71121061 -0.094039798 1.526 44 54 39 255
0.71304226 -0.093733929 1.521 101 111 100 255
0.71626359 -0.093613207 1.5190001 149 161 152 255
0.71757913 -0.093246244 1.5130001 161 170 163 255
0.7193411 -0.09294115 1.508 165 174 167 255
0.72011864 -0.092513055 1.501 167 176 171 255
-0.99128151 -0.11364815 1.761 26 28 11 255
-0.98744094 -0.11376014 1.7630001 27 29 12 255
-0.98749608 -0.11432426 1.7720001 28 29 15 255
-0.98639739 -0.11475969 1.779 35 36 22 255
-0.96981877 -0.11338955 1.7580001 31 35 18 255
-0.96543843 -0.11343905 1.7590001 27 31 14 255
-0.96214992 -0.11361802 1.7620001 28 32 15 255
-0.96210951 -0.11418424 1.771 27 29 12 255
-0.96796948 -0.11545997 1.7910001 27 24 8 255
-0.95974326 -0.11505994 1.7850001 26 16 0 255
-0.9510206 -0.11459601 1.7780001 101 87 68 255
-0.94447041 -0.11439043 1.7750001 66 41 19 255
-0.94005907 -0.11444312 1.7760001 78 51 28 255
-0.9361732 -0.11456066 1.7780001 77 51 23 255
-0.93175709 -0.1146142 1.779 86 62 34 255
-0.92994487 -0.11499028 1.7850001 62 38 10 255
-0.92551279 -0.11504465 1.7860001 61 37 9 255
-0.92056417 -0.11503506 1.7860001 85 58 30 255
-0.91459423 -0.11489705 1.784 88 59 30 255
-0.90965921 -0.1148883 1.784 101 72 43 255
-0.9057427 -0.11500876 1.7860001 70 43 14 255
-0.90232337 -0.11519399 1.789 66 42 14 255
-0.89939284 -0.11544397 1.7930001 63 41 13 255
-0.89394963 -0.11537243 1.7920001 58 42 16 255
-0.88752341 -0.11517251 1.789 56 43 16 255
-0.88161063 -0.1150374 1.7870001 58 46 19 255
-0.87865597 -0.11528891 1.7910001 66 51 22 255
-0.8747068 -0.11541202 1.7930001 60 47 18 255
-0.87123513 -0.11559987 1.7960001 61 48 19 255
-0.86582071 -0.1155306 1.7950001 64 49 20 255
-0.86137408 -0.11559043 1.7960001 69 54 25 255
-0.85549444 -0.11545753 1.794 69 54 25 255
-0.85057682 -0.11545371 1.794 71 53 27 255
-0.84613359 -0.11551457 1.7950001 70 54 30 255
-0.83981293 -0.11531837 1.7920001 56 42 22 255
-0.83071601 -0.11473642 1.7830001 226 216 197 255
-0.81935501 -0.11383306 1.7690001 202 198 181 255
-0.78735328 -0.11003443 1.71 197 201 184 255
-0.74881077 -0.10527102 1.636 211 219 204 255
-0.73433357 -0.10385404 1.6140001 205 215 200 255
-0.72630996 -0.10333818 1.6060001 198 208 193 255
-0.71878147 -0.10288696 1.5990001 186 196 181 255
-0.71263349 -0.10262904 1.595 182 192 177 255
-0.70650923 -0.10237137 1.5910001 170 180 163 255
-0.70173258 -0.10230701 1.59 171 181 164 255
-0.69608581 -0.1021142 1.5870001 166 177 158 255
-0.69002122 -0.10185729 1.5830001 173 184 165 255
-0.68484628 -0.10172933 1.5810001 163 174 155 255
-0.68011415 -0.10166592 1.58 158 169 148 255
-0.6762445 -0.10173146 1.5810001 158 170 147 255
-0.67109585 -0.10160419 1.5790001 158 168 145 255
-0.6668039 -0.10160583 1.5790001 152 162 137 255
-0.66251332 -0.10160768 1.5790001 147 157 132 255
-0.65822405 -0.10160977 1.5790001 148 156 131 255
-0.65352166 -0.10154772 1.5780001 143 151 126 255
-0.64882594 -0.10148585 1.577 139 146 124 255
-0.64413679 -0.10142422 1.5760001 138 145 123 255
-0.63945407 -0.10136276 1.575 136 143 121 255
-0.63518107 -0.10136586 1.575 139 145 120 255
-0.63050842 -0.10130479 1.5740001 135 143 117 255
-0.62663782 -0.10137264 1.575 136 142 116 255
-0.62276262 -0.10144068 1.5760001 139 145 119 255
-0.61927521 -0.10157327 1.5780001 134 142 116 255
-0.61460853 -0.10151292 1.577 139 147 121 255
-0.60994804 -0.10145278 1.5760001 142 150 124 255
-0.60529369 -0.10139278 1.575 139 148 119 255
-0.60102683 -0.10139731 1.575 137 146 117 255
-0.59638166 -0.10133764 1.5740001 141 150 121 255
-0.5921188 -0.10134251 1.5740001 148 157 128 255
-0.58710933 -0.10121875 1.572 142 152 126 255
-0.58285272 -0.10122391 1.572 143 153 127 255
-0.57786036 -0.10110043 1.5700001 151 161 136 255
-0.57360995 -0.10110589 1.5700001 140 150 125 255
-0.5693599 -0.10111147 1.5700001 148 158 132 255
-0.56511009 -0.10111722 1.5700001 147 157 132 255
-0.5605033 -0.10105867 1.5690001 160 170 144 255
-0.55590224 -0.10100025 1.5680001 180 190 164 255
-0.55165845 -0.10100634 1.5680001 174 184 159 255
-0.54706585 -0.10094817 1.567 175 185 160 255
-0.5428251 -0.10095453 1.567 171 181 156 255
-0.53720963 -0.10070328 1.5630001 171 181 156 255
-0.53195685 -0.10051654 1.5600001 159 171 146 255
-0.52672029 -0.10032988 1.557 154 166 141 255
-0.52183563 -0.10020775 1.5550001 146 158 133 255
-0.51729453 -0.10015015 1.554 146 158 133 255
-0.51308894 -0.10015709 1.554 138 151 124 255
-0.50888336 -0.10016413 1.554 140 150 124 255
-0.50467759 -0.10017126 1.554 136 147 118 255
-0.50014955 -0.100114 1.5530001 141 152 123 255
-0.49594614 -0.1001213 1.5530001 137 148 119 255
-0.49174249 -0.10012869 1.5530001 137 146 117 255
-0.48691079 -0.10000718 1.5510001 138 147 116 255
-0.48271203 -0.10001472 1.5510001 126 135 104 255
-0.47851297 -0.10002229 1.5510001 146 153 122 255
-0.47370201 -0.099900961 1.549 169 176 145 255
-0.46950769 -0.099908695 1.549 165 174 145 255
-0.46471235 -0.099787466 1.5470001 148 157 128 255
-0.45992729 -0.099666275 1.5450001 134 144 118 255
-0.45515278 -0.099545136 1.5430001 160 170 144 255
-0.45068091 -0.099488527 1.5420001 168 178 152 255
-0.44592443 -0.09936744 1.5400001 152 163 134 255
-0.44117832 -0.09924639 1.5380001 127 138 109 255
-0.43701091 -0.099254414 1.5380001 122 133 102 255
-0.43312436 -0.099327028 1.539 133 147 115 255
-0.42867446 -0.09927059 1.5380001 174 187 158 255
-0.42395338 -0.099149644 1.536 127 138 109 255
-0.41951594 -0.099093251 1.5350001 127 138 109 255
-0.41481274 -0.098972321 1.5330001 137 146 117 255
-0.41065553 -0.098980524 1.5330001 153 162 131 255
-0.40596738 -0.098859593 1.531 156 165 134 255
-0.40128949 -0.098738678 1.529 146 155 124 255
-0.39688161 -0.098682344 1.5280001 140 151 120 255
-0.39222142 -0.098561406 1.526 143 154 123 255
-0.38833436 -0.09863425 1.5270001 138 151 122 255
-0.38418961 -0.098642506 1.5270001 128 141 112 255
-0.38054198 -0.098779976 1.529 154 167 138 255
-0.37614429 -0.09872365 1.5280001 138 151 122 255
-0.37175134 -0.098667324 1.5270001 136 147 116 255
-0.36712235 -0.098546341 1.5250001 131 142 111 255
-0.36274153 -0.098489963 1.524 129 140 109 255
-0.35836542 -0.098433569 1.5230001 132 141 110 255
-0.35422656 -0.09844178 1.5230001 150 159 128 255
-0.35008699 -0.098449983 1.5230001 128 137 108 255
-0.34617379 -0.09852282 1.524 125 136 107 255
-0.34180558 -0.098466337 1.5230001 171 182 153 255
-0.33766368 -0.09847448 1.5230001 125 136 107 255
-0.33352107 -0.098482609 1.5230001 123 134 105 255
-0.3289451 -0.098361358 1.521 129 140 109 255
-0.32480633 -0.098369412 1.521 138 147 116 255
-0.32024515 -0.098248079 1.5190001 145 156 125 255
-0.31611022 -0.098256044 1.5190001 137 148 117 255
-0.31176922 -0.098199308 1.5180001 140 151 120 255
-0.30783811 -0.098271891 1.5190001 149 160 131 255
