ply
format ascii 1.0
comment PCL generated
element vertex 1003
property float x
property float y
property float z
property uchar red
property uchar green
property uchar blue
property uchar alpha
element camera 0
property float view_px
property float view_py
property float view_pz
property float x_axisx
property float x_axisy
property float x_axisz
property float y_axisx
property float y_axisy
property float y_axisz
property float z_axisx
property float z_axisy
property float z_axisz
property float focal
property float scalex
property float scaley
property float centerx
property float centery
property int viewportx
property int viewporty
property float k1
property float k2
end_header
0.53971553 -0.23420744 1.7650001 73 78 67 255
0.5441888 -0.2340593 1.7640001 75 80 69 255
0.54927891 -0.23417674 1.7650001 76 81 69 255
0.5546881 -0.23442701 1.7670001 74 82 67 255
0.56010801 -0.23467745 1.7690001 81 89 74 255
0.56489992 -0.23466274 1.7690001 80 88 73 255
0.56904769 -0.23438293 1.7670001 70 78 63 255
0.57253498 -0.23383811 1.7630001 72 80 65 255
0.5773105 -0.23382409 1.7630001 75 82 70 255
0.58340657 -0.23434077 1.7670001 74 81 70 255
0.58919156 -0.23472503 1.7700001 70 77 66 255
0.5936504 -0.23457904 1.7690001 69 74 63 255
0.59844232 -0.23456597 1.7690001 54 59 48 255
0.60323435 -0.23455313 1.7690001 72 77 65 255
0.60802656 -0.23454054 1.7690001 23 28 16 255
0.61212611 -0.23426309 1.7670001 56 61 47 255
0.61726254 -0.2343837 1.7680001 70 75 61 255
0.62275642 -0.2346371 1.7700001 72 77 63 255
0.6289705 -0.2351559 1.774 54 59 45 255
0.63306314 -0.23487964 1.7720001 56 61 47 255
0.63786525 -0.23486881 1.7720001 65 72 60 255
0.64157987 -0.23446074 1.7690001 65 72 60 255
0.64674026 -0.23458312 1.7700001 66 74 59 255
0.65117019 -0.23444079 1.7690001 69 77 62 255
0.65670788 -0.23469639 1.771 14 19 5 255
0.66001582 -0.23415722 1.7670001 21 24 10 255
0.66405535 -0.23388349 1.7650001 21 24 10 255
0.66618997 -0.23294763 1.7580001 21 24 10 255
0.66828722 -0.23201217 1.751 21 24 10 255
0.67226928 -0.23173968 1.7490001 22 25 11 255
0.67701554 -0.23173259 1.7490001 19 22 8 255
0.6825422 -0.2319909 1.751 21 24 10 255
0.68690324 -0.23185216 1.7500001 20 23 9 255
0.69165492 -0.23184629 1.7500001 22 25 11 255
0.69640774 -0.23184086 1.7500001 22 25 11 255
0.69875771 -0.23104101 1.7440001 22 25 11 255
0.69986606 -0.22984423 1.7350001 21 24 10 255
0.69930238 -0.22811805 1.7220001 21 24 10 255
0.70521015 -0.22851188 1.725 22 26 9 255
0.7103126 -0.22864127 1.7260001 24 28 11 255
0.71625042 -0.22903605 1.7290001 21 26 12 255
0.72762662 -0.23115337 1.7450001 14 24 9 255
0.73825192 -0.23300621 1.7590001 8 17 5 255
0.74261886 -0.23287261 1.7580001 98 107 96 255
0.7461316 -0.23247458 1.7550001 144 152 144 255
0.74449533 -0.23048753 1.7400001 152 160 153 255
0.74493188 -0.22916332 1.7300001 158 166 159 255
0.74661577 -0.22823703 1.723 164 172 165 255
0.74869931 -0.22744375 1.7170001 166 174 167 255
0.7494356 -0.22625363 1.7080001 168 177 170 255
0.75012499 -0.22506405 1.6990001 171 179 172 255
0.75121123 -0.22400746 1.6910001 173 181 174 255
0.75136209 -0.22268648 1.6810001 174 182 175 255
0.75146025 -0.22136602 1.6710001 172 180 173 255
0.75150591 -0.2200461 1.6610001 173 181 174 255
0.75149918 -0.21872671 1.651 171 179 172 255
0.75098211 -0.21727537 1.6400001 173 181 174 255
0.75363165 -0.21675198 1.636 170 178 171 255
0.75487161 -0.2158317 1.6290001 170 178 171 255
0.75560939 -0.21477948 1.6210001 168 175 171 255
0.75630587 -0.21372776 1.613 173 180 176 255
0.75790435 -0.21294166 1.6070001 174 181 177 255
0.75757498 -0.21162604 1.5970001 172 180 173 255
0.75719339 -0.21031097 1.5870001 172 180 173 255
0.75723946 -0.20912895 1.5780001 172 180 173 255
0.75868678 -0.20834504 1.572 170 178 171 255
0.75864774 -0.20716409 1.5630001 170 178 171 255
0.75807399 -0.20585114 1.5530001 173 181 174 255
0.75892085 -0.20493637 1.5460001 164 172 165 255
0.75726378 -0.20335929 1.534 174 182 175 255
0.75504714 -0.20165014 1.521 174 182 175 255
0.75176364 -0.19967628 1.506 180 188 181 255
-0.66486293 -0.24807243 1.8340001 184 194 179 255
-0.65737337 -0.24713652 1.8270001 196 206 189 255
-0.65063632 -0.24647138 1.8220001 183 194 175 255
-0.64428127 -0.24594176 1.8180001 172 181 160 255
-0.63759649 -0.24527715 1.8130001 177 187 164 255
-0.63128823 -0.24474812 1.8090001 178 188 162 255
-0.62638694 -0.24476051 1.8090001 172 182 156 255
-0.62045521 -0.24436729 1.8060001 165 175 149 255
-0.61522168 -0.2442449 1.8050001 172 184 159 255
-0.60999376 -0.24412285 1.8040001 174 186 161 255
-0.60477138 -0.24400103 1.8030001 174 187 160 255
-0.59888899 -0.24360874 1.8000001 176 189 162 255
-0.59269309 -0.24308138 1.7960001 158 169 140 255
-0.58880991 -0.24350162 1.7990001 151 162 133 255
-0.58458585 -0.24378684 1.8010001 156 165 136 255
-0.58035094 -0.24407229 1.8030001 169 178 149 255
-0.57450926 -0.24368109 1.8000001 141 150 121 255
-0.56836736 -0.2431547 1.7960001 146 155 126 255
-0.5631882 -0.2430346 1.7950001 157 166 137 255
-0.55832529 -0.24305014 1.7950001 147 156 125 255
-0.55346227 -0.24306585 1.7950001 152 161 132 255
-0.5479877 -0.24281088 1.7930001 149 158 129 255
-0.54252374 -0.24255604 1.7910001 160 169 140 255
-0.53737062 -0.2424368 1.7900001 164 173 144 255
-0.53222257 -0.24231769 1.789 142 151 122 255
-0.52766919 -0.24246962 1.7900001 124 133 102 255
-0.52252591 -0.2423508 1.789 137 144 113 255
-0.51709825 -0.24209662 1.7870001 161 168 139 255
-0.5111078 -0.24157159 1.7830001 134 141 112 255
-0.50769413 -0.24226601 1.7880001 123 129 103 255
-0.50369036 -0.24268964 1.7910001 124 130 105 255
0.24562177 -0.24358916 1.7910001 84 92 85 255
0.25093654 -0.24398306 1.794 65 73 66 255
0.25541136 -0.24356079 1.7910001 61 69 61 255
0.26074097 -0.24395424 1.794 96 104 96 255
0.26564202 -0.24393953 1.794 68 76 68 255
0.2703914 -0.24378869 1.7930001 68 76 68 255
0.2745204 -0.24309383 1.7880001 73 81 73 255
0.27893382 -0.24267079 1.7850001 74 82 74 255
0.28348908 -0.24238355 1.7830001 96 102 94 255
0.28819424 -0.24223213 1.7820001 75 81 73 255
0.29272875 -0.24194464 1.7800001 75 81 73 255
0.29741862 -0.24179292 1.779 63 69 61 255
0.30227217 -0.24177699 1.779 96 100 92 255
0.30695227 -0.24162501 1.7780001 63 69 61 255
0.31162605 -0.24147293 1.7770001 66 73 62 255
0.31593737 -0.24104895 1.774 73 80 69 255
0.32077399 -0.24103251 1.774 89 96 85 255
0.32560971 -0.24101593 1.774 68 74 66 255
0.33025837 -0.24086341 1.7730001 73 77 69 255
0.33508968 -0.2408466 1.7730001 81 85 77 255
0.34011194 -0.24096552 1.774 75 79 71 255
0.34513885 -0.24108435 1.7750001 68 73 62 255
0.34977597 -0.24093139 1.774 69 74 63 255
0.35440686 -0.24077839 1.7730001 74 79 67 255
0.35923409 -0.24076112 1.7730001 70 75 63 255
0.36364982 -0.24047215 1.771 81 86 75 255
0.3682619 -0.24031897 1.7700001 75 80 68 255
0.37265697 -0.24002996 1.7680001 74 79 67 255
0.37768078 -0.24014819 1.7690001 72 74 64 255
0.38270938 -0.24026635 1.7700001 72 75 63 255
0.38752356 -0.24024868 1.7700001 74 77 63 255
0.39189371 -0.23995957 1.7680001 72 77 63 255
0.39647651 -0.23980612 1.7670001 73 78 64 255
0.4010531 -0.23965265 1.766 71 76 62 255
0.40585339 -0.23963489 1.766 68 75 63 255
0.41042036 -0.23948145 1.7650001 68 75 63 255
0.41545165 -0.23959935 1.766 71 76 64 255
0.42072561 -0.23985286 1.7680001 68 73 61 255
0.42552838 -0.23983505 1.7680001 65 70 58 255
0.43033037 -0.23981722 1.7680001 65 70 56 255
0.43513176 -0.23979944 1.7680001 66 71 57 255
0.44043005 -0.24005289 1.7700001 65 70 58 255
0.44548696 -0.2401707 1.771 65 70 58 255
0.45004013 -0.24001734 1.7700001 65 70 58 255
0.45510125 -0.24013521 1.771 65 70 58 255
0.4601672 -0.24025314 1.7720001 63 68 56 255
0.46550021 -0.24050663 1.774 63 68 54 255
0.47031331 -0.24048904 1.774 67 70 56 255
0.47485811 -0.24033597 1.7730001 63 68 54 255
0.47939685 -0.24018298 1.7720001 65 70 56 255
0.48474941 -0.24043669 1.774 69 74 60 255
0.49038813 -0.24082595 1.7770001 70 75 61 255
0.49576405 -0.24107976 1.779 69 74 62 255
0.50058752 -0.24106261 1.779 69 74 62 255
0.50541049 -0.24104556 1.779 71 76 64 255
0.50994635 -0.24089319 1.7780001 65 72 60 255
0.51476574 -0.24087639 1.7780001 66 73 61 255
0.51929259 -0.24072428 1.7770001 66 73 61 255
0.52351868 -0.24043684 1.7750001 69 76 64 255
0.52743596 -0.24001415 1.7720001 67 74 63 255
0.53163695 -0.23972708 1.7700001 70 77 66 255
0.53673607 -0.23984654 1.771 76 80 72 255
0.5415346 -0.23983072 1.771 73 80 69 255
0.54725826 -0.24022128 1.774 78 84 76 255
0.55237556 -0.24034117 1.7750001 83 88 76 255
0.55812597 -0.24073204 1.7780001 76 81 69 255
0.5632593 -0.24085227 1.779 65 73 58 255
0.56775922 -0.24070194 1.7780001 66 74 59 255
0.57096541 -0.24001034 1.7730001 68 76 61 255
0.5738197 -0.23918369 1.7670001 79 86 74 255
0.57795137 -0.2388988 1.7650001 78 85 74 255
0.58405316 -0.23942626 1.7690001 75 82 71 255
0.59017658 -0.23995386 1.7730001 71 78 67 255
0.59464389 -0.23980501 1.7720001 68 73 62 255
0.59910583 -0.23965643 1.771 65 70 59 255
0.60390359 -0.23964345 1.771 56 61 50 255
0.60870153 -0.23963079 1.771 69 74 63 255
0.61280668 -0.23934773 1.7690001 65 70 58 255
0.61829787 -0.23960622 1.771 74 79 67 255
0.62380028 -0.23986501 1.7730001 77 82 70 255
0.62895912 -0.23998873 1.774 52 57 45 255
0.63305217 -0.23970698 1.7720001 64 69 57 255
0.63785464 -0.2396961 1.7720001 64 71 59 255
0.6415695 -0.23927975 1.7690001 65 72 60 255
0.64673018 -0.23940483 1.7700001 65 73 58 255
0.65079248 -0.23912448 1.7680001 71 79 64 255
0.65558618 -0.23911498 1.7680001 17 22 8 255
0.65888643 -0.23856492 1.7640001 21 24 10 255
0.66329443 -0.23842098 1.7630001 23 26 12 255
0.66656077 -0.23787171 1.7590001 21 24 10 255
0.66827953 -0.23678198 1.751 22 25 11 255
0.6726464 -0.23663925 1.7500001 21 24 10 255
0.67662156 -0.23636174 1.748 22 25 11 255
0.68175614 -0.23649031 1.7490001 20 23 9 255
0.68571961 -0.23621364 1.7470001 21 24 10 255
0.69125408 -0.23647825 1.7490001 21 24 10 255
0.69640255 -0.23660809 1.7500001 23 26 12 255
0.70035565 -0.23633277 1.748 22 25 11 255
0.70187867 -0.2352467 1.7400001 21 24 10 255
0.70376557 -0.23429635 1.733 23 26 12 255
0.70806861 -0.23415768 1.7320001 22 26 9 255
0.71072137 -0.23347872 1.7270001 24 28 11 255
0.71376258 -0.23293544 1.723 22 28 11 255
0.72345501 -0.23455572 1.7350001 16 26 11 255
0.73531276 -0.23685241 1.7520001 10 19 7 255
0.74304044 -0.23779774 1.7590001 79 88 76 255
0.74740672 -0.23766209 1.7580001 144 154 145 255
0.74620706 -0.23576951 1.7440001 152 161 154 255
0.74493265 -0.23387748 1.7300001 160 168 161 255
0.74531704 -0.23252672 1.72 165 173 166 255
0.74826515 -0.2319877 1.7160001 168 176 169 255
0.74987692 -0.23104364 1.7090001 169 178 173 255
0.75101095 -0.22996494 1.7010001 171 178 174 255
0.75032634 -0.22834601 1.6890001 171 179 172 255
0.75136614 -0.2272684 1.6810001 172 180 173 255
0.75191462 -0.22605614 1.6720001 172 180 173 255
0.75286853 -0.22497967 1.664 172 180 173 255
0.75196022 -0.22336288 1.6520001 173 181 174 255
0.75007278 -0.22147626 1.6380001 172 180 173 255
0.75133538 -0.22053657 1.631 172 180 173 255
0.75348896 -0.21986793 1.626 174 182 175 255
0.75515139 -0.21906464 1.6200001 168 176 169 255
0.75537694 -0.21785627 1.6110001 172 180 173 255
0.75602722 -0.21678364 1.603 172 180 173 255
0.75616187 -0.21557635 1.5940001 173 181 174 255
0.75672686 -0.21450484 1.5860001 172 180 173 255
0.75629091 -0.21316339 1.5760001 173 181 174 255
0.75725067 -0.21222824 1.5690001 171 179 172 255
0.75768942 -0.21115841 1.5610001 172 180 173 255
0.75759882 -0.20995383 1.552 173 181 174 255
0.75795257 -0.20888509 1.544 170 178 171 255
0.75629067 -0.20727575 1.5320001 174 182 175 255
0.7545656 -0.20566685 1.5200001 176 183 179 255
0.75127977 -0.20365246 1.5050001 180 187 183 255
-0.63302076 -0.25036633 1.8140001 182 192 169 255
-0.62741303 -0.25010285 1.812 186 196 173 255
-0.62181652 -0.24983957 1.8100001 183 193 168 255
-0.6165719 -0.24971466 1.8090001 173 185 162 255
-0.6109947 -0.24945192 1.807 170 182 159 255
-0.60609937 -0.24946554 1.807 161 173 150 255
-0.60020596 -0.24906529 1.8040001 185 197 174 255
-0.59399885 -0.24852714 1.8000001 155 165 140 255
-0.58945006 -0.24867961 1.8010001 151 161 135 255
-0.58489573 -0.24883229 1.802 157 165 139 255
-0.58065796 -0.24912338 1.8040001 162 170 144 255
-0.57481343 -0.24872418 1.8010001 147 157 131 255
-0.56930143 -0.24846326 1.7990001 152 160 134 255
-0.56380022 -0.24820252 1.7970001 140 148 122 255
-0.55862069 -0.24808009 1.7960001 156 164 138 255
-0.55344635 -0.24795783 1.7950001 144 152 126 255
-0.54827726 -0.24783571 1.794 147 155 129 255
-0.54341626 -0.24785197 1.794 143 151 125 255
-0.53825486 -0.2477302 1.7930001 152 160 134 255
-0.53369349 -0.24788493 1.794 136 144 118 255
0.26043561 -0.24857977 1.7920001 85 93 85 255
0.26533097 -0.2485649 1.7920001 77 85 77 255
0.27007475 -0.24841112 1.7910001 68 76 68 255
0.27419814 -0.24770238 1.7860001 87 95 87 255
0.27891847 -0.2475483 1.7850001 98 106 98 255
0.28363249 -0.24739404 1.784 85 91 83 255
0.28866374 -0.24751699 1.7850001 71 77 69 255
0.29353514 -0.24750109 1.7850001 80 86 78 255
0.2985729 -0.24762368 1.7860001 65 71 63 255
0.30327547 -0.2474688 1.7850001 93 99 91 255
0.30797178 -0.2473138 1.784 76 82 74 255
0.31248644 -0.24702007 1.7820001 69 75 67 255
0.31716743 -0.24686484 1.7810001 82 88 80 255
0.32184222 -0.24670951 1.7800001 90 96 88 255
0.32651064 -0.24655405 1.779 74 80 72 255
0.33117282 -0.24639851 1.7780001 75 79 71 255
0.3360177 -0.24638142 1.7780001 81 85 77 255
0.34105346 -0.24650277 1.779 78 82 74 255
0.34589937 -0.24648546 1.779 70 74 66 255
0.35054737 -0.24632955 1.7780001 74 79 68 255
0.35498914 -0.24603496 1.7760001 74 79 68 255
0.35982445 -0.24601743 1.7760001 70 75 64 255
0.36424831 -0.24572273 1.774 83 88 77 255
0.36907652 -0.24570504 1.774 76 81 69 255
0.37369317 -0.24554877 1.7730001 77 82 70 255
0.37873054 -0.24566941 1.774 80 85 74 255
0.38377267 -0.24579005 1.7750001 75 80 68 255
0.38838151 -0.24563362 1.774 70 75 63 255
0.39298409 -0.24547717 1.7730001 71 76 64 255
0.39780486 -0.24545915 1.7730001 76 81 69 255
0.40239778 -0.24530266 1.7720001 73 78 66 255
0.40675473 -0.24500777 1.7700001 72 79 67 255
0.41110003 -0.2447129 1.7680001 74 81 70 255
0.41637468 -0.24497166 1.7700001 75 80 68 255
0.42189744 -0.24536875 1.7730001 75 80 68 255
0.42695442 -0.24548899 1.774 71 76 64 255
0.43177274 -0.24547088 1.774 71 76 62 255
0.4365904 -0.24545278 1.774 71 76 62 255
0.4416562 -0.24557306 1.7750001 67 75 60 255
0.44647524 -0.24555498 1.7750001 74 81 69 255
0.45078504 -0.2452603 1.7730001 66 73 61 255
0.45585436 -0.24538064 1.774 68 75 63 255
0.46040908 -0.24522442 1.7730001 69 76 64 255
0.46626961 -0.24575973 1.7770001 66 71 57 255
0.47056079 -0.24546529 1.7750001 67 72 58 255
0.47510827 -0.24530923 1.774 66 71 57 255
0.47992033 -0.24529155 1.774 71 76 62 255
0.48555169 -0.24568878 1.7770001 71 76 62 255
0.49119863 -0.24608599 1.7800001 71 79 64 255
0.49630412 -0.24620675 1.7810001 68 76 61 255
0.50113314 -0.2461894 1.7810001 70 75 61 255
0.50567758 -0.24603389 1.7800001 70 78 63 255
0.51078975 -0.24615498 1.7810001 67 75 60 255
0.51561749 -0.24613796 1.7810001 70 77 65 255
0.52015263 -0.24598289 1.7800001 70 77 65 255
0.524387 -0.24568978 1.7780001 66 73 61 255
0.5283125 -0.2452587 1.7750001 70 77 66 255
0.53342295 -0.24538048 1.7760001 75 81 73 255
0.53944761 -0.24591689 1.7800001 78 84 76 255
0.54579949 -0.24659149 1.7850001 84 90 82 255
0.55279523 -0.2475425 1.7920001 76 82 74 255
0.55796152 -0.24766482 1.7930001 75 80 69 255
0.56250525 -0.24751104 1.7920001 78 83 72 255
0.56577706 -0.24680507 1.7870001 68 75 63 255
0.56966013 -0.24637556 1.784 70 77 65 255
0.57191688 -0.24525587 1.7760001 66 75 63 255
0.57477951 -0.24441272 1.7700001 76 85 73 255
0.579247 -0.24426027 1.7690001 77 86 74 255
0.58535987 -0.24479845 1.7730001 76 85 73 255
0.59149432 -0.24533682 1.7770001 73 80 69 255
0.59664387 -0.24546121 1.7780001 74 79 67 255
0.60112238 -0.24530976 1.7770001 75 80 68 255
0.60559565 -0.24515857 1.7760001 58 63 52 255
0.61040735 -0.24514574 1.7760001 45 50 39 255
0.61487293 -0.24499518 1.7750001 49 54 42 255
0.62072974 -0.245397 1.7780001 78 83 71 255
0.62484407 -0.24510902 1.7760001 67 74 62 255
0.62965685 -0.24509741 1.7760001 56 63 51 255
0.63375556 -0.2448101 1.774 66 73 61 255
0.63856375 -0.24479915 1.774 66 75 63 255
0.64228439 -0.24437456 1.771 69 76 64 255
0.64672011 -0.24422635 1.7700001 72 79 67 255
0.65041476 -0.24380253 1.7670001 14 21 9 255
0.65409368 -0.24337912 1.7640001 22 27 15 255
0.65663642 -0.24254222 1.7580001 21 26 12 255
0.66215718 -0.24280946 1.7600001 20 25 11 255
0.66617376 -0.24252523 1.7580001 23 26 12 255
0.66941684 -0.24196552 1.7540001 23 26 12 255
0.67340785 -0.24168213 1.7520001 21 25 8 255
0.67700177 -0.24126123 1.7490001 24 28 11 255
0.68135989 -0.24111666 1.748 22 26 9 255
0.68532109 -0.24083459 1.7460001 23 27 10 255
0.69006282 -0.24082884 1.7460001 21 25 8 255
0.69440776 -0.24068564 1.7450001 23 27 10 255
0.69914907 -0.2406808 1.7450001 22 26 9 255
0.70429474 -0.24081434 1.7460001 20 24 7 255
0.70782286 -0.24039668 1.743 21 25 8 255
0.7113359 -0.23997954 1.7400001 23 27 10 255
0.71483397 -0.23956285 1.7370001 25 29 12 255
0.71748871 -0.23887089 1.7320001 23 29 12 255
0.72428727 -0.23955858 1.7370001 16 26 9 255
0.73489183 -0.24148796 1.751 11 21 6 255
0.74177259 -0.24217673 1.756 74 83 71 255
0.74613124 -0.24203852 1.7550001 146 156 147 255
0.74620748 -0.24052171 1.7440001 151 161 152 255
0.74579483 -0.23886754 1.7320001 161 170 163 255
0.74661863 -0.23762769 1.723 165 173 166 255
0.74870336 -0.23680212 1.7170001 167 175 168 255
0.74987954 -0.23570126 1.7090001 171 178 174 255
0.75013113 -0.23432517 1.6990001 170 177 173 255
0.74944162 -0.23267378 1.687 172 179 175 255
0.74958265 -0.23129877 1.677 171 179 172 255
0.75057048 -0.23020016 1.669 174 182 175 255
0.75196916 -0.22924007 1.6620001 172 180 173 255
0.75242156 -0.22800466 1.6530001 171 179 171 255
0.75053728 -0.22608013 1.6390001 172 180 173 255
0.75134265 -0.22498378 1.631 173 181 174 255
0.75303352 -0.2241639 1.6250001 173 181 174 255
0.75562608 -0.22362046 1.6210001 174 182 175 255
0.75538605 -0.22224994 1.6110001 172 180 173 255
0.75556535 -0.22101791 1.6020001 175 183 176 255
0.75522345 -0.21964847 1.5920001 173 181 174 255
0.75626063 -0.21869346 1.585 172 180 173 255
0.75630242 -0.21746312 1.5760001 174 182 175 255
0.75629759 -0.21623331 1.567 169 177 170 255
0.75624603 -0.21500406 1.5580001 170 178 171 255
0.75565964 -0.21363732 1.5480001 172 180 173 255
0.75649399 -0.2126852 1.5410001 172 180 173 255
0.75531799 -0.21118152 1.5300001 176 184 177 255
0.75408441 -0.20967837 1.5190001 177 184 180 255
0.75129569 -0.20776157 1.5050001 179 186 182 255
0.27796537 -0.2515766 1.779 140 148 141 255
0.28282186 -0.25156087 1.779 71 79 72 255
0.28848609 -0.25225192 1.784 89 97 89 255
0.29384792 -0.25265998 1.7870001 68 76 68 255
0.29922527 -0.25306779 1.7900001 72 80 72 255
0.30393866 -0.25290996 1.789 94 102 95 255
0.30864576 -0.25275198 1.7880001 79 87 80 255
0.31352189 -0.25273523 1.7880001 70 76 69 255
0.3182191 -0.25257698 1.7870001 96 102 95 255
0.32309091 -0.25255993 1.7870001 85 91 84 255
0.32759479 -0.25226012 1.7850001 79 85 78 255
0.33208692 -0.25196025 1.7830001 72 76 68 255
0.33675632 -0.25180155 1.7820001 85 89 81 255
0.34199452 -0.25206667 1.784 87 92 81 255
0.34704846 -0.25219035 1.7850001 72 77 66 255
0.35190979 -0.25217265 1.7850001 71 78 67 255
0.35617071 -0.25173107 1.7820001 75 81 73 255
0.36081973 -0.25157201 1.7810001 80 87 76 255
0.36546242 -0.25141281 1.7800001 76 83 72 255
0.37030688 -0.25139481 1.7800001 73 80 68 255
0.37515059 -0.25137675 1.7800001 78 83 71 255
0.37999347 -0.2513586 1.7800001 82 87 75 255
0.3848356 -0.25134042 1.7800001 82 87 73 255
0.389458 -0.25118098 1.779 77 82 70 255
0.39407414 -0.2510215 1.7780001 75 80 68 255
0.39890853 -0.25100327 1.7780001 76 83 72 255
0.40396914 -0.25112605 1.779 74 81 70 255
0.40811533 -0.25068423 1.7760001 74 81 70 255
0.41294196 -0.25066587 1.7760001 77 84 73 255
0.41847354 -0.25107089 1.779 79 86 75 255
0.42449659 -0.25175807 1.784 82 89 77 255
0.4298242 -0.25202188 1.7860001 81 88 76 255
0.43516186 -0.25228557 1.7880001 80 88 73 255
0.44001755 -0.25226709 1.7880001 83 90 78 255
0.44512135 -0.25238973 1.789 82 89 77 255
0.45022994 -0.25251237 1.7900001 86 93 81 255
0.45458052 -0.25221181 1.7880001 86 95 83 255
0.45943365 -0.25219345 1.7880001 89 96 84 255
0.46324739 -0.25161099 1.784 83 91 76 255
0.46730122 -0.25116974 1.7810001 79 84 70 255
0.47054291 -0.25030553 1.7750001 70 75 63 255
0.47455484 -0.24986453 1.7720001 75 80 68 255
0.48017314 -0.25026965 1.7750001 74 79 65 255
0.48608041 -0.25081575 1.779 73 81 66 255
0.49200886 -0.25136194 1.7830001 75 83 68 255
0.4968439 -0.25134423 1.7830001 73 81 66 255
0.50195974 -0.25146756 1.784 70 78 63 255
0.5067966 -0.25145009 1.784 75 82 70 255
0.5119198 -0.25157365 1.7850001 72 80 65 255
0.51646888 -0.25141549 1.784 72 79 67 255
0.52072012 -0.25111651 1.7820001 72 81 69 255
0.52496004 -0.25081778 1.7800001 65 74 62 255
0.52918887 -0.25051922 1.7780001 67 76 65 255
0.53460795 -0.25078443 1.7800001 75 83 75 255
0.54155266 -0.25175413 1.7870001 74 80 72 255
0.54975826 -0.2532874 1.7980001 66 72 64 255
0.55648088 -0.25411636 1.8040001 68 74 67 255
0.56043512 -0.2536777 1.8010001 66 72 64 255
0.5637452 -0.25295758 1.7960001 67 74 63 255
0.56702805 -0.2522378 1.7910001 66 73 62 255
0.57060289 -0.2516591 1.7870001 64 73 61 255
0.57351214 -0.25079912 1.7810001 65 74 62 255
0.57671338 -0.25008026 1.7760001 79 88 76 255
0.58086991 -0.2497841 1.774 82 91 79 255
0.58666635 -0.2501922 1.7770001 74 83 71 255
0.59314471 -0.25088212 1.7820001 75 84 72 255
0.59897918 -0.25129062 1.7850001 83 90 78 255
0.603477 -0.2511363 1.784 50 57 45 255
0.60694653 -0.25055996 1.7800001 35 42 30 255
0.6114257 -0.25040624 1.779 59 66 55 255
0.61659241 -0.25053433 1.7800001 71 78 66 255
0.622114 -0.25080344 1.7820001 83 90 78 255
0.62588769 -0.25036922 1.779 63 70 58 255
0.6303544 -0.25021678 1.7780001 68 75 63 255
0.63517338 -0.25020543 1.7780001 70 78 63 255
0.63927287 -0.24991296 1.7760001 69 78 66 255
0.64336199 -0.24962085 1.774 71 80 68 255
0.64744085 -0.24932918 1.7720001 74 81 69 255
0.65077317 -0.24875645 1.7680001 15 22 10 255
0.65371358 -0.24804345 1.7630001 19 24 12 255
0.65700108 -0.24747157 1.7590001 20 25 11 255
0.66252482 -0.24774423 1.761 24 28 11 255
0.66730243 -0.24773592 1.761 23 27 10 255
0.6705541 -0.24716532 1.7570001 22 26 9 255
0.6741693 -0.24673583 1.7540001 24 28 11 255
0.67699492 -0.24602546 1.7490001 22 26 9 255
0.68135345 -0.24587817 1.748 22 26 9 255
0.68649268 -0.24601272 1.7490001 26 30 13 255
0.69045258 -0.24572572 1.7470001 22 26 9 255
0.69440275 -0.24543919 1.7450001 22 26 9 255
0.69754183 -0.24487182 1.7410001 22 26 9 255
0.7018705 -0.2447269 1.7400001 24 28 11 255
0.70619494 -0.24458246 1.7390001 25 29 12 255
0.71378565 -0.24556367 1.7460001 22 28 11 255
0.71688908 -0.24499834 1.7420001 24 30 12 255
0.7237004 -0.24569924 1.7470001 23 29 11 255
0.72845542 -0.24569748 1.7470001 17 27 10 255
0.73656964 -0.24682137 1.7550001 17 27 10 255
0.74177212 -0.24696131 1.756 68 78 63 255
0.74528104 -0.24653931 1.7530001 149 159 148 255
0.74578017 -0.24513336 1.743 149 161 152 255
0.74665725 -0.24386862 1.7340001 158 167 160 255
0.74705374 -0.2424638 1.7240001 166 173 169 255
0.74870569 -0.24148147 1.7170001 170 178 171 255
0.74856609 -0.23993713 1.7060001 169 176 172 255
0.7492516 -0.23867464 1.697 171 178 174 255
0.74811304 -0.23685016 1.6840001 172 179 175 255
0.74824625 -0.23544814 1.674 171 179 172 255
0.74832708 -0.2340467 1.664 172 180 173 255
0.75016522 -0.23320845 1.6580001 172 180 173 255
0.75106245 -0.23208949 1.6500001 173 181 174 255
0.75146013 -0.23083036 1.641 172 180 173 255
0.75135028 -0.2294312 1.631 172 180 173 255
0.75211489 -0.22831395 1.623 172 180 173 255
0.75377047 -0.22747861 1.6170001 175 183 176 255
0.75445771 -0.22636248 1.6090001 173 181 174 255
0.75416046 -0.22496559 1.5990001 172 180 173 255
0.75381094 -0.22356923 1.5890001 172 180 173 255
0.75484055 -0.22259551 1.582 171 179 172 255
0.75487471 -0.22134098 1.5730001 174 182 175 255
0.75486231 -0.22008705 1.5640001 171 179 172 255
0.75431764 -0.21869288 1.554 173 181 174 255
0.75372082 -0.21729927 1.544 172 180 173 255
0.75454479 -0.21632846 1.5370001 177 185 178 255
0.75434572 -0.2150767 1.5280001 176 184 177 255
0.75410014 -0.21382552 1.5190001 177 184 180 255
0.75081271 -0.2117302 1.5040001 181 188 184 255
0.31944847 -0.2584652 1.794 89 97 89 255
0.32451999 -0.25859195 1.7950001 72 80 72 255
0.32849503 -0.25785422 1.7900001 71 77 69 255
0.33262825 -0.2572605 1.7860001 84 90 82 255
0.33692777 -0.25681075 1.7830001 82 86 78 255
0.34255195 -0.25736913 1.7870001 88 95 84 255
0.34780836 -0.25763932 1.789 74 80 72 255
0.35268047 -0.25762132 1.789 71 77 69 255
0.3571521 -0.25731528 1.7870001 72 78 70 255
0.36201718 -0.25729716 1.7870001 80 86 78 255
0.36708683 -0.25742289 1.7880001 78 85 74 255
0.37195298 -0.2574046 1.7880001 80 85 73 255
0.37681839 -0.25738621 1.7880001 81 86 72 255
0.38168299 -0.25736779 1.7880001 79 87 72 255
0.38633057 -0.25720531 1.7870001 80 85 71 255
0.39075309 -0.25689894 1.7850001 82 89 77 255
0.39538556 -0.25673646 1.784 78 85 73 255
0.40068489 -0.25700569 1.7860001 79 86 75 255
0.4059943 -0.25727481 1.7880001 72 79 68 255
0.41085428 -0.25725612 1.7880001 78 84 76 255
0.41594601 -0.25738126 1.789 81 88 77 255
0.42174813 -0.25793797 1.7930001 82 87 75 255
0.428285 -0.25892609 1.8000001 82 87 73 255
0.43461865 -0.2597703 1.8060001 81 86 72 255
0.44025403 -0.26018289 1.8090001 80 85 71 255
0.44541281 -0.26030776 1.8100001 81 88 76 255
0.45082518 -0.26057646 1.812 82 89 77 255
0.45599625 -0.26070136 1.8130001 80 89 77 255
0.45990092 -0.26010734 1.8090001 82 91 79 255
0.46378317 -0.25951344 1.8050001 78 87 75 255
0.46582562 -0.25791332 1.794 80 88 73 255
0.48578933 -0.25552207 1.7780001 88 93 79 255
0.49199095 -0.25622264 1.7830001 87 92 78 255
0.49626881 -0.25591737 1.7810001 87 95 80 255
0.50137937 -0.25604326 1.7820001 84 91 79 255
0.50706315 -0.25645661 1.7850001 73 80 68 255
0.51304948 -0.25701371 1.789 68 77 65 255
0.5173201 -0.25670892 1.7870001 69 78 66 255
0.52128744 -0.25626066 1.784 66 75 64 255
0.5252381 -0.25581267 1.7810001 85 94 83 255
0.52946973 -0.25550845 1.779 167 175 167 255
0.5718649 -0.25710225 1.7910001 51 59 51 255
0.57414114 -0.25593862 1.7830001 60 68 60 255
0.57767278 -0.25534949 1.779 66 74 66 255
0.58216512 -0.2551913 1.7780001 74 82 74 255
0.58830273 -0.25575095 1.7820001 79 88 77 255
0.59546065 -0.25674134 1.789 78 87 76 255
0.6026566 -0.25773191 1.7960001 49 58 47 255
0.60786092 -0.25786167 1.7970001 135 144 133 255
0.6103431 -0.25684378 1.7900001 36 45 34 255
0.61484963 -0.25668716 1.789 53 61 53 255
0.61969739 -0.25667438 1.789 66 74 66 255
0.62454551 -0.25666189 1.789 71 80 69 255
0.62798667 -0.25607592 1.7850001 72 81 69 255
0.63211548 -0.25577721 1.7830001 69 78 66 255
0.63623387 -0.25547886 1.7810001 72 79 67 255
0.64034182 -0.25518087 1.779 72 79 67 255
0.64407682 -0.25473988 1.7760001 70 77 65 255
0.64852679 -0.25458607 1.7750001 41 46 34 255
0.65186757 -0.25400245 1.771 24 29 15 255
0.65481663 -0.25327578 1.766 22 27 13 255
0.6577391 -0.25254959 1.761 25 28 14 255
0.66251636 -0.25254089 1.761 25 29 12 255
0.66653645 -0.25224578 1.7590001 23 27 10 255
0.67016482 -0.25180775 1.756 23 27 10 255
0.67300904 -0.25108334 1.751 24 28 11 255
0.67698818 -0.25078952 1.7490001 22 26 9 255
0.68134719 -0.25063962 1.748 21 25 8 255
0.68648678 -0.25077692 1.7490001 22 26 9 255
0.68965667 -0.25019777 1.7450001 22 26 9 255
0.69360185 -0.24990587 1.743 24 28 11 255
0.69473279 -0.24861085 1.7340001 23 27 10 255
0.70025295 -0.24889347 1.7360001 24 28 11 255
0.70294267 -0.24817294 1.7310001 26 30 13 255
0.71092105 -0.24931674 1.7390001 25 31 14 255
0.71729815 -0.24988756 1.743 24 30 12 255
0.72659814 -0.25146243 1.7540001 24 30 12 255
0.73304075 -0.25203428 1.7580001 23 32 13 255
0.73824757 -0.25217655 1.7590001 17 27 10 255
0.74134934 -0.25160259 1.7550001 78 88 73 255
0.74358064 -0.25074247 1.7490001 154 164 153 255
0.74492526 -0.24959621 1.7410001 151 161 152 255
0.74708921 -0.24873725 1.7350001 161 169 162 255
0.74748898 -0.24730539 1.725 167 175 168 255
0.74827218 -0.24601752 1.7160001 171 178 174 255
0.74769175 -0.24430008 1.7040001 169 176 172 255
0.74837232 -0.24301332 1.6950001 170 177 173 255
0.74811733 -0.2414404 1.6840001 174 181 177 255
0.74869823 -0.24015477 1.6750001 173 180 176 255
0.7487824 -0.23872638 1.6650001 174 182 175 255
0.7497189 -0.23758529 1.6570001 172 180 173 255
0.74970359 -0.23615804 1.6470001 171 179 172 255
0.74963582 -0.23473135 1.6370001 172 180 173 255
0.74951559 -0.23330522 1.6270001 174 182 175 255
0.74934304 -0.23187964 1.6170001 174 182 175 255
0.75144881 -0.2311717 1.6120001 174 182 175 255
0.75212312 -0.2300341 1.6040001 175 183 176 255
0.75275606 -0.22889711 1.5960001 172 180 173 255
0.75050116 -0.2269001 1.582 174 182 175 255
0.75198948 -0.22605114 1.5760001 173 181 174 255
0.75248766 -0.22491586 1.5680001 172 180 173 255
0.75487524 -0.22435497 1.5640001 173 181 174 255
0.75336039 -0.22264704 1.552 170 178 171 255
0.75275874 -0.2212266 1.5420001 174 182 174 255
0.75259608 -0.21995018 1.5330001 175 183 175 255
0.75288028 -0.21881779 1.5250001 177 185 178 255
0.75163406 -0.21725547 1.5140001 181 189 182 255
0.74933183 -0.21540669 1.501 181 189 182 255
0.34817913 -0.26281592 1.7910001 70 76 68 255
0.35305664 -0.26279774 1.7910001 76 82 74 255
0.35773346 -0.26263267 1.7900001 75 81 74 255
0.36280921 -0.262761 1.7910001 78 86 78 255
0.36768427 -0.26274252 1.7910001 70 78 70 255
0.37255859 -0.26272395 1.7910001 77 84 73 255
0.37764278 -0.26285198 1.7920001 79 86 75 255
0.38273168 -0.26297992 1.7930001 77 84 73 255
0.38760906 -0.26296118 1.7930001 83 90 79 255
0.39248559 -0.26294231 1.7930001 86 93 82 255
0.39736143 -0.26292345 1.7930001 86 95 84 255
0.40268514 -0.26319778 1.7950001 82 91 80 255
0.40779194 -0.26332545 1.7960001 82 89 78 255
0.41313317 -0.26359963 1.7980001 84 91 80 255
0.41825211 -0.26372722 1.7990001 82 89 78 255
0.42431653 -0.26444107 1.8040001 80 87 76 255
0.43064532 -0.26530141 1.8100001 80 87 75 255
0.43652475 -0.26586848 1.8140001 84 89 77 255
0.4421818 -0.26628891 1.817 83 90 78 255
0.44711629 -0.26626968 1.817 83 90 78 255
0.45229888 -0.26639703 1.8180001 82 89 78 255
0.45849225 -0.26711044 1.8230001 77 86 74 255
0.48673031 -0.25830072 1.7640001 24 27 13 255
0.49207136 -0.25857568 1.766 16 21 7 255
0.49686003 -0.25855786 1.766 18 25 13 255
0.49994391 -0.25766179 1.7600001 158 165 153 255
0.51073766 -0.26071844 1.7810001 140 149 138 255
0.50369704 -0.25469938 1.7400001 160 169 158 255
0.60666919 -0.26437908 1.8080001 120 128 120 255
0.62522691 -0.2638866 1.8050001 134 142 134 255
0.62872237 -0.26328921 1.8010001 75 84 73 255
0.63149267 -0.26239979 1.7950001 56 65 54 255
0.63493997 -0.26180318 1.7910001 66 75 64 255
0.63765144 -0.26091459 1.7850001 72 81 70 255
0.64105082 -0.26031882 1.7810001 82 89 78 255
0.64479154 -0.25986958 1.7780001 88 95 84 255
0.64961278 -0.25985923 1.7780001 17 22 10 255
0.65406632 -0.2597031 1.7770001 21 26 14 255
0.65666127 -0.25881669 1.771 24 27 13 255
0.65847725 -0.25763845 1.7630001 26 29 15 255
0.66175544 -0.25704521 1.7590001 24 28 11 255
0.6661495 -0.25689083 1.7580001 25 29 12 255
0.67015713 -0.25659072 1.756 25 29 12 255
0.67338616 -0.25599885 1.7520001 25 29 12 255
0.67852974 -0.25613806 1.7530001 24 28 11 255
0.68251026 -0.25583935 1.751 24 28 11 255
0.68726593 -0.2558333 1.751 22 26 9 255
0.69044179 -0.25524336 1.7470001 22 26 9 255
0.693995 -0.25479999 1.7440001 25 29 12 255
0.69352645 -0.25289613 1.7310001 24 28 11 255
0.6966188 -0.25230771 1.7270001 26 30 13 255
0.69887847 -0.25142765 1.7210001 25 31 14 255
0.70560366 -0.2521551 1.7260001 22 28 11 255
0.71400356 -0.25346741 1.7350001 23 29 11 255
0.72825336 -0.25682551 1.7580001 24 33 14 255
0.73429042 -0.25726232 1.761 26 35 16 255
0.73950589 -0.25740752 1.7620001 42 52 35 255
0.74134922 -0.25638458 1.7550001 82 92 77 255
0.74315596 -0.25536224 1.748 147 157 146 255
0.74407059 -0.25404829 1.7390001 154 164 155 255
0.74622965 -0.2531732 1.733 161 169 162 255
0.74792451 -0.25215259 1.7260001 167 174 170 255
0.74696678 -0.25025603 1.7130001 170 177 173 255
0.74681747 -0.24865223 1.702 171 178 174 255
0.74705178 -0.24719511 1.692 171 178 174 255
0.74812198 -0.24603079 1.6840001 171 178 174 255
0.74959737 -0.24501313 1.677 174 181 177 255
0.75058711 -0.24384998 1.669 172 180 173 255
0.75063026 -0.24239521 1.659 171 179 172 255
0.74971062 -0.24064878 1.6470001 172 180 173 255
0.74872762 -0.23890293 1.6350001 172 180 173 255
0.74768108 -0.2371576 1.623 176 184 177 255
0.74842513 -0.23599739 1.6150001 176 184 177 255
0.74912763 -0.23483773 1.6070001 175 183 176 255
0.75025767 -0.2338248 1.6 175 183 176 255
0.74993694 -0.23237406 1.59 174 182 175 255
0.74956381 -0.23092385 1.58 173 181 174 255
0.75009292 -0.22976656 1.572 172 180 173 255
0.75058073 -0.22860986 1.5640001 173 181 174 255
0.75247532 -0.22789228 1.559 172 180 173 255
0.75094742 -0.22615205 1.5470001 172 180 173 255
0.74935627 -0.22441232 1.5350001 173 181 173 255
0.74819297 -0.22281933 1.524 175 183 176 255
0.74894673 -0.22181173 1.5170001 176 184 177 255
0.74867195 -0.22051223 1.508 180 188 181 255
0.40311474 -0.26839292 1.7970001 81 90 79 255
0.40799987 -0.2683737 1.7970001 84 93 82 255
0.41380334 -0.2689518 1.8010001 82 91 80 255
0.41846541 -0.26878318 1.8000001 82 89 78 255
0.42429727 -0.26936114 1.8040001 80 87 76 255
0.64097923 -0.27130941 1.8220001 184 192 185 255
0.64201844 -0.26965934 1.8110001 191 199 192 255
0.64264131 -0.26786095 1.7990001 118 126 118 255
0.64571887 -0.26710519 1.794 90 96 88 255
0.64913279 -0.26649883 1.7900001 0 3 0 255
0.65508288 -0.26693505 1.7930001 9 16 5 255
0.65810525 -0.26618063 1.7880001 24 29 18 255
0.65998888 -0.26498008 1.7800001 24 29 17 255
0.6599623 -0.26303571 1.7670001 22 27 13 255
0.66174704 -0.26183623 1.7590001 21 26 12 255
0.66500473 -0.26123258 1.7550001 22 28 11 255
0.66976798 -0.26122481 1.7550001 23 29 12 255
0.67491645 -0.26136631 1.756 22 27 13 255
0.68045843 -0.26165709 1.7580001 23 27 10 255
0.6840632 -0.26120415 1.7550001 23 27 10 255
0.68647528 -0.26030523 1.7490001 25 29 12 255
0.68846047 -0.25925794 1.7420001 26 30 13 255
0.69120473 -0.25850889 1.7370001 27 31 14 255
0.69392294 -0.25776035 1.7320001 24 28 11 255
0.69822854 -0.25760761 1.7310001 24 28 11 255
0.70131183 -0.25700894 1.7270001 23 29 11 255
0.707645 -0.25760135 1.7310001 27 33 15 255
0.71893972 -0.25998002 1.7470001 23 32 13 255
0.7299087 -0.2622104 1.7620001 23 32 13 255
0.73512328 -0.26235795 1.7630001 31 42 23 255
0.73782665 -0.26161319 1.7580001 62 72 55 255
0.7405045 -0.26086903 1.7530001 97 107 92 255
0.74273145 -0.2599766 1.7470001 147 157 146 255
0.74449974 -0.25893599 1.7400001 153 162 155 255
0.74537033 -0.25759831 1.7310001 165 173 166 255
0.74662697 -0.25641009 1.723 169 177 170 255
0.74696982 -0.25492477 1.7130001 170 177 173 255
0.74550486 -0.25284484 1.6990001 170 178 171 255
0.74617302 -0.25150955 1.6900001 171 179 172 255
0.74679404 -0.25017485 1.6810001 171 179 172 255
0.75094384 -0.25003138 1.6800001 172 180 173 255
0.7519424 -0.24884672 1.6720001 172 180 173 255
0.75244689 -0.24751386 1.6630001 173 181 174 255
0.74971807 -0.24513973 1.6470001 175 183 176 255
0.7482776 -0.24321263 1.6340001 174 182 175 255
0.7472291 -0.24143495 1.6220001 175 183 176 255
0.74704409 -0.23995554 1.6120001 173 181 174 255
0.74680668 -0.23847674 1.6020001 175 183 176 255
0.7474547 -0.23729619 1.5940001 173 181 174 255
0.74758977 -0.2359674 1.585 172 180 173 255
0.74815243 -0.23478808 1.577 174 182 175 255
0.74819672 -0.23346044 1.5680001 176 184 177 255
0.74723446 -0.23183563 1.557 174 182 175 255
0.74862784 -0.2309559 1.5510001 173 181 174 255
0.74804938 -0.22948115 1.5410001 172 180 173 255
0.74741864 -0.22800693 1.531 176 184 177 255
0.74624491 -0.22638433 1.5200001 175 183 176 255
0.74600083 -0.22506014 1.511 175 183 176 255
0.7462067 -0.22388554 1.503 179 187 180 255
0.66154468 -0.27866229 1.8380001 182 190 183 255
0.66181439 -0.27668029 1.825 190 198 191 255
0.66566783 -0.27621487 1.8220001 208 214 206 255
0.66766506 -0.2749919 1.8140001 105 111 103 255
0.66554117 -0.27210197 1.7950001 3 10 0 255
0.66443521 -0.26966739 1.779 14 19 8 255
0.6639958 -0.26753661 1.7650001 24 29 17 255
0.668028 -0.26722521 1.7630001 24 29 15 255
0.67281342 -0.26721746 1.7630001 20 25 11 255
0.67913717 -0.26781642 1.7670001 21 26 12 255
0.68316114 -0.26750645 1.7650001 22 27 13 255
0.68522638 -0.2664392 1.7580001 21 27 10 255
0.68568462 -0.26476619 1.7470001 24 30 13 255
0.68845534 -0.2640031 1.7420001 26 30 12 255
0.69239384 -0.26369518 1.7400001 24 28 10 255
0.69431949 -0.26263002 1.733 27 31 13 255
0.70104849 -0.26338395 1.738 24 30 12 255
0.70739996 -0.26398686 1.7420001 23 29 11 255
0.71663618 -0.26565105 1.7530001 32 38 20 255
0.72511065 -0.26701269 1.7620001 29 38 19 255
0.73156422 -0.2676172 1.766 43 54 35 255
0.73470539 -0.26700997 1.7620001 52 63 44 255
0.73824602 -0.26655486 1.7590001 78 88 71 255
0.74134958 -0.2659488 1.7550001 115 125 110 255
0.74400783 -0.26519179 1.7500001 154 164 153 255
0.74535698 -0.26398081 1.7420001 156 165 158 255
0.74580306 -0.26246735 1.7320001 165 173 166 255
0.74749643 -0.26140907 1.725 167 175 168 255
0.74740928 -0.25974527 1.7140001 171 179 172 255
0.7459476 -0.25762743 1.7 170 178 171 255
0.74617755 -0.25611633 1.6900001 172 180 173 255
0.74679923 -0.2547574 1.6810001 172 180 173 255
0.75094974 -0.25461152 1.6800001 173 181 174 255
0.75149918 -0.25325382 1.6710001 173 181 174 255
0.75109661 -0.25159362 1.6600001 174 182 175 255
0.7483601 -0.24917617 1.6440001 174 182 175 255
0.74691218 -0.24721399 1.631 175 183 176 255
0.74631673 -0.24555552 1.6200001 174 182 175 255
0.74659026 -0.24420078 1.6110001 177 185 178 255
0.74541831 -0.24239185 1.5990001 175 183 176 255
0.74558997 -0.24103832 1.59 175 183 176 255
0.74571466 -0.23968534 1.5810001 175 183 176 255
0.74579263 -0.23833299 1.572 174 182 175 255
0.74534661 -0.23682956 1.562 175 183 176 255
0.7438885 -0.23502351 1.5500001 174 182 175 255
0.74526328 -0.23412779 1.544 175 183 176 255
0.74515164 -0.23277777 1.5350001 175 183 176 255
0.74499315 -0.23142835 1.526 176 184 177 255
0.74429721 -0.22992785 1.516 178 186 179 255
0.74453658 -0.22873123 1.508 176 184 177 255
0.74473482 -0.22753525 1.5000001 180 187 183 255
0.67554259 -0.28115714 1.8220001 188 196 189 255
0.67525738 -0.27898753 1.8080001 201 209 201 255
0.67489707 -0.27681848 1.794 36 42 34 255
0.6778717 -0.27603868 1.789 0 4 0 255
0.68234658 -0.27587661 1.7880001 7 14 3 255
0.68681693 -0.27571499 1.7870001 14 21 10 255
0.68625104 -0.27354816 1.7730001 26 33 21 255
0.68833846 -0.27246186 1.766 25 32 20 255
0.68685657 -0.26998764 1.7500001 25 33 18 255
0.69358802 -0.27075374 1.7550001 23 31 14 255
0.69835824 -0.270749 1.7550001 20 28 11 255
0.70353025 -0.27089906 1.756 25 33 18 255
0.70669216 -0.2702783 1.7520001 26 36 19 255
0.71754915 -0.27258915 1.7670001 24 34 17 255
0.72358346 -0.27304932 1.7700001 15 25 8 255
0.72840101 -0.27304727 1.7700001 75 85 68 255
0.72990596 -0.27181169 1.7620001 79 89 72 255
0.73261988 -0.27103952 1.7570001 83 93 76 255
0.73698688 -0.27088496 1.756 90 101 88 255
0.7409277 -0.27057675 1.7540001 128 138 127 255
0.7440089 -0.26996061 1.7500001 151 161 152 255
0.74664235 -0.26919085 1.7450001 158 166 159 255
0.74709713 -0.26765037 1.7350001 163 171 164 255
0.74749929 -0.26611051 1.725 168 176 169 255
0.74741286 -0.26441702 1.7140001 170 178 171 255
0.74595183 -0.2622613 1.7 169 177 170 255
0.74706542 -0.26103181 1.692 172 180 173 255
0.74724895 -0.25949436 1.682 173 181 174 255
0.74961489 -0.25872898 1.677 173 181 174 255
0.74880761 -0.25688425 1.6650001 174 182 175 255
0.74703175 -0.25473145 1.651 173 181 174 255
0.74563694 -0.25273359 1.6380001 174 182 175 255
0.74508911 -0.2510449 1.6270001 176 184 177 255
0.74540466 -0.24966536 1.618 176 184 177 255
0.74567336 -0.24828646 1.6090001 176 184 177 255
0.74542898 -0.24675384 1.5990001 175 183 176 255
0.74513227 -0.24522181 1.5890001 175 183 176 255
0.74478334 -0.24369039 1.5790001 176 184 177 255
0.74295872 -0.24169655 1.5660001 174 182 175 255
0.74392843 -0.24062929 1.559 176 184 177 255
0.74150276 -0.23848218 1.5450001 176 184 177 255
0.74286455 -0.23757049 1.539 175 183 176 255
0.74225432 -0.23604198 1.529 175 183 176 255
0.74354464 -0.23513158 1.5230001 175 183 176 255
0.74382305 -0.23391305 1.5150001 177 185 178 255
0.74504775 -0.23300391 1.5090001 179 187 180 255
0.744753 -0.23163222 1.5000001 179 186 182 255
0.69605124 -0.28844821 1.8370001 187 195 187 255
0.699512 -0.2878122 1.8330001 195 203 195 255
0.70295197 -0.2871767 1.8290001 206 214 206 255
0.70095259 -0.28434366 1.8110001 73 82 71 255
0.70314372 -0.28323826 1.8040001 1 10 0 255
0.70529795 -0.28213346 1.7970001 8 17 5 255
0.7078104 -0.28118619 1.7910001 11 21 6 255
0.70909774 -0.27976856 1.7820001 18 28 13 255
0.71314174 -0.27945039 1.7800001 41 51 36 255
0.71999973 -0.2802318 1.7850001 29 39 24 255
0.72282541 -0.2794438 1.7800001 1 11 0 255
0.72644287 -0.27897039 1.7770001 170 180 165 255
0.72757632 -0.27755561 1.7680001 156 166 151 255
0.72783369 -0.27582747 1.7570001 91 101 86 255
0.73053449 -0.27504182 1.7520001 112 121 109 255
0.73572791 -0.27519879 1.7530001 129 139 128 255
0.73923868 -0.27472836 1.7500001 144 154 145 255
0.74145937 -0.27378759 1.7440001 152 160 152 255
0.74322128 -0.2726905 1.7370001 162 170 163 255
0.74451613 -0.27143699 1.7290001 166 174 167 255
0.74620265 -0.27034116 1.7220001 169 177 170 255
0.74567246 -0.26846093 1.71 169 177 170 255
0.74595636 -0.26689532 1.7 170 178 171 255
0.74574608 -0.26517335 1.6890001 174 182 175 255
0.74725479 -0.26407999 1.682 173 181 174 255
0.74649245 -0.26220223 1.6700001 174 182 175 255
0.74611622 -0.26048207 1.659 174 182 175 255
0.74341971 -0.25797746 1.6430001 176 183 179 255
0.74245888 -0.25610149 1.631 176 183 179 255
0.74189246 -0.25438312 1.6200001 178 186 179 255
0.74265021 -0.25313643 1.6120001 178 185 181 255
0.74382997 -0.25204739 1.605 178 185 181 255
0.74497384 -0.25095904 1.598 177 185 178 255
0.74514401 -0.2495572 1.5890001 178 185 181 255
0.74243724 -0.2472136 1.5740001 177 185 178 255
0.74059957 -0.24518467 1.5610001 178 186 179 255
0.74107903 -0.24394168 1.5530001 177 185 178 255
0.74199718 -0.24285638 1.5460001 179 187 180 255
0.74287963 -0.24177173 1.539 175 183 176 255
0.74275553 -0.24037351 1.5300001 174 182 175 255
0.74209648 -0.23881878 1.5200001 176 184 177 255
0.74285823 -0.23773597 1.5130001 179 187 180 255
0.74457186 -0.23696811 1.508 179 187 180 255
0.7447716 -0.23572949 1.5000001 181 189 182 255
0.7187503 -0.29662398 1.8570001 180 188 180 255
0.71249205 -0.29198545 1.8280001 187 195 187 255
0.71431959 -0.29070187 1.8200001 187 196 185 255
0.71689522 -0.28973839 1.8140001 190 199 188 255
0.71983725 -0.28893515 1.8090001 194 203 192 255
0.72275335 -0.28813252 1.8040001 107 116 105 255
0.72403014 -0.28669161 1.7950001 181 190 179 255
0.72485316 -0.28509158 1.7850001 174 183 172 255
0.72603196 -0.28365186 1.7760001 160 168 160 255
0.72757483 -0.28237253 1.7680001 161 169 161 255
0.72824711 -0.28077435 1.7580001 156 164 156 255
0.73095119 -0.27997532 1.7530001 151 159 151 255
0.73404944 -0.2793366 1.7490001 156 164 157 255
0.7371276 -0.27869859 1.7450001 158 166 158 255
0.73805982 -0.27726257 1.7360001 158 166 159 255
0.73937261 -0.27598694 1.728 160 168 161 255
0.74021298 -0.2745522 1.7190001 169 177 170 255
0.7427395 -0.27375698 1.7140001 173 181 174 255
0.74306035 -0.27216378 1.7040001 173 181 174 255
0.74376714 -0.27073091 1.6950001 174 182 175 255
0.74354386 -0.26897928 1.6840001 175 183 176 255
0.74503958 -0.26786715 1.677 174 182 175 255
0.74515814 -0.26627645 1.6670001 175 182 178 255
0.74522424 -0.26468641 1.6570001 177 184 180 255
0.74207044 -0.26197878 1.6400001 177 184 180 255
0.74019152 -0.2597509 1.626 177 184 180 255
0.73961204 -0.25800291 1.6150001 180 187 183 255
0.74127817 -0.25705427 1.6090001 179 186 182 255
0.74337733 -0.25626609 1.6040001 179 186 182 255
0.74498534 -0.25531879 1.598 179 186 182 255
0.74468726 -0.25373307 1.5880001 178 185 181 255
0.74292171 -0.25166857 1.575 178 185 181 255
0.74108744 -0.24960464 1.562 177 184 180 255
0.74157041 -0.24834028 1.554 177 185 178 255
0.74153209 -0.24691671 1.5450001 177 185 178 255
0.74289519 -0.24597324 1.539 177 185 178 255
0.74180084 -0.24423131 1.5280001 176 184 177 255
0.74113703 -0.24264976 1.5180001 176 184 177 255
0.74140298 -0.2413885 1.5100001 178 186 179 255
0.74409664 -0.24092725 1.5070001 180 188 181 255
0.72321355 -0.2972787 1.83 175 184 173 255
0.72580177 -0.29629955 1.8240001 173 182 171 255
0.72635543 -0.29450879 1.8130001 175 184 173 255
0.72685051 -0.29271865 1.802 167 175 167 255
0.7276932 -0.29109156 1.7920001 159 167 159 255
0.72807413 -0.28930268 1.7810001 159 167 160 255
0.72921962 -0.28783926 1.7720001 159 167 160 255
0.73031765 -0.28637648 1.7630001 156 164 157 255
0.73220211 -0.28523922 1.756 154 162 155 255
0.73279095 -0.28361523 1.7460001 156 164 157 255
0.73543912 -0.28280413 1.7410001 159 167 160 255
0.73593587 -0.28118142 1.7310001 165 173 166 255
0.73637998 -0.27955934 1.7210001 166 174 167 255
0.73720187 -0.27810037 1.7120001 173 181 174 255
0.74014324 -0.27745423 1.7080001 174 182 175 255
0.74088442 -0.27599654 1.6990001 176 184 177 255
0.74113947 -0.27437702 1.6890001 176 183 179 255
0.74001735 -0.27227077 1.6760001 177 184 180 255
0.74193615 -0.27130231 1.6700001 178 185 181 255
0.74203628 -0.2696847 1.6600001 177 184 180 255
0.74298334 -0.26839268 1.6520001 179 186 182 255
0.74162638 -0.26628888 1.6390001 181 188 184 255
0.73929018 -0.26386076 1.6240001 180 187 183 255
0.73870587 -0.26208311 1.613 180 187 183 255
0.73898506 -0.26063108 1.6040001 179 186 182 255
0.74107122 -0.25982964 1.5990001 180 187 183 255
0.74173385 -0.25854141 1.5910001 178 185 181 255
0.74188614 -0.25709125 1.582 178 185 181 255
0.74151999 -0.25547928 1.572 178 185 181 255
0.74205035 -0.25419292 1.5640001 177 184 180 255
0.74206227 -0.25274467 1.5550001 177 184 180 255
0.74154741 -0.25113451 1.5450001 178 186 179 255
0.74146312 -0.24968752 1.536 175 183 176 255
0.73987567 -0.24775341 1.524 177 185 178 255
0.73920149 -0.24614504 1.5140001 177 185 178 255
0.7409302 -0.24535023 1.5090001 178 186 179 255
0.74214047 -0.24439348 1.503 178 186 179 255
0.72725099 -0.29779282 1.8030001 164 172 165 255
0.72850317 -0.2963039 1.794 160 168 161 255
0.7276637 -0.29398975 1.7800001 159 167 160 255
0.7292186 -0.29266721 1.7720001 159 167 160 255
0.73155999 -0.29167566 1.766 161 169 162 255
0.73345327 -0.29051954 1.7590001 158 166 159 255
0.73363119 -0.28870341 1.748 160 168 161 255
0.73501819 -0.28738344 1.7400001 163 171 164 255
0.73593807 -0.28589892 1.7310001 166 174 167 255
0.73595488 -0.28408474 1.72 171 179 172 255
0.73591352 -0.28227121 1.7090001 171 179 172 255
0.73668063 -0.2807886 1.7 175 183 176 255
0.73740065 -0.27930668 1.6910001 177 184 180 255
0.73895097 -0.27815577 1.6840001 176 183 179 255
0.73958194 -0.27667508 1.6750001 175 182 178 255
0.74105442 -0.27552548 1.6680001 177 184 180 255
0.74114978 -0.27388096 1.6580001 178 185 181 255
