ply
format ascii 1.0
comment PCL generated
element vertex 966
property float x
property float y
property float z
property uchar red
property uchar green
property uchar blue
property uchar alpha
element camera 0
property float view_px
property float view_py
property float view_pz
property float x_axisx
property float x_axisy
property float x_axisz
property float y_axisx
property float y_axisy
property float y_axisz
property float z_axisx
property float z_axisy
property float z_axisz
property float focal
property float scalex
property float scaley
property float centerx
property float centery
property int viewportx
property int viewporty
property float k1
property float k2
end_header
0.74217027 -0.01891705 1.5040001 194 199 205 255
-1.004235 -0.025285587 1.6430001 27 28 22 255
-1.0195739 -0.02578746 1.6760001 34 35 29 255
-0.99779767 -0.025350891 1.6480001 27 29 21 255
-0.97377974 -0.024853142 1.6160001 26 26 16 255
-0.96974355 -0.024863161 1.6170001 27 25 15 255
-0.98421133 -0.025349867 1.649 28 24 13 255
-1.0068192 -0.026051685 1.6950001 26 23 9 255
-1.006708 -0.026169423 1.7030001 48 37 22 255
-0.99949908 -0.026102887 1.6990001 56 41 26 255
-0.98997825 -0.025975069 1.6910001 107 82 68 255
-0.98924857 -0.026077801 1.6980001 130 103 89 255
-0.98500735 -0.026088493 1.6990001 140 112 101 255
-0.98076701 -0.026099311 1.7 149 123 115 255
-0.97652757 -0.026110254 1.7010001 106 98 89 255
-0.97114605 -0.026090624 1.7 144 146 136 255
-0.96520817 -0.026055783 1.6980001 53 53 43 255
-0.95702505 -0.025959702 1.692 71 60 47 255
-0.95338404 -0.025986498 1.6940001 76 63 48 255
-0.94917762 -0.025998063 1.6950001 50 37 24 255
-0.94831437 -0.026101761 1.702 64 49 36 255
-0.94575411 -0.026159545 1.7060001 75 59 49 255
-0.94372857 -0.026232762 1.7110001 91 71 63 255
-0.93509525 -0.026122116 1.7040001 124 100 91 255
-0.93032789 -0.026118902 1.7040001 159 133 124 255
-0.92230684 -0.02602385 1.6980001 150 123 109 255
-0.91702598 -0.026005544 1.697 143 113 98 255
-0.91229331 -0.026002677 1.697 143 112 93 255
-0.90810007 -0.026015235 1.6980001 123 93 70 255
-0.90390605 -0.026027901 1.6990001 122 92 67 255
-0.89971101 -0.026040662 1.7 114 86 61 255
-0.89498818 -0.026038207 1.7 116 90 64 255
-0.88922262 -0.026005229 1.6980001 114 89 66 255
-0.88451397 -0.026002979 1.6980001 116 92 66 255
-0.87929142 -0.025985517 1.697 115 91 65 255
-0.87510926 -0.025998777 1.6980001 112 88 62 255
-0.86990023 -0.025981508 1.697 107 85 59 255
-0.86521024 -0.025979642 1.697 99 79 55 255
-0.86255258 -0.026039109 1.7010001 101 83 59 255
-0.85937214 -0.026083348 1.7040001 100 84 60 255
-0.85517555 -0.026097061 1.705 84 71 47 255
-0.85197443 -0.026141472 1.7080001 73 60 36 255
-0.84975255 -0.026216576 1.7130001 72 59 36 255
-0.84947956 -0.026352976 1.7220001 65 52 29 255
-0.84768873 -0.026443537 1.728 67 54 31 255
-0.84879494 -0.026625991 1.7400001 65 52 28 255
-0.84692788 -0.026716704 1.7460001 66 53 29 255
-0.84358406 -0.026761591 1.7490001 66 53 29 255
-0.83926755 -0.026775956 1.7500001 64 51 28 255
-0.83447158 -0.026775101 1.7500001 75 57 33 255
-0.8315748 -0.026835525 1.7540001 74 54 30 255
-0.82677346 -0.026834831 1.7540001 81 57 31 255
-0.82150614 -0.026818914 1.7530001 83 59 33 255
-0.81578082 -0.026787773 1.751 86 62 34 255
-0.81053227 -0.026772015 1.7500001 89 65 37 255
-0.80621231 -0.026786923 1.751 89 66 43 255
-0.80097389 -0.026771311 1.7500001 87 66 44 255
-0.79255843 -0.026648683 1.7420001 83 69 52 255
-0.78373653 -0.026510833 1.733 223 212 197 255
-0.77541518 -0.026388349 1.725 210 208 197 255
-0.76937366 -0.026342427 1.7220001 208 211 199 255
-0.76423848 -0.026327163 1.7210001 192 195 183 255
-0.75999331 -0.026342561 1.7220001 218 221 207 255
-0.75574452 -0.026358023 1.723 213 217 200 255
-0.75149202 -0.026373548 1.7240001 160 162 144 255
-0.7450698 -0.026312646 1.72 107 109 91 255
-0.73953199 -0.0262824 1.7180001 162 162 144 255
-0.7327233 -0.026206318 1.7130001 208 210 193 255
-0.72721839 -0.026176188 1.7110001 212 213 201 255
-0.72088116 -0.026115518 1.7070001 209 211 201 255
-0.71540618 -0.026085498 1.705 208 212 204 255
-0.71036029 -0.026070833 1.7040001 209 215 207 255
-0.70325023 -0.025979722 1.6980001 210 216 208 255
-0.69699687 -0.025919259 1.6940001 210 216 208 255
-0.69035751 -0.025843544 1.6890001 213 217 210 255
-0.6853705 -0.025829082 1.6880001 210 216 209 255
-0.67918003 -0.025768762 1.6840001 208 214 207 255
-0.67181027 -0.025662577 1.677 205 211 204 255
-0.6656732 -0.025602344 1.6730001 205 211 204 255
-0.66034895 -0.025572758 1.6710001 204 210 203 255
-0.65464383 -0.025527911 1.6680001 205 211 204 255
-0.64856607 -0.0254678 1.664 206 210 203 255
-0.64289761 -0.025423033 1.6610001 197 201 193 255
-0.6368618 -0.025362996 1.6570001 196 200 192 255
-0.63161153 -0.025333609 1.6550001 192 197 186 255
-0.62675154 -0.025319571 1.654 192 197 186 255
-0.62227368 -0.025320876 1.654 191 196 185 255
-0.6170494 -0.025291605 1.6520001 188 193 182 255
-0.61183631 -0.025262365 1.6500001 186 191 180 255
-0.60700244 -0.025248468 1.649 191 194 182 255
-0.60217446 -0.025234608 1.6480001 190 193 179 255
-0.59662682 -0.025190154 1.6450001 185 188 174 255
-0.59109557 -0.025145728 1.6420001 183 186 172 255
-0.58629537 -0.025131958 1.641 178 181 167 255
-0.58221006 -0.025148852 1.6420001 181 184 170 255
-0.5781194 -0.025165778 1.6430001 183 188 176 255
-0.5733251 -0.0251521 1.6420001 188 193 181 255
-0.5681898 -0.025123131 1.6400001 188 193 181 255
-0.56340915 -0.025109507 1.6390001 177 182 168 255
-0.55897498 -0.02511123 1.6390001 184 189 175 255
-0.55487913 -0.025128299 1.6400001 174 179 165 255
-0.54977095 -0.025099432 1.6380001 186 192 175 255
-0.5446735 -0.025070582 1.636 180 186 169 255
-0.53991687 -0.025057076 1.6350001 177 183 166 255
-0.53582066 -0.025074245 1.636 181 187 170 255
-0.53106916 -0.025060786 1.6350001 168 174 157 255
-0.52664495 -0.025062671 1.6350001 157 163 145 255
-0.52222061 -0.025064582 1.6350001 167 173 155 255
-0.51779592 -0.02506651 1.6350001 175 181 163 255
-0.51274306 -0.025037793 1.6330001 151 155 137 255
-0.5077005 -0.025009086 1.631 180 185 164 255
-0.50266856 -0.024980394 1.6290001 176 180 162 255
-0.49856472 -0.024997724 1.6300001 162 166 148 255
-0.49354547 -0.024969058 1.628 180 184 166 255
-0.48883721 -0.024955744 1.6270001 168 172 154 255
-0.48443162 -0.02495778 1.6270001 171 175 157 255
-0.48032054 -0.024975169 1.628 172 176 158 255
-0.47591135 -0.024977233 1.628 172 176 158 255
-0.47092229 -0.024948621 1.626 168 174 156 255
-0.46594355 -0.024920017 1.6240001 172 178 160 255
-0.46125939 -0.024906762 1.623 167 173 155 255
-0.45657998 -0.024893515 1.6220001 169 173 155 255
-0.45218429 -0.024895625 1.6220001 166 170 152 255
-0.44778794 -0.024897739 1.6220001 166 170 152 255
-0.44366428 -0.024915213 1.623 150 155 134 255
-0.439264 -0.024917345 1.623 151 156 135 255
-0.43513098 -0.024934838 1.6240001 153 158 137 255
-0.43072662 -0.02493698 1.6240001 161 166 144 255
-0.42632154 -0.024939127 1.6240001 160 165 143 255
-0.42191577 -0.02494128 1.6240001 146 153 132 255
-0.41750929 -0.024943434 1.6240001 149 156 135 255
-0.4128477 -0.024930228 1.623 151 158 137 255
-0.40819079 -0.024917023 1.6220001 151 157 139 255
-0.40328968 -0.024888454 1.6200001 143 149 131 255
-0.39889103 -0.024890605 1.6200001 152 158 140 255
-0.39400461 -0.024862029 1.618 164 170 152 255
-0.38960987 -0.024864176 1.618 175 181 163 255
-0.38473818 -0.024835588 1.6160001 168 174 156 255
-0.38034722 -0.024837727 1.6160001 184 190 172 255
-0.37595552 -0.024839867 1.6160001 173 179 161 255
-0.37156293 -0.024842 1.6160001 161 167 149 255
-0.36716959 -0.024844131 1.6160001 162 167 146 255
-0.36255091 -0.02483088 1.6150001 159 164 142 255
-0.35815853 -0.024832997 1.6150001 140 146 121 255
-0.35354623 -0.024819726 1.6140001 144 148 122 255
-0.34937128 -0.024837209 1.6150001 147 151 125 255
-0.34518996 -0.024854681 1.6160001 148 152 126 255
-0.34163499 -0.024918295 1.6200001 146 150 124 255
-0.33805734 -0.024981907 1.6240001 138 142 116 255
-0.3344571 -0.025045523 1.628 136 140 114 255
-0.33042875 -0.025078366 1.6300001 140 144 118 255
-0.32618856 -0.025095815 1.631 140 143 119 255
-0.32233661 -0.025144033 1.6340001 131 135 109 255
-0.31788382 -0.025146076 1.6340001 124 127 103 255
-0.31323829 -0.025132716 1.6330001 129 132 108 255
-0.30859733 -0.02511934 1.6320001 135 138 116 255
-0.30414727 -0.025121339 1.6320001 88 92 74 255
-0.29932904 -0.025092533 1.6300001 26 30 12 255
-0.29452085 -0.02506371 1.628 26 28 11 255
-0.28918815 -0.024988672 1.623 26 27 13 255
-0.28475907 -0.024990596 1.623 26 25 9 255
-0.27998373 -0.024961706 1.6210001 28 27 11 255
-0.27555841 -0.024963599 1.6210001 27 26 10 255
-0.27096492 -0.024950067 1.6200001 28 27 11 255
-0.26670513 -0.024967318 1.6210001 29 28 12 255
-0.26276255 -0.025015358 1.6240001 27 26 12 255
-0.25912091 -0.025094196 1.6290001 26 25 11 255
-0.25529474 -0.025157621 1.6330001 21 22 10 255
-0.25098506 -0.02517481 1.6340001 36 36 26 255
-0.24636729 -0.025161162 1.6330001 54 56 48 255
-0.24160604 -0.025132082 1.631 64 65 59 255
-0.23714569 -0.025133796 1.631 64 68 61 255
-0.23211388 -0.025073845 1.6270001 79 84 81 255
-0.22696315 -0.024998447 1.6220001 98 102 102 255
-0.22197622 -0.024938429 1.618 94 98 100 255
-0.21714486 -0.024893794 1.6150001 100 104 106 255
-0.21246082 -0.02486454 1.613 92 96 96 255
-0.20778695 -0.024835259 1.6110001 94 96 96 255
-0.20362824 -0.024867617 1.613 76 79 75 255
-0.19945787 -0.024899952 1.6150001 75 78 74 255
-0.19515498 -0.024916843 1.6160001 70 73 69 255
-0.19060989 -0.024902875 1.6150001 66 69 65 255
-0.18606952 -0.024888873 1.6140001 77 80 76 255
-0.18175901 -0.024905685 1.6150001 76 80 73 255
-0.17766193 -0.024953315 1.618 72 76 69 255
-0.17365478 -0.025016345 1.6220001 69 73 66 255
-0.1694164 -0.025048507 1.6240001 64 68 61 255
-0.16506478 -0.025065215 1.6250001 58 62 55 255
-0.16050939 -0.025051048 1.6240001 63 67 60 255
-0.15605493 -0.02505227 1.6240001 65 66 60 255
-0.15159982 -0.025053462 1.6240001 66 67 61 255
-0.14705354 -0.025039198 1.623 85 86 80 255
-0.14259999 -0.025040329 1.623 83 87 80 255
-0.13814589 -0.025041429 1.623 75 79 72 255
-0.13369121 -0.025042498 1.623 73 77 70 255
-0.12923598 -0.025043532 1.623 74 78 71 255
-0.12508777 -0.025106261 1.6270001 72 76 69 255
-0.12106535 -0.025199823 1.6330001 68 72 65 255
-0.11708086 -0.025308793 1.6400001 68 70 62 255
-0.11312608 -0.02543317 1.6480001 66 68 60 255
-0.10886329 -0.025495786 1.6520001 66 68 60 255
-0.10451493 -0.025542939 1.6550001 65 67 59 255
-0.099787205 -0.025497455 1.6520001 61 63 55 255
-0.095248528 -0.025498239 1.6520001 61 62 56 255
-0.090709448 -0.025498986 1.6520001 63 64 58 255
-0.086326458 -0.025546005 1.6550001 61 65 58 255
-0.081877209 -0.025577554 1.6570001 60 64 57 255
-0.077416606 -0.02560907 1.659 62 66 59 255
-0.073032536 -0.02567143 1.6630001 60 64 57 255
-0.068584971 -0.025718315 1.6660001 59 63 56 255
-0.064082205 -0.025749728 1.6680001 62 63 57 255
-0.059461154 -0.025734792 1.6670001 67 68 62 255
-0.054878272 -0.025735259 1.6670001 65 69 62 255
-0.050325315 -0.025751125 1.6680001 65 69 62 255
-0.045739226 -0.025751518 1.6680001 67 71 64 255
-0.041202281 -0.025782751 1.6700001 66 70 63 255
-0.036632232 -0.025798507 1.6710001 66 70 63 255
-0.032094877 -0.025845103 1.674 63 67 60 255
-0.027540876 -0.025891664 1.677 66 70 63 255
-0.022997601 -0.025969068 1.682 67 71 64 255
-0.018437652 -0.026061876 1.6880001 65 69 62 255
-0.013852794 -0.026170086 1.6950001 65 69 62 255
-0.0092076818 -0.026216498 1.6980001 65 66 60 255
-0.0045353398 -0.026201114 1.697 66 67 61 255
0.00013167712 -0.026216574 1.6980001 65 66 60 255
0.004815504 -0.026293751 1.7030001 65 66 60 255
0.0095212348 -0.026355453 1.7070001 60 64 57 255
0.014215613 -0.026355356 1.7070001 63 67 60 255
0.018932082 -0.026386097 1.7090001 67 71 64 255
0.023673298 -0.02643224 1.7120001 62 68 61 255
0.02841433 -0.026462905 1.7140001 64 68 61 255
0.03312758 -0.026462654 1.7140001 62 66 59 255
0.037862767 -0.026477801 1.715 60 64 57 255
0.042603292 -0.02649291 1.7160001 65 69 62 255
0.047321551 -0.026492545 1.7160001 64 70 63 255
0.052039605 -0.026492141 1.7160001 66 70 63 255
0.056823578 -0.026522573 1.7180001 68 72 65 255
0.061475012 -0.026491215 1.7160001 67 71 64 255
0.066192321 -0.026490694 1.7160001 67 71 64 255
0.07086803 -0.026474703 1.715 67 71 64 255
0.075714223 -0.026520418 1.7180001 67 71 64 255
0.080529757 -0.02655066 1.72 64 68 61 255
0.085504644 -0.026627168 1.725 63 66 62 255
0.090245076 -0.026626462 1.725 63 66 62 255
0.095205367 -0.026687454 1.7290001 63 66 62 255
0.10007162 -0.026717542 1.7310001 61 64 60 255
0.10506955 -0.026778456 1.7350001 61 65 58 255
0.10983578 -0.026777592 1.7350001 59 63 56 255
0.11466763 -0.026792128 1.7360001 63 67 60 255
0.11922927 -0.026744898 1.733 73 77 70 255
0.12406013 -0.026759362 1.7340001 71 75 68 255
0.12874737 -0.026742926 1.733 68 72 65 255
0.13365972 -0.026772751 1.7350001 70 74 67 255
0.13842294 -0.026771678 1.7350001 68 74 67 255
0.14343314 -0.026816856 1.738 70 74 67 255
0.14837398 -0.026846569 1.7400001 70 74 67 255
0.15367724 -0.026937958 1.7460001 73 77 70 255
0.15892206 -0.027013877 1.751 72 76 69 255
0.16410019 -0.027074331 1.7550001 69 73 66 255
0.16862585 -0.027026759 1.7520001 67 70 66 255
0.17333236 -0.027010011 1.751 68 71 67 255
0.17803274 -0.026993232 1.7500001 65 70 66 255
0.18304031 -0.027022695 1.7520001 66 69 65 255
0.18795095 -0.027036699 1.7530001 68 71 67 255
0.19286633 -0.027050668 1.7540001 67 70 66 255
0.19722298 -0.026987502 1.7500001 63 66 62 255
0.20132604 -0.026893467 1.7440001 60 63 60 255
0.20551361 -0.026814831 1.7390001 64 67 63 255
0.21003583 -0.026782436 1.7370001 66 69 66 255
0.21479358 -0.026780849 1.7370001 74 77 74 255
0.21980333 -0.026810067 1.7390001 74 76 76 255
0.22495233 -0.02685467 1.7420001 70 72 72 255
0.73280036 -0.028173227 1.8410001 151 157 159 255
0.73097777 -0.027912011 1.8240001 152 156 158 255
0.72946727 -0.027666168 1.8080001 151 155 157 255
0.73030829 -0.027512204 1.7980001 148 152 154 255
0.72986937 -0.0273124 1.7850001 149 153 153 255
0.73018426 -0.027143262 1.774 144 148 148 255
0.73044074 -0.026974192 1.7630001 144 148 150 255
0.73147267 -0.026835784 1.7540001 139 143 145 255
0.73371637 -0.026743338 1.748 143 149 151 255
0.73508394 -0.026620356 1.7400001 145 151 154 255
0.73513377 -0.026451537 1.7290001 148 154 157 255
0.73512536 -0.026282785 1.7180001 151 157 159 255
0.73678112 -0.026175292 1.7110001 156 162 165 255
0.73796695 -0.026052561 1.7030001 159 165 168 255
0.73736674 -0.025868703 1.6910001 164 170 173 255
0.73670292 -0.02568491 1.6790001 167 172 178 255
0.73774135 -0.025562372 1.6710001 169 174 180 255
0.73873806 -0.025439899 1.6630001 171 176 182 255
0.74103385 -0.025363382 1.6580001 177 182 188 255
0.74150556 -0.025225738 1.649 177 182 188 255
0.74328732 -0.025134053 1.6430001 180 185 191 255
0.74185252 -0.024935348 1.6300001 183 188 194 255
0.74080664 -0.024752 1.618 184 189 195 255
0.74107909 -0.024614615 1.6090001 185 190 196 255
0.74084127 -0.024461992 1.5990001 186 191 197 255
0.74288118 -0.024385927 1.5940001 188 193 199 255
0.74348974 -0.024264032 1.5860001 188 193 199 255
0.74641442 -0.024218695 1.5830001 189 194 200 255
0.74600524 -0.024066331 1.5730001 191 196 202 255
0.74458987 -0.02388343 1.5610001 189 194 200 255
0.74119216 -0.023639388 1.5450001 192 197 203 255
0.74205166 -0.023533111 1.5380001 192 197 203 255
0.74336064 -0.023442199 1.5320001 194 199 205 255
0.74463916 -0.023351355 1.526 194 199 205 255
0.74343413 -0.023184067 1.5150001 193 198 205 255
0.74365175 -0.023062745 1.5070001 193 198 205 255
-0.98872179 -0.029594729 1.6330001 28 30 20 255
-0.97800374 -0.029406989 1.623 30 31 19 255
-0.98654151 -0.029799178 1.6450001 30 28 17 255
-1.0080129 -0.030728396 1.697 28 24 13 255
-1.003758 -0.030740369 1.6980001 37 28 15 255
-0.99244499 -0.03053529 1.687 59 44 31 255
-0.989398 -0.030583808 1.6900001 69 50 38 255
-0.99333191 -0.030849591 1.705 118 95 81 255
-0.98965043 -0.030880254 1.7070001 142 117 103 255
-0.98307961 -0.030820621 1.7040001 145 117 109 255
-0.97653222 -0.03076116 1.7010001 101 89 80 255
-0.9734357 -0.030810352 1.7040001 150 140 131 255
-0.97089702 -0.030877762 1.7080001 64 56 47 255
-0.96325123 -0.030782608 1.7030001 79 68 55 255
-0.95676506 -0.030723779 1.7 80 65 50 255
-0.95086163 -0.030683177 1.6980001 69 54 39 255
-0.94831824 -0.03075113 1.702 65 50 37 255
-0.94464928 -0.030783074 1.7040001 78 61 51 255
-0.94152611 -0.030833205 1.7070001 92 72 64 255
-0.93454999 -0.030757036 1.7030001 139 115 107 255
-0.92978537 -0.030753251 1.7030001 173 145 136 255
-0.92231017 -0.03065932 1.6980001 169 140 126 255
-0.91756964 -0.030655809 1.6980001 143 111 96 255
-0.91229647 -0.030634372 1.697 135 102 81 255
-0.90970749 -0.030703317 1.7010001 123 91 68 255
-0.905505 -0.030718226 1.702 114 85 57 255
-0.90183073 -0.030751301 1.7040001 115 86 58 255
-0.89657021 -0.030730356 1.7030001 108 81 53 255
-0.89027238 -0.030673442 1.7 112 86 58 255
-0.88660002 -0.030706873 1.702 107 81 53 255
-0.88395709 -0.030776491 1.7060001 112 88 60 255
-0.88129586 -0.030846212 1.71 112 88 60 255
-0.87502843 -0.030789776 1.7070001 113 89 61 255
-0.8718403 -0.030841673 1.71 106 84 56 255
-0.86661124 -0.030821538 1.7090001 97 77 51 255
-0.86391288 -0.030891677 1.7130001 97 79 53 255
-0.85818672 -0.030853722 1.7110001 89 73 49 255
-0.85596657 -0.030942097 1.7160001 77 63 39 255
-0.8522343 -0.030976476 1.7180001 73 60 36 255
-0.85096085 -0.031101102 1.725 72 59 35 255
-0.85063338 -0.03126188 1.7340001 69 56 33 255
-0.85123521 -0.031458795 1.7450001 68 55 32 255
-0.85032457 -0.031601712 1.7530001 67 54 31 255
-0.84551448 -0.031600509 1.7530001 69 55 32 255
-0.8431052 -0.031689528 1.7580001 69 55 32 255
-0.83828723 -0.031688515 1.7580001 76 57 35 255
-0.83536845 -0.031759694 1.7620001 77 57 33 255
-0.82960236 -0.031722818 1.7600001 80 58 32 255
-0.82478708 -0.031722084 1.7600001 87 63 37 255
-0.81904268 -0.031685397 1.7580001 91 67 39 255
-0.81516421 -0.031720888 1.7600001 92 68 42 255
-0.80943578 -0.031684384 1.7580001 94 69 46 255
-0.80326271 -0.031629935 1.7550001 96 76 58 255
-0.79346853 -0.031431396 1.7440001 169 156 141 255
-0.78509331 -0.031287011 1.7360001 221 212 199 255
-0.77721339 -0.031160733 1.7290001 211 209 198 255
-0.77205437 -0.031142669 1.728 206 209 197 255
-0.7673468 -0.031142706 1.728 208 211 197 255
-0.76264119 -0.03114282 1.728 173 176 162 255
-0.75706011 -0.031106966 1.7260001 149 152 138 255
-0.75192761 -0.031089211 1.725 120 122 105 255
-0.74550265 -0.031017458 1.7210001 221 222 208 255
-0.74039245 -0.030999845 1.72 215 216 204 255
-0.73400605 -0.030928232 1.7160001 211 213 203 255
-0.72764295 -0.030856688 1.7120001 214 218 210 255
-0.72130287 -0.030785209 1.7080001 213 217 209 255
-0.71540552 -0.030731812 1.705 212 218 210 255
-0.71077645 -0.030732561 1.705 215 219 211 255
-0.70407778 -0.030643245 1.7 215 219 211 255
-0.69823033 -0.030590033 1.697 216 220 212 255
-0.69199151 -0.030518858 1.6930001 218 222 215 255
-0.68658763 -0.030483792 1.6910001 219 223 216 255
-0.67917895 -0.030358644 1.6840001 216 222 215 255
-0.67220986 -0.030251574 1.6780001 214 220 213 255
-0.66606998 -0.030180607 1.674 214 220 213 255
-0.66113818 -0.030163778 1.6730001 205 211 204 255
-0.65503502 -0.030092912 1.669 204 210 203 255
-0.64895457 -0.030022096 1.6650001 198 204 197 255
-0.64289635 -0.029951321 1.6610001 200 206 198 255
-0.63686055 -0.029880589 1.6570001 195 201 193 255
-0.63046527 -0.029791864 1.6520001 192 199 188 255
-0.62561333 -0.029775318 1.651 188 195 184 255
-0.62076741 -0.029758818 1.6500001 191 198 187 255
-0.61630082 -0.029760394 1.6500001 188 195 184 255
-0.61146396 -0.029743979 1.649 186 191 179 255
-0.60663283 -0.029727606 1.6480001 184 189 177 255
-0.60217291 -0.029729314 1.6480001 174 179 165 255
-0.59662521 -0.029676938 1.6450001 176 181 167 255
-0.5910939 -0.029624596 1.6420001 172 176 159 255
-0.58665091 -0.029626416 1.6420001 171 175 158 255
-0.58256292 -0.02964632 1.6430001 183 187 170 255
-0.5788213 -0.029684301 1.6450001 179 183 166 255
-0.57402164 -0.02966819 1.6440001 179 183 165 255
-0.56888086 -0.029634062 1.6420001 178 182 164 255
-0.56409478 -0.029618008 1.641 165 169 151 255
-0.55965519 -0.029620035 1.641 165 169 151 255
-0.55521554 -0.029622095 1.641 178 182 164 255
-0.55044025 -0.029606137 1.6400001 180 184 166 255
-0.54533738 -0.029572152 1.6380001 179 183 165 255
-0.54123574 -0.02959235 1.6390001 177 181 163 255
-0.53680116 -0.029594524 1.6390001 171 175 157 255
-0.53236639 -0.029596727 1.6390001 189 194 173 255
-0.52696502 -0.029544773 1.636 186 191 170 255
-0.52253789 -0.029547021 1.636 181 186 164 255
-0.51811045 -0.029549291 1.636 176 181 159 255
-0.51336884 -0.029533524 1.6350001 179 182 160 255
-0.50863224 -0.029517774 1.6340001 174 177 155 255
-0.50390071 -0.02950204 1.6330001 169 174 153 255
-0.49917427 -0.029486323 1.6320001 172 177 156 255
-0.49414968 -0.029452555 1.6300001 163 167 149 255
-0.48943594 -0.029436864 1.6290001 158 164 146 255
-0.48532262 -0.029457338 1.6300001 160 166 148 255
-0.48090839 -0.029459754 1.6300001 171 177 159 255
-0.47678605 -0.02948026 1.631 175 181 163 255
-0.47207856 -0.029464632 1.6300001 174 180 162 255
-0.46737587 -0.029449014 1.6290001 174 180 162 255
-0.46210971 -0.029397245 1.626 172 178 160 255
-0.4574222 -0.029381642 1.6250001 167 173 155 255
-0.45301837 -0.029384127 1.6250001 167 173 155 255
-0.44888988 -0.029404704 1.626 160 167 146 255
-0.44420871 -0.029389124 1.6250001 145 150 128 255
-0.44007361 -0.029409723 1.626 148 153 131 255
-0.43539655 -0.029394155 1.6250001 149 156 134 255
-0.43151999 -0.029432863 1.6270001 153 160 138 255
-0.42710677 -0.029435396 1.6270001 154 161 139 255
-0.42269281 -0.029437933 1.6270001 152 159 138 255
-0.41776407 -0.029404286 1.6250001 144 151 130 255
-0.4133541 -0.029406823 1.6250001 154 159 138 255
-0.4091951 -0.029427461 1.626 161 166 145 255
-0.40428308 -0.029393811 1.6240001 153 158 137 255
-0.39962736 -0.029378248 1.623 158 165 144 255
-0.39473277 -0.029344579 1.6210001 160 167 146 255
-0.3903299 -0.029347116 1.6210001 168 174 156 255
-0.38545009 -0.029313438 1.6190001 172 178 160 255
-0.38081565 -0.029297857 1.618 173 179 162 255
-0.3764185 -0.029300377 1.618 171 177 159 255
-0.37179056 -0.029284785 1.6170001 166 172 154 255
-0.36694005 -0.029251065 1.6150001 158 164 146 255
-0.36254856 -0.029253567 1.6150001 165 172 151 255
-0.35837796 -0.029274167 1.6160001 137 144 122 255
-0.35376298 -0.029258538 1.6150001 139 145 120 255
-0.34958529 -0.029279133 1.6160001 141 145 119 255
-0.34540126 -0.029299717 1.6170001 144 148 122 255
-0.34205449 -0.029392784 1.6220001 141 145 119 255
-0.33847141 -0.02946773 1.626 133 137 111 255
-0.33466029 -0.029524554 1.6290001 127 130 106 255
-0.33042651 -0.029545121 1.6300001 137 140 116 255
-0.32638636 -0.029583804 1.6320001 142 145 121 255
-0.32233438 -0.029622475 1.6340001 135 138 114 255
-0.31807613 -0.029643012 1.6350001 117 120 96 255
-0.3134279 -0.029627275 1.6340001 128 132 106 255
-0.30897328 -0.029629646 1.6340001 134 137 113 255
-0.30451784 -0.029632004 1.6340001 91 93 73 255
-0.29987782 -0.029616209 1.6330001 22 24 4 255
-0.29488057 -0.029564118 1.6300001 28 28 10 255
-0.28989878 -0.029511992 1.6270001 28 27 11 255
-0.28528339 -0.029496128 1.626 31 28 12 255
-0.28049982 -0.029462092 1.6240001 31 28 12 255
-0.27589631 -0.029446173 1.623 26 23 7 255
-0.27129743 -0.029430235 1.6220001 29 26 10 255
-0.26686764 -0.029432416 1.6220001 28 27 11 255
-0.26292241 -0.029489014 1.6250001 26 25 9 255
-0.259278 -0.029581893 1.6300001 27 26 12 255
-0.25544912 -0.029656613 1.6340001 21 22 10 255
-0.25113672 -0.029676866 1.6350001 50 50 40 255
-0.24651624 -0.029660787 1.6340001 58 59 53 255
-0.24190044 -0.029644687 1.6330001 59 60 56 255
-0.23728923 -0.029628551 1.6320001 80 83 80 255
-0.23196939 -0.029521605 1.626 101 103 103 255
-0.22682144 -0.029432775 1.6210001 95 99 101 255
-0.22183728 -0.029362066 1.6170001 92 96 98 255
-0.21727757 -0.029345797 1.6160001 101 105 107 255
-0.21272255 -0.029329496 1.6150001 98 102 102 255
-0.20817223 -0.029313162 1.6140001 99 102 99 255
-0.2038791 -0.029333122 1.6150001 72 75 71 255
-0.19945626 -0.029334888 1.6150001 69 72 68 255
-0.1951534 -0.029354788 1.6160001 65 68 64 255
-0.19072632 -0.029356495 1.6160001 79 82 78 255
-0.18618326 -0.029339999 1.6150001 74 77 73 255
-0.18187006 -0.029359808 1.6160001 71 75 68 255
-0.17755066 -0.029379584 1.6170001 67 71 64 255
-0.1734392 -0.02943567 1.6200001 66 70 63 255
-0.16931066 -0.029491726 1.623 61 65 58 255
-0.16496183 -0.029511407 1.6240001 60 64 57 255
-0.16031037 -0.029476538 1.6220001 61 65 58 255
-0.15586142 -0.02947798 1.6220001 69 70 64 255
-0.15131849 -0.029461209 1.6210001 84 85 79 255
-0.1469617 -0.029480753 1.6220001 85 86 80 255
-0.14251094 -0.029482085 1.6220001 80 81 75 255
-0.1380596 -0.029483374 1.6220001 76 80 73 255
-0.13352533 -0.029466456 1.6210001 73 77 70 255
-0.12907563 -0.029467672 1.6210001 72 76 69 255
-0.12477916 -0.029505212 1.623 76 80 73 255
-0.12069361 -0.029597254 1.628 72 76 69 255
-0.11665149 -0.029707447 1.6340001 70 74 66 255
-0.11271324 -0.029853972 1.6420001 70 72 64 255
-0.10866465 -0.029982286 1.649 71 73 63 255
-0.10432456 -0.030037832 1.6520001 66 68 58 255
-0.099544726 -0.029966062 1.6480001 67 69 61 255
-0.094901755 -0.02993061 1.646 65 66 60 255
-0.09032429 -0.029913308 1.6450001 66 67 61 255
-0.08590842 -0.029950514 1.6470001 64 68 61 255
-0.081431784 -0.029969495 1.6480001 67 71 64 255
-0.076995961 -0.030006621 1.6500001 63 67 60 255
-0.072548814 -0.030043706 1.6520001 63 67 60 255
-0.068172693 -0.030117121 1.6560001 68 69 63 255
-0.063697457 -0.030154128 1.6580001 67 68 62 255
-0.059139606 -0.030154714 1.6580001 67 71 64 255
-0.054581504 -0.03015526 1.6580001 68 72 65 255
-0.050083507 -0.030192137 1.6600001 65 69 62 255
-0.045546871 -0.030210784 1.6610001 67 71 64 255
-0.041053884 -0.030265765 1.664 66 70 63 255
-0.036522295 -0.030302517 1.6660001 70 71 65 255
-0.032017905 -0.030375604 1.6700001 68 69 63 255
-0.027491363 -0.030448645 1.674 67 68 62 255
-0.022970054 -0.030558025 1.6800001 67 71 64 255
-0.018404718 -0.030649168 1.6850001 67 71 64 255
-0.013828151 -0.030776652 1.692 65 69 62 255
-0.0091859093 -0.030813143 1.6940001 63 67 60 255
-0.0045246091 -0.030795019 1.6930001 65 66 60 255
0.00013128821 -0.030795041 1.6930001 64 65 59 255
0.0047984952 -0.030867774 1.697 65 66 60 255
0.009487683 -0.030940466 1.7010001 62 66 59 255
0.014182174 -0.030976731 1.7030001 62 66 59 255
0.018876527 -0.030994762 1.7040001 65 69 62 255
0.023590118 -0.031030934 1.7060001 63 69 62 255
0.028264878 -0.031012496 1.705 65 69 62 255
0.032953341 -0.031012198 1.705 67 71 64 255
0.037619587 -0.03099367 1.7040001 66 70 63 255
0.042304996 -0.030993287 1.7040001 68 72 65 255
0.04701779 -0.031011041 1.705 68 72 65 255
0.051766213 -0.031046947 1.7070001 69 73 66 255
0.056525402 -0.031082803 1.7090001 69 73 66 255
0.061259519 -0.031100426 1.71 66 70 63 255
0.065960295 -0.031099815 1.71 68 72 65 255
0.070743442 -0.031135537 1.7120001 66 70 63 255
0.075493202 -0.031153027 1.7130001 65 69 62 255
0.080341771 -0.031206841 1.7160001 65 69 62 255
0.085156918 -0.031242421 1.7180001 61 65 58 255
0.090087332 -0.031314332 1.7220001 62 65 61 255
0.094819091 -0.031313453 1.7220001 60 63 59 255
0.099608243 -0.031330716 1.723 58 63 59 255
0.10440249 -0.031347938 1.7240001 68 71 67 255
0.10913847 -0.031346928 1.7240001 73 76 72 255
0.1137419 -0.031309515 1.7220001 72 75 71 255
0.11840265 -0.031290244 1.7210001 72 76 69 255
0.12305743 -0.031270932 1.72 73 77 70 255
0.12785478 -0.031287942 1.7210001 72 76 69 255
0.1326571 -0.031304907 1.7220001 71 75 68 255
0.13762392 -0.031358186 1.725 72 76 69 255
0.14260665 -0.031411421 1.728 70 74 67 255
0.14769055 -0.03148279 1.7320001 69 73 66 255
0.15279578 -0.03155411 1.7360001 71 75 68 255
0.15810388 -0.031661734 1.7420001 69 75 68 255
0.16335076 -0.031751137 1.7470001 69 73 66 255
0.16843195 -0.031804148 1.7500001 71 75 68 255
0.17323193 -0.031802591 1.7500001 70 74 67 255
0.17803125 -0.031800997 1.7500001 71 75 68 255
0.18293431 -0.031817533 1.751 66 69 65 255
0.18784218 -0.031834036 1.7520001 65 68 64 255
0.19253488 -0.031814158 1.751 65 68 64 255
0.19699596 -0.031757914 1.748 65 68 64 255
0.20097807 -0.031628966 1.7410001 59 62 58 255
0.20515741 -0.031536333 1.7360001 64 67 63 255
0.20930858 -0.03144367 1.7310001 65 68 65 255
0.21404986 -0.031441808 1.7310001 70 73 70 255
0.21891677 -0.031458076 1.7320001 74 77 74 255
0.22404657 -0.031510632 1.7350001 77 80 77 255
0.22892827 -0.031526823 1.7360001 81 84 81 255
0.2338146 -0.031542983 1.7370001 78 81 78 255
0.2586121 -0.031659599 1.7440001 58 63 60 255
0.26398456 -0.031730019 1.748 68 71 67 255
0.26907057 -0.031764101 1.7500001 72 75 71 255
0.27479243 -0.031870745 1.756 68 71 67 255
0.28054628 -0.031977355 1.7620001 74 77 73 255
0.28600803 -0.032047622 1.766 68 71 67 255
0.32084218 -0.032139499 1.7720001 103 105 105 255
0.32622716 -0.032191385 1.7750001 65 67 67 255
0.32994893 -0.032080039 1.7690001 70 72 72 255
0.33363703 -0.031968683 1.7630001 61 64 61 255
0.33786732 -0.031911731 1.7600001 64 67 64 255
0.34363788 -0.031999804 1.7650001 68 71 68 255
0.34903991 -0.032051589 1.7680001 67 72 68 255
0.35385683 -0.032048974 1.7680001 56 61 57 255
0.35806417 -0.031991959 1.7650001 54 59 55 255
0.36287108 -0.03198931 1.7650001 57 60 56 255
0.36788523 -0.032004774 1.766 70 73 70 255
0.37248188 -0.031983983 1.7650001 71 74 71 255
0.37685835 -0.031945057 1.7630001 65 68 65 255
0.3818725 -0.031960484 1.7640001 62 65 62 255
0.73420763 -0.033716965 1.8700001 160 164 166 255
0.73532128 -0.033535272 1.8600001 157 163 165 255
0.73399335 -0.03324547 1.8440001 153 159 161 255
0.73298037 -0.032973785 1.8290001 151 155 157 255
0.73229051 -0.032720208 1.8150001 148 152 154 255
0.73436898 -0.0325929 1.8080001 146 150 152 255
0.73232174 -0.0322854 1.7910001 142 146 146 255
0.73100668 -0.032014031 1.7760001 146 150 150 255
0.72961134 -0.031742748 1.761 142 146 148 255
0.73105502 -0.031597715 1.7530001 140 144 144 255
0.73329598 -0.031488802 1.7470001 140 146 148 255
0.73592824 -0.031397991 1.7420001 144 150 152 255
0.73683393 -0.031235153 1.733 149 155 157 255
0.73769224 -0.031072391 1.7240001 152 158 160 255
0.73850304 -0.030909702 1.715 154 160 163 255
0.73883325 -0.030729068 1.705 162 168 171 255
0.7373665 -0.030476421 1.6910001 165 170 176 255
0.73758024 -0.03029594 1.6810001 167 172 178 255
0.73906571 -0.030169601 1.674 168 173 179 255
0.74051487 -0.030043334 1.6670001 171 176 182 255
0.74148077 -0.029899124 1.659 175 180 186 255
0.74195528 -0.029736968 1.6500001 178 183 189 255
0.7428351 -0.029592909 1.6420001 179 184 190 255
0.74139762 -0.029358812 1.6290001 181 187 190 255
0.73989123 -0.029124789 1.6160001 183 188 194 255
0.74107951 -0.02899898 1.6090001 185 190 196 255
0.74084169 -0.028819177 1.5990001 185 190 196 255
0.74288172 -0.028729565 1.5940001 186 191 197 255
0.74349034 -0.028585961 1.5860001 187 192 198 255
0.74594355 -0.028514527 1.582 189 194 200 255
0.74505746 -0.028316999 1.5710001 187 192 198 255
0.7450676 -0.028155597 1.562 183 188 194 255
0.74359173 -0.027940195 1.5500001 191 196 202 255
0.74494743 -0.027833018 1.544 192 197 203 255
0.74433208 -0.027653813 1.534 194 199 205 255
0.74512833 -0.027528767 1.5270001 194 199 205 255
0.74343532 -0.02731365 1.5150001 194 199 205 255
0.7466138 -0.0272789 1.5130001 193 198 204 255
0.74730295 -0.027154081 1.506 195 200 206 255
-0.99841642 -0.034403209 1.649 32 32 22 255
-0.99970406 -0.034604177 1.659 30 30 20 255
-1.0117368 -0.035180613 1.687 29 27 16 255
-1.0116793 -0.035340007 1.6950001 29 27 16 255
-0.98539191 -0.0349021 1.6750001 50 38 28 255
-0.98998964 -0.035228826 1.6910001 51 35 25 255
-0.99858135 -0.035701416 1.7140001 71 54 42 255
-0.99139553 -0.035611723 1.71 123 100 86 255
-0.98539299 -0.035563882 1.7080001 135 111 102 255
-0.97940826 -0.035516232 1.7060001 137 116 104 255
-0.97572625 -0.035552029 1.7080001 141 124 119 255
-0.97715509 -0.035775289 1.7190001 135 123 114 255
-0.97117496 -0.035728134 1.7170001 100 88 79 255
-0.96633768 -0.035722777 1.7170001 89 78 63 255
-0.95534635 -0.035488758 1.7060001 85 70 55 255
-0.94943732 -0.035442166 1.7040001 83 68 55 255
-0.94797993 -0.035562113 1.71 83 66 56 255
-0.94318503 -0.035557423 1.71 136 116 108 255
-0.937298 -0.035511307 1.7080001 88 64 55 255
-0.93197334 -0.035486143 1.7070001 190 162 153 255
-0.92611611 -0.035440352 1.705 177 148 134 255
-0.92081571 -0.035415508 1.7040001 138 106 91 255
-0.91552562 -0.035390809 1.7030001 125 92 71 255
-0.91131538 -0.035407823 1.7040001 120 88 63 255
-0.90870041 -0.035487302 1.7080001 114 82 55 255
-0.90606797 -0.035566919 1.7120001 116 87 59 255
-0.90236443 -0.035605103 1.7140001 111 84 56 255
-0.89655966 -0.035560336 1.7120001 113 86 58 255
-0.89077026 -0.035515711 1.71 110 84 56 255
-0.8881048 -0.035595838 1.7140001 108 84 56 255
-0.88335997 -0.035593018 1.7140001 112 88 60 255
-0.87964427 -0.035631858 1.7160001 114 90 62 255
-0.87592137 -0.035670824 1.7180001 110 86 58 255
-0.87168425 -0.035689149 1.7190001 102 82 56 255
-0.86794955 -0.035728354 1.7210001 96 76 50 255
-0.86220121 -0.035684649 1.7190001 87 71 47 255
-0.86245316 -0.035890166 1.7290001 78 64 40 255
-0.85670072 -0.035846695 1.7270001 75 62 38 255
-0.85638899 -0.03603166 1.7360001 73 60 37 255
-0.85652161 -0.036237478 1.7460001 72 59 36 255
-0.85806608 -0.036505662 1.7590001 71 58 35 255
-0.85372132 -0.036524903 1.7600001 72 58 38 255
-0.84744495 -0.036461245 1.7570001 73 59 39 255
-0.84598374 -0.03660522 1.7640001 70 56 36 255
-0.84305662 -0.03668705 1.7680001 68 53 33 255
-0.83963627 -0.03674823 1.771 70 53 33 255
-0.83337408 -0.03668502 1.7680001 79 60 38 255
-0.82853693 -0.03668417 1.7680001 77 58 36 255
-0.82323629 -0.036662672 1.7670001 95 77 53 255
-0.81979644 -0.036724277 1.7700001 98 77 55 255
-0.81357998 -0.036661487 1.7670001 103 82 62 255
-0.80509382 -0.036495071 1.7590001 93 78 59 255
-0.79483372 -0.036245763 1.7470001 174 160 143 255
-0.78645027 -0.036079545 1.7390001 218 211 198 255
-0.77991056 -0.035996411 1.7350001 206 207 195 255
-0.77339476 -0.035913367 1.7310001 204 207 193 255
-0.76912308 -0.035934154 1.7320001 203 206 192 255
-0.7648477 -0.03595503 1.733 167 170 156 255
-0.76013017 -0.035955247 1.733 121 124 110 255
-0.75410682 -0.035893314 1.7300001 223 224 212 255
-0.74766815 -0.035810702 1.7260001 205 207 197 255
-0.74168342 -0.035748936 1.723 211 212 206 255
-0.73486096 -0.035645742 1.7180001 213 217 210 255
-0.72891736 -0.035584126 1.715 214 218 211 255
-0.72256911 -0.035501834 1.7110001 217 221 214 255
-0.71708316 -0.035461117 1.7090001 218 222 215 255
-0.71119249 -0.035399728 1.7060001 217 221 214 255
-0.70449102 -0.035296902 1.7010001 216 220 212 255
-0.69781792 -0.03519414 1.6960001 214 218 210 255
-0.69199055 -0.035132952 1.6930001 218 222 215 255
-0.68658662 -0.035092581 1.6910001 220 224 217 255
-0.67998445 -0.034990013 1.6860001 219 223 216 255
-0.67300987 -0.034866754 1.6800001 220 226 219 255
-0.66646665 -0.034764301 1.6750001 219 225 218 255
-0.66074163 -0.034703415 1.6720001 217 223 216 255
-0.65464127 -0.034621831 1.6680001 215 221 214 255
-0.64895314 -0.034561057 1.6650001 212 218 211 255
-0.64289492 -0.034479581 1.6610001 204 210 202 255
-0.63685894 -0.03439815 1.6570001 194 200 192 255
-0.63122696 -0.034337532 1.654 185 192 181 255
-0.62599069 -0.03429772 1.6520001 183 190 178 255
-0.62076575 -0.03425796 1.6500001 182 189 177 255
-0.61592561 -0.034239009 1.649 180 187 175 255
-0.61109138 -0.034220107 1.6480001 188 193 179 255
-0.6058948 -0.034180488 1.646 180 185 171 255
-0.60144019 -0.034182448 1.646 168 174 157 255
-0.59626055 -0.034142919 1.6440001 164 170 153 255
-0.59109199 -0.034103423 1.6420001 174 180 163 255
-0.586649 -0.034105517 1.6420001 161 165 147 255
-0.58220625 -0.034107652 1.6420001 172 176 158 255
-0.57811552 -0.034130603 1.6430001 175 179 161 255
-0.57332122 -0.034112047 1.6420001 175 177 159 255
-0.56853223 -0.034093525 1.641 177 179 161 255
-0.56443638 -0.0341166 1.6420001 170 172 154 255
-0.5603351 -0.034139715 1.6430001 169 171 153 255
-0.55555165 -0.034121305 1.6420001 175 177 159 255
-0.55043805 -0.034082148 1.6400001 176 178 160 255
-0.54533505 -0.034043018 1.6380001 171 173 155 255
-0.54123348 -0.034066267 1.6390001 169 173 155 255
-0.53712636 -0.034089558 1.6400001 161 166 145 255
-0.5326888 -0.034092087 1.6400001 157 162 141 255
-0.52760684 -0.034053072 1.6380001 160 165 144 255
-0.52285492 -0.034034867 1.6370001 154 159 138 255
-0.51810801 -0.034016684 1.636 177 182 160 255
-0.51368034 -0.034019325 1.636 183 186 164 255
-0.50956362 -0.034042783 1.6370001 177 182 160 255
-0.5051325 -0.034045469 1.6370001 181 186 165 255
-0.5010069 -0.034068979 1.6380001 179 184 163 255
-0.4956629 -0.034009311 1.6350001 171 177 159 255
-0.49093559 -0.033991259 1.6340001 171 177 159 255
-0.48621327 -0.033973221 1.6330001 165 171 153 255
-0.4817909 -0.033976007 1.6330001 170 176 158 255
-0.47736812 -0.033978809 1.6330001 173 179 161 255
-0.4729448 -0.033981629 1.6330001 174 181 160 255
-0.46823394 -0.03396365 1.6320001 173 180 159 255
-0.46324387 -0.03392487 1.6300001 169 176 155 255
-0.45826402 -0.033886097 1.628 170 177 155 255
-0.45385197 -0.033888958 1.628 175 182 160 255
-0.44916329 -0.033871017 1.6270001 178 183 161 255
-0.44447938 -0.03385308 1.626 148 154 129 255
-0.44034162 -0.033876795 1.6270001 151 157 132 255
-0.43592975 -0.033879697 1.6270001 153 159 134 255
-0.43151724 -0.033882603 1.6270001 153 159 134 255
-0.427104 -0.033885513 1.6270001 150 156 131 255
-0.42243028 -0.033867601 1.626 150 157 135 255
-0.41827551 -0.033891357 1.6270001 152 157 135 255
-0.41386011 -0.033894278 1.6270001 138 143 121 255
-0.40944403 -0.03389721 1.6270001 146 151 129 255
-0.40428036 -0.033837628 1.6240001 154 160 135 255
-0.39962462 -0.033819713 1.623 161 166 144 255
-0.39497361 -0.033801794 1.6220001 166 171 149 255
-0.39056802 -0.033804715 1.6220001 167 174 153 255
-0.38568544 -0.033765942 1.6200001 169 175 157 255
-0.38104832 -0.033748005 1.6190001 172 178 160 255
-0.37664843 -0.033750903 1.6190001 182 188 170 255
-0.3720178 -0.033732951 1.618 172 178 160 255
-0.36739179 -0.033714991 1.6170001 163 169 151 255
-0.36277038 -0.033697013 1.6160001 157 163 145 255
-0.35859707 -0.033720735 1.6170001 145 152 131 255
-0.35419843 -0.033723596 1.6170001 144 150 125 255
-0.34979898 -0.033726446 1.6170001 145 149 123 255
-0.34582585 -0.033771001 1.6190001 147 151 125 255
-0.3424736 -0.033878136 1.6240001 144 148 122 255
-0.33909327 -0.033985276 1.6290001 136 138 110 255
-0.33527395 -0.034050692 1.6320001 132 134 106 255
-0.33103204 -0.034074374 1.6330001 137 139 111 255
-0.32658374 -0.034077171 1.6330001 143 145 117 255
-0.32272634 -0.034142561 1.636 140 142 114 255
-0.31826809 -0.034145337 1.636 128 130 102 255
-0.31380895 -0.034148082 1.636 133 135 109 255
-0.30934894 -0.03415082 1.636 136 139 115 255
-0.30488801 -0.034153536 1.636 63 65 45 255
-0.29969168 -0.03407272 1.6320001 24 26 6 255
-0.2948781 -0.034033626 1.6300001 27 27 9 255
-0.29025269 -0.034015387 1.6290001 28 27 11 255
-0.28563184 -0.033997118 1.628 33 30 14 255
-0.28101557 -0.033978827 1.6270001 30 27 11 255
-0.2765739 -0.03398139 1.6270001 26 23 7 255
-0.2719641 -0.033963047 1.626 30 27 11 255
-0.2673589 -0.033944674 1.6250001 31 28 12 255
-0.26308185 -0.03396805 1.626 29 28 12 255
-0.25943476 -0.03407497 1.631 28 27 13 255
-0.25529051 -0.0341192 1.6330001 27 27 17 255
-0.25113449 -0.034163404 1.6350001 53 55 47 255
-0.24666491 -0.034165792 1.6350001 56 57 51 255
-0.24204637 -0.034147251 1.6340001 58 58 56 255
-0.23714167 -0.034086876 1.631 100 102 102 255
-0.23168194 -0.033942863 1.6240001 101 103 105 255
-0.22639957 -0.033819698 1.618 88 92 94 255
-0.22183523 -0.033801004 1.6170001 86 90 92 255
-0.21727555 -0.033782274 1.6160001 101 105 105 255
-0.21298401 -0.033805318 1.6170001 100 105 102 255
-0.20829926 -0.03376561 1.6150001 88 91 88 255
-0.20387718 -0.033767682 1.6150001 67 70 66 255
-0.19957784 -0.033790618 1.6160001 66 69 65 255
-0.19515155 -0.033792619 1.6160001 65 68 64 255
-0.19084254 -0.033815492 1.6170001 76 79 75 255
-0.18618149 -0.03377559 1.6150001 67 70 66 255
-0.18175577 -0.033777479 1.6150001 66 70 63 255
-0.17732933 -0.033779323 1.6150001 62 66 59 255
-0.17322339 -0.033843882 1.618 61 65 58 255
-0.16910036 -0.033908412 1.6210001 61 65 58 255
-0.16465548 -0.033910148 1.6210001 64 68 61 255
-0.16011113 -0.033890925 1.6200001 72 76 69 255
-0.15547553 -0.033850737 1.618 80 83 79 255
-0.15113033 -0.033873271 1.6190001 82 86 79 255
-0.14686964 -0.033916689 1.6210001 79 80 74 255
-0.14259738 -0.033960067 1.623 71 72 66 255
-0.13805823 -0.033940632 1.6220001 73 74 68 255
-0.13344161 -0.033900224 1.6200001 75 76 70 255
-0.12899472 -0.033901624 1.6200001 76 80 73 255
-0.12454727 -0.03390298 1.6200001 78 82 75 255
-0.12032174 -0.033967078 1.623 78 82 75 255
-0.1161506 -0.03405207 1.6270001 72 76 69 255
-0.11223159 -0.034220733 1.6350001 73 75 67 255
-0.10820227 -0.034368441 1.6420001 70 72 64 255
-0.10388146 -0.034432381 1.6450001 68 70 62 255
-0.099181302 -0.034370687 1.6420001 71 73 65 255
-0.094554864 -0.034329876 1.6400001 66 70 63 255
-0.090048842 -0.034330882 1.6400001 73 74 68 255
-0.08559458 -0.034352772 1.641 67 71 64 255
-0.081134476 -0.034374621 1.6420001 68 72 65 255
-0.076668523 -0.034396421 1.6430001 69 70 64 255
-0.072240666 -0.034439109 1.6450001 67 71 64 255
-0.067842662 -0.034502681 1.6480001 67 71 64 255
-0.063427873 -0.034566212 1.651 67 71 64 255
-0.058889315 -0.034566887 1.651 69 73 66 255
-0.054383423 -0.034588452 1.6520001 69 73 66 255
-0.049901962 -0.034630898 1.654 68 71 67 255
-0.045436718 -0.034694243 1.6570001 68 69 63 255
-0.0409301 -0.034736592 1.659 70 71 65 255
-0.036434229 -0.034799837 1.6620001 71 72 66 255
-0.031940881 -0.034883972 1.6660001 71 72 66 255
-0.027458236 -0.035009935 1.6720001 70 71 65 255
-0.022928797 -0.03511491 1.677 70 71 65 255
-0.018349916 -0.035177954 1.6800001 70 71 65 255
-0.013770799 -0.035282832 1.6850001 64 68 61 255
-0.0091532785 -0.035345774 1.6880001 68 69 63 255
-0.004508527 -0.035324913 1.687 64 68 61 255
0.00013074403 -0.035303999 1.6860001 64 68 61 255
0.004772997 -0.035345849 1.6880001 64 68 61 255
0.0094318073 -0.03540859 1.6910001 64 68 61 255
0.014107077 -0.035471279 1.6940001 62 66 59 255
0.018787708 -0.035512976 1.6960001 65 69 62 255
0.023465425 -0.035533678 1.697 67 71 64 255
0.028131966 -0.035533391 1.697 69 73 66 255
0.03279838 -0.035533052 1.697 71 75 68 255
0.03744258 -0.035511725 1.6960001 70 74 67 255
0.042130768 -0.035532221 1.697 70 74 67 255
0.046824273 -0.035552673 1.6980001 68 72 65 255
0.051553398 -0.035594001 1.7 70 74 67 255
0.05629329 -0.035635278 1.702 70 74 67 255
0.061008122 -0.035655569 1.7030001 69 73 66 255
0.065766759 -0.035696745 1.705 64 68 61 255
0.070494786 -0.035716936 1.7060001 65 69 62 255
0.075272076 -0.035758004 1.7080001 63 67 60 255
0.080060035 -0.035799023 1.71 62 66 59 255
0.084957778 -0.035881855 1.7140001 61 65 58 255
0.089772522 -0.035922773 1.7160001 63 66 62 255
0.094432682 -0.035900831 1.715 67 70 66 255
0.099086948 -0.035878845 1.7140001 70 73 70 255
0.10379586 -0.035877746 1.7140001 72 75 71 255
0.108441 -0.035855655 1.7130001 73 76 72 255
0.11308025 -0.03583353 1.7120001 73 76 72 255
0.11771347 -0.03581135 1.7110001 71 74 70 255
0.12234075 -0.035789125 1.71 76 77 73 255
0.1270363 -0.035787787 1.71 73 76 72 255
0.13188541 -0.035828255 1.7120001 74 78 71 255
0.1369843 -0.035931457 1.7170001 71 75 68 255
0.14202753 -0.036013667 1.7210001 70 74 67 255
0.14692162 -0.036053982 1.723 73 77 70 255
0.15200213 -0.036136102 1.7270001 71 75 68 255
0.15701321 -0.036197234 1.7300001 69 75 68 255
0.16232061 -0.036321085 1.7360001 71 77 70 255
0.16727532 -0.036361195 1.738 71 77 70 255
0.17253731 -0.036464024 1.743 70 74 67 255
0.17741911 -0.036483116 1.7440001 68 71 67 255
0.18261912 -0.03656492 1.748 70 73 69 255
0.18730429 -0.036542084 1.7470001 68 71 67 255
0.19209319 -0.036540125 1.7470001 63 67 60 255
0.19654328 -0.036475379 1.7440001 64 68 61 255
0.20074525 -0.036368769 1.7390001 61 67 60 255
0.20468277 -0.036220312 1.7320001 58 64 57 255
0.20870201 -0.036092736 1.7260001 60 65 61 255
0.21318227 -0.036048781 1.7240001 64 67 63 255
0.21765077 -0.036004793 1.7220001 76 79 76 255
0.22249492 -0.036023494 1.723 76 79 75 255
0.2277393 -0.036104873 1.7270001 77 80 77 255
0.23246635 -0.036102582 1.7270001 78 81 78 255
0.2371926 -0.036100265 1.7270001 84 84 84 255
0.24205805 -0.036118805 1.728 83 86 83 255
0.24764217 -0.036241814 1.7340001 81 84 81 255
0.25311273 -0.036343869 1.7390001 73 76 72 255
0.25875804 -0.036466785 1.7450001 66 69 65 255
0.26428428 -0.036568746 1.7500001 72 76 69 255
0.26937562 -0.036607981 1.7520001 75 79 72 255
0.27447703 -0.036647175 1.7540001 68 72 65 255
0.27990693 -0.036728114 1.7580001 66 70 63 255
0.2860055 -0.036892574 1.766 73 77 70 255
0.29132348 -0.036952537 1.7690001 70 75 71 255
0.29581982 -0.036908027 1.7670001 58 63 59 255
0.30030435 -0.036863498 1.7650001 50 55 51 255
0.30529556 -0.036881592 1.766 51 54 50 255
0.3097645 -0.036837015 1.7640001 47 50 46 255
0.31493485 -0.036875941 1.766 61 64 60 255
0.32065842 -0.036977477 1.771 68 71 67 255
0.32622445 -0.037058093 1.7750001 71 74 70 255
0.32975969 -0.036909033 1.7680001 66 69 65 255
0.33306652 -0.036739103 1.7600001 60 63 59 255
0.33728865 -0.036673542 1.7570001 63 66 62 255
0.34285629 -0.036754068 1.761 65 70 66 255
0.34864223 -0.036855429 1.766 61 66 62 255
0.35345367 -0.036852419 1.766 57 62 58 255
0.35806137 -0.036828529 1.7650001 64 67 63 255
0.36266261 -0.03680462 1.7640001 67 71 64 255
0.36746579 -0.036801565 1.7640001 73 76 72 255
0.37184593 -0.036756773 1.7620001 69 72 69 255
0.37642795 -0.03673283 1.761 69 72 69 255
0.38122013 -0.036729738 1.761 65 68 65 255
0.38601133 -0.036726635 1.761 71 74 71 255
0.39102352 -0.036744367 1.7620001 72 75 72 255
0.39559096 -0.036720391 1.761 69 74 70 255
0.40015206 -0.036696408 1.7600001 64 69 65 255
0.40401658 -0.036609873 1.756 71 74 70 255
0.40809125 -0.036544193 1.7530001 77 80 77 255
0.41285524 -0.036541052 1.7530001 73 76 73 255
0.57767987 -0.03664612 1.7630001 80 80 80 255
0.58079809 -0.03653951 1.7580001 53 53 53 255
0.5842222 -0.036453728 1.7540001 56 56 54 255
0.58863199 -0.036430344 1.7530001 60 63 59 255
0.59337473 -0.036427781 1.7530001 65 68 64 255
0.599141 -0.036487587 1.756 54 59 55 255
0.60526741 -0.036568202 1.7600001 62 65 61 255
0.61106884 -0.036628075 1.7630001 69 74 70 255
0.61828369 -0.03677107 1.7700001 64 69 66 255
0.62764883 -0.037038736 1.7830001 67 72 69 255
0.64063156 -0.037514128 1.8060001 163 168 165 255
0.7365483 -0.039210618 1.8890001 163 167 169 255
0.73499131 -0.038856063 1.8720001 161 165 167 255
0.73531979 -0.038605388 1.8600001 158 162 162 255
0.7351861 -0.038334046 1.8470001 154 158 158 255
0.73538357 -0.038083542 1.835 151 155 155 255
0.73551697 -0.037833136 1.8230001 147 151 151 255
0.7355864 -0.037582818 1.8110001 144 148 148 255
0.73191184 -0.03714582 1.7900001 142 147 144 255
0.73059398 -0.036833428 1.7750001 143 148 145 255
0.72961038 -0.036541883 1.761 140 144 144 255
0.73272222 -0.03645793 1.7570001 137 141 141 255
0.73497415 -0.036332551 1.751 139 143 143 255
