ply
format ascii 1.0
comment PCL generated
element vertex 987
property float x
property float y
property float z
property uchar red
property uchar green
property uchar blue
property uchar alpha
element camera 0
property float view_px
property float view_py
property float view_pz
property float x_axisx
property float x_axisy
property float x_axisz
property float y_axisx
property float y_axisy
property float y_axisz
property float z_axisx
property float z_axisy
property float z_axisz
property float focal
property float scalex
property float scaley
property float centerx
property float centery
property int viewportx
property int viewporty
property float k1
property float k2
end_header
-0.57345861 -0.14038409 1.7370001 154 161 132 255
-0.56908447 -0.14047448 1.738 154 160 134 255
-0.56470472 -0.14056505 1.7390001 149 157 131 255
-0.56031942 -0.14065574 1.7400001 153 160 131 255
-0.55592853 -0.14074655 1.7410001 161 168 139 255
-0.55216521 -0.14099918 1.7440001 147 153 127 255
-0.54838544 -0.14125197 1.7470001 149 153 127 255
-0.5449003 -0.14158575 1.751 156 160 132 255
-0.54108477 -0.14183885 1.7540001 148 155 124 255
-0.5372526 -0.14209206 1.7570001 144 151 122 255
-0.53431296 -0.14258802 1.7630001 142 149 120 255
-0.53104025 -0.14300328 1.7680001 142 147 116 255
-0.52773988 -0.1434187 1.7730001 143 150 119 255
-0.52382219 -0.14367245 1.7760001 144 151 120 255
-0.51959556 -0.14384542 1.7780001 144 149 118 255
-0.51506793 -0.14393756 1.779 141 148 117 255
-0.51053452 -0.14402983 1.7800001 140 146 120 255
-0.50571102 -0.14404123 1.7800001 143 149 123 255
-0.50116831 -0.1441336 1.7810001 138 144 118 255
-0.49634096 -0.14414513 1.7810001 141 149 124 255
-0.49206486 -0.14431857 1.7830001 138 144 118 255
-0.48750409 -0.14441113 1.784 135 141 115 255
-0.48347843 -0.14466569 1.7870001 135 142 113 255
-0.47836441 -0.14459649 1.7860001 135 142 113 255
-0.47378537 -0.1446892 1.7870001 132 139 108 255
-0.46946266 -0.14486296 1.789 131 136 104 255
-0.46564773 -0.14519872 1.7930001 130 135 103 255
-0.46129647 -0.14537258 1.7950001 134 139 107 255
-0.45667931 -0.14546551 1.7960001 133 139 104 255
-0.45281056 -0.14580144 1.8000001 129 136 105 255
-0.44867057 -0.14605644 1.8030001 129 136 105 255
-0.44377503 -0.14606845 1.8030001 134 141 110 255
-0.43887874 -0.14608045 1.8030001 133 142 111 255
-0.43350023 -0.14593041 1.8010001 124 135 106 255
-0.42765573 -0.14561825 1.7970001 127 138 109 255
-0.42136171 -0.14514396 1.7910001 120 131 102 255
-0.41509929 -0.14466955 1.7850001 84 93 64 255
-0.40863886 -0.144114 1.7780001 71 80 51 255
-0.40130723 -0.14323409 1.7670001 96 104 78 255
-0.39358577 -0.1421919 1.7540001 157 165 140 255
-0.38637742 -0.14131162 1.743 154 164 141 255
-0.37988493 -0.14067443 1.7350001 153 164 143 255
-0.37386757 -0.14019924 1.7290001 144 154 131 255
-0.36809555 -0.13980506 1.7240001 138 148 125 255
-0.36277133 -0.13957295 1.7210001 136 144 119 255
-0.35787877 -0.13950297 1.72 135 143 117 255
-0.35319614 -0.13951406 1.72 132 139 110 255
-0.3491205 -0.13976842 1.723 133 140 111 255
-0.34562734 -0.14026618 1.7290001 129 134 103 255
-0.34308642 -0.14116958 1.7400001 114 119 88 255
-0.34029025 -0.14199193 1.7500001 96 101 69 255
-0.33648005 -0.14240859 1.7550001 100 105 73 255
-0.33207467 -0.14258182 1.7570001 99 104 73 255
-0.32803002 -0.14291729 1.761 102 107 76 255
-0.32506397 -0.14373972 1.771 70 74 46 255
-0.32041508 -0.14383167 1.7720001 37 41 15 255
-0.31255409 -0.14246239 1.7550001 32 34 14 255
-0.30443421 -0.14093044 1.7360001 28 28 10 255
-0.29883403 -0.1405348 1.7310001 26 28 10 255
-0.29461953 -0.14078857 1.7340001 28 30 13 255
-0.29005343 -0.14087985 1.7350001 33 34 20 255
-0.2856454 -0.14105228 1.7370001 32 33 19 255
-0.28122556 -0.14122461 1.7390001 27 29 19 255
-0.27599898 -0.14099076 1.7360001 87 89 81 255
-0.27047545 -0.14059435 1.7310001 72 76 69 255
-0.2646713 -0.1400353 1.7240001 93 99 92 255
-0.25935689 -0.13971975 1.72 86 89 85 255
-0.25435966 -0.13956653 1.7180001 74 79 76 255
-0.2492272 -0.13933192 1.715 97 102 99 255
-0.24382517 -0.13893469 1.71 102 106 106 255
-0.23830976 -0.13845602 1.7040001 103 108 105 255
-0.23310061 -0.13813965 1.7 96 101 98 255
-0.22831568 -0.13806692 1.6990001 91 96 92 255
-0.22379875 -0.13815658 1.7 88 93 89 255
-0.21914664 -0.13816483 1.7 89 94 90 255
-0.21449377 -0.13817298 1.7 78 83 79 255
-0.20959327 -0.1380184 1.6980001 70 76 69 255
-0.20518577 -0.13818882 1.7 58 64 57 255
-0.20053062 -0.13819653 1.7 82 88 81 255
-0.19599003 -0.13828538 1.7010001 66 72 65 255
-0.19110575 -0.1381302 1.6990001 54 59 55 255
-0.18623175 -0.13797484 1.697 93 101 94 255
-0.18168904 -0.13806328 1.6980001 94 100 93 255
-0.17724441 -0.13823286 1.7 75 81 74 255
-0.17268664 -0.13832098 1.7010001 71 77 70 255
-0.1678264 -0.138165 1.6990001 74 80 73 255
-0.16288044 -0.1379275 1.6960001 86 92 85 255
-0.1581369 -0.13785249 1.6950001 85 91 84 255
-0.1534888 -0.13785863 1.6950001 83 89 82 255
-0.14910354 -0.13810863 1.6980001 86 92 85 255
-0.14444605 -0.13811444 1.6980001 83 89 82 255
-0.13995261 -0.13828279 1.7 79 85 78 255
-0.13528852 -0.13828829 1.7 73 78 74 255
-0.13070071 -0.13837495 1.7010001 72 77 73 255
-0.12588465 -0.13821742 1.6990001 82 87 83 255
-0.12115038 -0.13814102 1.6980001 91 94 90 255
-0.11655836 -0.13822719 1.6990001 75 81 74 255
-0.11196034 -0.13831316 1.7 76 82 75 255
-0.10723018 -0.13823624 1.6990001 77 83 76 255
-0.10250507 -0.13815914 1.6980001 78 84 77 255
-0.097785033 -0.13808185 1.697 78 84 77 255
-0.093124963 -0.13808574 1.697 77 83 76 255
-0.088464513 -0.13808945 1.697 80 86 79 255
-0.083803713 -0.13809298 1.697 84 90 83 255
-0.079235837 -0.13825908 1.6990001 79 85 78 255
-0.074612759 -0.13834362 1.7 80 83 79 255
-0.06998387 -0.13842796 1.7010001 82 85 81 255
-0.065310806 -0.13843074 1.7010001 77 83 76 255
-0.060673125 -0.13851474 1.702 79 85 78 255
-0.055996787 -0.13851714 1.702 83 87 80 255
-0.051320214 -0.13851935 1.702 79 85 78 255
-0.046670839 -0.13860278 1.7030001 76 82 74 255
-0.041991115 -0.13860461 1.7030001 84 88 81 255
-0.037355032 -0.13876905 1.705 81 87 80 255
-0.032707807 -0.13893327 1.7070001 77 83 76 255
-0.028082265 -0.1392601 1.7110001 77 81 73 255
-0.02342096 -0.13950533 1.7140001 75 81 74 255
-0.018721232 -0.1395876 1.715 77 81 74 255
-0.014015933 -0.13966969 1.7160001 76 80 73 255
-0.009310496 -0.13983294 1.7180001 75 79 72 255
-0.0045966962 -0.14007741 1.7210001 78 82 75 255
0.00013345745 -0.14015891 1.7220001 77 81 74 255
0.0048662825 -0.14015882 1.7220001 78 82 75 255
0.0096102348 -0.14032128 1.7240001 77 81 74 255
0.014348496 -0.14032079 1.7240001 75 79 72 255
0.019086696 -0.14032008 1.7240001 78 82 75 255
0.023824817 -0.14031921 1.7240001 79 83 76 255
0.028629106 -0.14064367 1.728 77 81 74 255
0.033435944 -0.14088656 1.7310001 76 80 73 255
0.038281199 -0.14121063 1.7350001 80 84 77 255
0.043098651 -0.14137173 1.7370001 76 80 73 255
0.047871795 -0.14136983 1.7370001 78 82 75 255
0.052584127 -0.141205 1.7350001 75 81 74 255
0.057384405 -0.14128409 1.7360001 77 83 76 255
0.06211834 -0.14120024 1.7350001 74 80 73 255
0.06680797 -0.14103481 1.733 76 82 75 255
0.07144504 -0.14078782 1.7300001 78 84 77 255
0.076197468 -0.1407848 1.7300001 78 83 79 255
0.080809198 -0.14053744 1.7270001 79 84 80 255
0.085453652 -0.14037128 1.725 81 86 83 255
0.090086773 -0.14020494 1.723 83 88 85 255
0.094818607 -0.14020117 1.723 83 88 85 255
0.099550031 -0.14019719 1.723 84 89 86 255
0.10422056 -0.14011168 1.7220001 84 87 84 255
0.10894841 -0.14010735 1.7220001 85 88 85 255
0.11374187 -0.14018421 1.723 85 88 85 255
0.11860909 -0.14034222 1.725 82 85 82 255
0.2186303 -0.14378902 1.7690001 79 84 81 255
0.22397809 -0.14410582 1.7730001 89 94 91 255
0.22895977 -0.14417858 1.774 73 78 75 255
0.23368251 -0.14408869 1.7730001 60 65 62 255
0.23786087 -0.14367361 1.7680001 58 62 62 255
0.66081667 -0.14177939 1.756 183 187 187 255
0.65988839 -0.14056186 1.7410001 3 6 3 255
0.6562072 -0.13877954 1.7190001 14 18 11 255
0.65702093 -0.13796636 1.7090001 22 26 18 255
0.65855545 -0.13731492 1.7010001 21 24 12 255
0.66238648 -0.13714808 1.6990001 21 24 12 255
0.66660017 -0.13706224 1.6980001 18 21 9 255
0.67001855 -0.13681521 1.6950001 22 25 13 255
0.67182964 -0.13624558 1.6880001 26 29 17 255
0.67280233 -0.13551481 1.6790001 26 29 17 255
0.67856812 -0.13575286 1.682 25 30 16 255
0.6827268 -0.13566832 1.6810001 24 29 15 255
0.68115711 -0.13445419 1.6660001 25 30 16 255
0.68526912 -0.13437022 1.6650001 25 30 16 255
0.68813401 -0.13404445 1.6610001 24 29 17 255
0.69181228 -0.13388033 1.659 27 32 21 255
0.68037117 -0.13081141 1.6210001 27 32 21 255
0.67717355 -0.12935679 1.603 24 29 18 255
0.67770588 -0.12862878 1.5940001 23 28 16 255
0.67990214 -0.12822382 1.5890001 25 28 14 255
0.68594807 -0.12854542 1.5930001 21 26 12 255
0.68855077 -0.12822178 1.5890001 24 27 13 255
0.69156927 -0.12797911 1.5860001 25 28 14 255
0.69588929 -0.12797885 1.5860001 22 27 13 255
0.70418453 -0.12870513 1.595 24 29 17 255
0.70853257 -0.12870549 1.595 26 33 21 255
0.71556419 -0.12919033 1.6010001 28 37 26 255
0.71993232 -0.12919135 1.6010001 23 31 23 255
0.72701687 -0.12967689 1.6070001 72 83 78 255
0.73186052 -0.1297593 1.608 127 137 134 255
0.73808539 -0.13008414 1.6120001 163 174 177 255
0.74018872 -0.12968306 1.6070001 166 177 180 255
0.74180371 -0.12920164 1.6010001 170 179 184 255
0.74245596 -0.12855913 1.5930001 172 181 186 255
0.74447316 -0.12815908 1.5880001 177 183 189 255
0.74410778 -0.12735584 1.5780001 179 185 191 255
0.74416423 -0.12663364 1.5690001 180 186 192 255
0.74274278 -0.12566964 1.557 181 187 193 255
0.74221766 -0.12486738 1.5470001 183 189 195 255
0.74260533 -0.12422688 1.539 184 190 196 255
0.74489284 -0.1239096 1.5350001 186 192 199 255
0.74423289 -0.12310831 1.5250001 188 194 201 255
0.74106711 -0.12190371 1.5100001 189 197 204 255
0.74028909 -0.12110304 1.5000001 189 195 202 255
-0.74052209 -0.15217973 1.8240001 228 232 232 255
-0.73315197 -0.15168336 1.8180001 210 217 213 255
-0.72541511 -0.15110382 1.8110001 226 234 227 255
-0.71970654 -0.15094173 1.8090001 221 229 222 255
-0.71282434 -0.15052959 1.8040001 228 236 229 255
-0.70675504 -0.15028457 1.8010001 207 215 208 255
-0.69953388 -0.14978945 1.7950001 217 225 218 255
-0.69273293 -0.149378 1.7900001 225 233 226 255
-0.68557572 -0.14888331 1.784 213 221 213 255
-0.67921489 -0.14855577 1.7800001 214 222 214 255
-0.67249757 -0.14814498 1.7750001 199 207 199 255
-0.66505563 -0.14756744 1.7680001 204 213 202 255
-0.65877259 -0.14724049 1.7640001 200 209 198 255
-0.65177029 -0.14674678 1.7580001 186 195 184 255
-0.64443296 -0.14616977 1.751 206 213 202 255
-0.63859516 -0.14592682 1.748 144 151 140 255
-0.63386202 -0.14593454 1.748 210 217 206 255
-0.62948912 -0.14602591 1.7490001 202 209 198 255
-0.62332499 -0.14570004 1.7450001 201 208 197 255
-0.61718291 -0.1453743 1.7410001 197 204 192 255
-0.61176628 -0.14521573 1.7390001 195 203 188 255
-0.60705882 -0.14522433 1.7390001 186 194 177 255
-0.60235161 -0.14523312 1.7390001 187 193 175 255
-0.59798813 -0.14532559 1.7400001 126 133 112 255
-0.59464216 -0.1456688 1.7440001 101 109 84 255
-0.59059811 -0.14584517 1.7460001 140 146 120 255
-0.58721447 -0.1461888 1.7500001 143 147 119 255
-0.58247757 -0.14619842 1.7500001 146 150 122 255
-0.57840103 -0.1463753 1.7520001 157 162 131 255
-0.57398617 -0.1464688 1.7530001 159 166 137 255
-0.57021511 -0.14672954 1.756 148 154 128 255
-0.56610566 -0.1469069 1.7580001 158 165 136 255
-0.56198525 -0.1470844 1.7600001 148 155 126 255
-0.55880356 -0.14751278 1.7650001 145 152 123 255
-0.55528069 -0.14785774 1.7690001 147 151 123 255
-0.55235821 -0.14837006 1.7750001 146 150 122 255
-0.54940301 -0.14888258 1.7810001 149 154 123 255
-0.54641497 -0.14939526 1.7870001 135 142 111 255
-0.54278785 -0.14974087 1.7910001 141 148 117 255
-0.53943914 -0.15017027 1.7960001 145 150 119 255
-0.53546757 -0.15043259 1.7990001 134 139 108 255
-0.53088945 -0.15052776 1.8000001 111 118 87 255
-0.52630544 -0.15062304 1.8010001 83 90 59 255
-0.52142602 -0.15063478 1.8010001 92 99 68 255
-0.51654601 -0.15064658 1.8010001 75 83 57 255
-0.51166552 -0.15065844 1.8010001 90 98 72 255
-0.50650305 -0.15058672 1.8000001 104 110 84 255
-0.50162417 -0.1505987 1.8000001 110 118 93 255
-0.49702057 -0.1506944 1.8010001 121 127 101 255
-0.49268419 -0.15087385 1.8030001 123 129 103 255
-0.48833632 -0.15105337 1.8050001 111 118 89 255
-0.4837091 -0.15114929 1.8060001 112 119 90 255
-0.47854561 -0.15107782 1.8050001 115 120 89 255
-0.47391161 -0.15117383 1.8060001 101 106 74 255
-0.46953115 -0.15135357 1.8080001 108 113 81 255
-0.46488214 -0.15144962 1.8090001 92 98 63 255
-0.46022692 -0.15154572 1.8100001 93 99 64 255
-0.45581707 -0.15172558 1.812 98 104 69 255
-0.45114678 -0.15182173 1.8130001 92 99 67 255
-0.44671637 -0.15200166 1.8150001 86 93 61 255
-0.44178745 -0.15201411 1.8150001 84 93 62 255
-0.43685773 -0.15202655 1.8150001 89 98 67 255
-0.43168923 -0.15195522 1.8140001 77 86 55 255
-0.42629001 -0.15180008 1.812 84 93 62 255
-0.4211334 -0.1517287 1.8110001 89 96 65 255
-0.41575149 -0.15157349 1.8090001 82 89 58 255
-0.41037959 -0.15141821 1.807 74 83 52 255
-0.40412018 -0.15092769 1.8010001 73 82 53 255
-0.39722744 -0.15018561 1.7920001 71 81 55 255
-0.3901639 -0.14935958 1.7820001 118 130 105 255
-0.38315389 -0.14853337 1.7720001 152 162 137 255
-0.37555683 -0.1474555 1.7590001 147 157 132 255
-0.36908352 -0.14679657 1.751 134 144 119 255
-0.36286104 -0.14622135 1.7440001 133 141 115 255
-0.35667571 -0.14564598 1.7370001 129 138 109 255
-0.35133812 -0.14540586 1.7340001 132 139 110 255
-0.34741521 -0.1457527 1.738 132 137 106 255
-0.34425828 -0.14643499 1.7460001 130 135 104 255
-0.34105688 -0.14711735 1.7540001 96 101 70 255
-0.33704412 -0.1474642 1.7580001 100 105 74 255
-0.33300862 -0.14781101 1.7620001 97 102 70 255
-0.3295092 -0.14840947 1.7690001 101 106 74 255
-0.32743901 -0.14967915 1.784 99 104 73 255
-0.32365879 -0.1501938 1.7900001 84 88 60 255
-0.3177079 -0.14970145 1.784 92 95 71 255
-0.3105613 -0.1486215 1.771 20 23 1 255
-0.30607417 -0.14880018 1.7730001 25 27 9 255
-0.30225483 -0.14931449 1.779 31 33 15 255
-0.29739875 -0.14932516 1.779 24 25 11 255
-0.29204851 -0.14908393 1.7760001 19 22 10 255
-0.28655198 -0.14875855 1.7720001 15 19 11 255
-0.28012258 -0.1479293 1.7620001 85 89 82 255
-0.27390316 -0.14718379 1.7530001 87 93 86 255
-0.26757851 -0.14635406 1.743 92 98 91 255
-0.26176 -0.14577606 1.7360001 87 92 89 255
-0.25597891 -0.14519784 1.7290001 79 84 81 255
-0.25067118 -0.14487137 1.725 100 105 102 255
-0.24509937 -0.14437675 1.7190001 104 108 108 255
-0.23983918 -0.14404991 1.715 102 109 106 255
-0.23460011 -0.14372295 1.7110001 93 100 97 255
-0.22978523 -0.14364779 1.71 94 99 95 255
-0.2251067 -0.14365649 1.71 88 93 89 255
-0.22042738 -0.14366506 1.71 85 91 84 255
-0.21587344 -0.14375752 1.7110001 82 88 81 255
-0.2110664 -0.14368178 1.71 72 78 71 255
-0.20626411 -0.1436059 1.7090001 64 70 63 255
-0.20134856 -0.14344582 1.7070001 80 86 79 255
-0.19667372 -0.14345364 1.7070001 70 75 71 255
-0.19188565 -0.14337729 1.7060001 53 58 54 255
-0.18710235 -0.14330073 1.705 100 108 101 255
-0.18243088 -0.1433081 1.705 87 95 88 255
-0.17796722 -0.14348342 1.7070001 75 83 76 255
-0.1732889 -0.14349045 1.7070001 72 80 73 255
-0.16841237 -0.1433292 1.705 83 89 82 255
-0.16345015 -0.14308371 1.702 88 94 87 255
-0.15869035 -0.14300618 1.7010001 86 92 85 255
-0.15402594 -0.14301252 1.7010001 84 90 83 255
-0.14953658 -0.14318688 1.7030001 83 89 82 255
-0.14503567 -0.14336106 1.705 82 88 81 255
-0.14052321 -0.14353509 1.7070001 78 84 77 255
-0.13591966 -0.14362486 1.7080001 75 83 76 255
-0.13107958 -0.1434622 1.7060001 72 80 73 255
-0.12617587 -0.14321522 1.7030001 88 93 89 255
-0.12150217 -0.14322038 1.7030001 82 88 81 255
-0.11689658 -0.14330943 1.7040001 79 83 76 255
-0.11235088 -0.14348242 1.7060001 77 83 76 255
-0.10754132 -0.1433188 1.7040001 77 83 76 255
-0.10286303 -0.14332321 1.7040001 76 82 75 255
-0.098184332 -0.14332743 1.7040001 80 86 79 255
-0.093450353 -0.14324735 1.7030001 81 87 80 255
-0.088773616 -0.14325118 1.7030001 85 91 84 255
-0.084047124 -0.1431707 1.702 83 89 82 255
-0.079512335 -0.14342654 1.705 77 83 76 255
-0.074916862 -0.14359803 1.7070001 78 81 77 255
-0.070268929 -0.14368524 1.7080001 82 85 81 255
-0.065500051 -0.14351988 1.7060001 82 86 79 255
-0.060813162 -0.14352256 1.7060001 79 85 78 255
-0.056158934 -0.14360918 1.7070001 79 83 76 255
-0.051468816 -0.14361146 1.7070001 85 89 82 255
-0.046751089 -0.14352944 1.7060001 84 88 81 255
-0.042112626 -0.1436996 1.7080001 86 90 83 255
-0.037484907 -0.1439537 1.7110001 80 86 79 255
-0.032859705 -0.14429174 1.715 76 82 75 255
-0.028195966 -0.14454547 1.7180001 79 83 76 255
-0.023488292 -0.1446307 1.7190001 78 82 75 255
-0.018775022 -0.14471574 1.72 79 83 76 255
-0.01404801 -0.14471644 1.72 77 81 74 255
-0.0093209408 -0.14471693 1.72 77 81 74 255
-0.0045991736 -0.14488553 1.7220001 79 82 78 255
0.00013345179 -0.14488561 1.7220001 75 79 72 255
0.004874554 -0.14513792 1.725 79 83 76 255
0.0096376995 -0.14547417 1.7290001 77 81 74 255
0.014406146 -0.14564191 1.7310001 77 81 73 255
0.019174457 -0.14572534 1.7320001 78 82 75 255
0.023934362 -0.14572443 1.7320001 77 81 74 255
0.028710732 -0.14580743 1.733 75 79 72 255
0.033511795 -0.14597437 1.7350001 75 78 74 255
0.038345773 -0.14622523 1.738 76 79 75 255
0.043146461 -0.14630763 1.7390001 76 80 73 255
0.047897339 -0.14622153 1.738 75 79 72 255
0.052612219 -0.14605114 1.7360001 74 80 73 255
0.057348944 -0.14596467 1.7350001 75 81 74 255
0.062044129 -0.14579387 1.733 77 82 78 255
0.066766627 -0.145707 1.7320001 76 81 77 255
0.071442053 -0.14553581 1.7300001 78 83 79 255
0.076194286 -0.1455327 1.7300001 80 85 81 255
0.080852613 -0.14536113 1.728 84 89 85 255
0.085549176 -0.14527349 1.7270001 81 86 83 255
0.090187594 -0.14510153 1.725 86 91 88 255
0.094869703 -0.14501353 1.7240001 82 87 84 255
0.099603698 -0.14500944 1.7240001 78 83 80 255
0.10415573 -0.14475283 1.7210001 76 81 78 255
0.65849155 -0.14396521 1.725 24 27 24 255
0.65893734 -0.14304116 1.7140001 23 26 22 255
0.65971136 -0.14220086 1.7040001 27 28 22 255
0.66355079 -0.14202847 1.702 21 23 15 255
0.66777277 -0.14193976 1.7010001 16 21 10 255
0.67080426 -0.141601 1.697 22 27 16 255
0.67182511 -0.1408453 1.6880001 23 28 16 255
0.67520225 -0.14059055 1.6850001 23 28 16 255
0.68179154 -0.14100355 1.6900001 26 31 19 255
0.68475378 -0.14066592 1.6860001 25 30 18 255
0.68074471 -0.13891025 1.6650001 27 32 21 255
0.68361968 -0.13857324 1.6610001 24 29 18 255
0.68647397 -0.13823652 1.6570001 23 29 21 255
0.68513775 -0.13706587 1.6430001 28 34 26 255
0.67281395 -0.13372654 1.603 31 37 30 255
0.67252487 -0.13280685 1.5920001 27 31 23 255
0.67557847 -0.13255484 1.5890001 24 29 18 255
0.6777615 -0.13213629 1.5840001 25 30 18 255
0.68336344 -0.13238539 1.5870001 23 28 16 255
0.68551677 -0.13196746 1.582 25 28 14 255
0.69200492 -0.13238402 1.5870001 26 31 17 255
0.69545048 -0.13221695 1.585 21 26 12 255
0.70550925 -0.1333015 1.598 25 30 16 255
0.71119851 -0.13355219 1.6010001 25 32 20 255
0.71645898 -0.13371979 1.603 33 42 31 255
0.71993363 -0.13355409 1.6010001 23 31 23 255
0.72566128 -0.13380581 1.6040001 51 60 53 255
0.730497 -0.13389105 1.605 113 123 120 255
0.73717195 -0.13431035 1.6100001 162 174 175 255
0.73973083 -0.13397922 1.6060001 167 178 181 255
0.74227005 -0.13364843 1.6020001 172 181 186 255
0.74292541 -0.13298431 1.5940001 172 181 186 255
0.74400818 -0.13240395 1.5870001 176 182 188 255
0.74458349 -0.13174053 1.5790001 178 185 188 255
0.74369442 -0.13082711 1.5680001 180 186 192 255
0.74322468 -0.12999749 1.5580001 182 188 194 255
0.74222285 -0.12908477 1.5470001 183 189 195 255
0.74309343 -0.12850612 1.5400001 185 191 197 255
0.74295759 -0.12776095 1.531 187 193 200 255
0.7427752 -0.12701611 1.5220001 189 195 202 255
0.74009204 -0.1258543 1.508 189 195 202 255
0.74029607 -0.1251936 1.5000001 190 196 203 255
-0.74620169 -0.15835594 1.8380001 164 168 170 255
-0.73274434 -0.15655093 1.817 221 226 223 255
-0.72541034 -0.15603854 1.8110001 202 209 205 255
-0.71930367 -0.15578493 1.8080001 222 230 223 255
-0.7128191 -0.15544543 1.8040001 224 232 225 255
-0.70596468 -0.15502 1.7990001 222 230 223 255
-0.69874865 -0.15450864 1.7930001 205 213 206 255
-0.69233996 -0.15416986 1.789 203 211 204 255
-0.68672234 -0.15400366 1.7870001 211 219 212 255
-0.68035322 -0.15366538 1.7830001 207 215 207 255
-0.67438525 -0.15341349 1.7800001 205 213 205 255
-0.66692954 -0.15281704 1.7730001 203 212 201 255
-0.66137964 -0.15265176 1.771 203 211 203 255
-0.65435821 -0.15214188 1.7650001 208 216 208 255
-0.64773768 -0.15171841 1.7600001 174 182 174 255
-0.64114475 -0.1512951 1.7550001 206 213 202 255
-0.63639241 -0.15130301 1.7550001 139 146 134 255
-0.63164043 -0.15131116 1.7550001 204 211 199 255
-0.62688869 -0.15131947 1.7550001 195 200 186 255
-0.62001044 -0.15081064 1.7490001 194 202 187 255
-0.61527556 -0.15081935 1.7490001 193 201 186 255
-0.61019176 -0.15074199 1.748 186 194 177 255
-0.60649902 -0.15100974 1.751 178 187 168 255
-0.6017592 -0.15101899 1.751 183 190 169 255
-0.59872437 -0.15145968 1.756 88 95 73 255
-0.59532422 -0.15181433 1.7600001 100 106 80 255
-0.59223789 -0.15225543 1.7650001 138 145 116 255
-0.58746034 -0.15226541 1.7650001 141 146 115 255
-0.58367318 -0.15253438 1.7680001 147 152 121 255
-0.57954216 -0.15271722 1.7700001 136 141 110 255
-0.57637441 -0.1531591 1.7750001 143 148 117 255
-0.57189143 -0.15325601 1.7760001 141 146 115 255
-0.56804144 -0.15352567 1.779 138 143 112 255
-0.56449157 -0.15388179 1.7830001 135 140 109 255
-0.56091988 -0.15423808 1.7870001 134 141 110 255
-0.55857086 -0.1549398 1.7950001 133 138 107 255
-0.55494434 -0.15529646 1.7990001 140 145 113 255
-0.55160165 -0.15573959 1.8040001 116 121 89 255
-0.54701924 -0.15583755 1.8050001 98 103 71 255
-0.5427314 -0.15602197 1.807 95 101 66 255
-0.53783697 -0.1560338 1.807 85 91 56 255
-0.53323716 -0.1561321 1.8080001 72 78 43 255
-0.52863139 -0.15623048 1.8090001 70 75 43 255
-0.52401966 -0.15632895 1.8100001 84 89 58 255
-0.51882845 -0.15625477 1.8090001 130 137 106 255
-0.51392621 -0.15626702 1.8090001 119 126 95 255
-0.50930476 -0.15636574 1.8100001 116 123 92 255
-0.5043987 -0.15637814 1.8100001 116 123 92 255
-0.4997679 -0.15647697 1.8110001 116 123 92 255
-0.49540439 -0.1566623 1.8130001 107 114 83 255
-0.49129996 -0.15693413 1.8160001 111 116 85 255
-0.486375 -0.15694675 1.8160001 102 107 75 255
-0.48118433 -0.15687299 1.8150001 97 102 70 255
-0.47626078 -0.15688568 1.8150001 101 104 72 255
-0.47159612 -0.15698484 1.8160001 100 103 71 255
-0.4666684 -0.15699759 1.8160001 98 103 71 255
-0.46173993 -0.15701039 1.8160001 97 102 70 255
-0.45681068 -0.15702318 1.8160001 101 108 76 255
-0.45237833 -0.1572089 1.8180001 108 115 84 255
-0.44719595 -0.15713525 1.817 99 106 75 255
-0.44226164 -0.15714806 1.817 100 107 75 255
-0.43708584 -0.15707439 1.8160001 120 128 93 255
-0.43215257 -0.15708719 1.8160001 113 119 84 255
-0.42698318 -0.15701346 1.8150001 109 117 82 255
-0.42205095 -0.15702623 1.8150001 111 117 81 255
-0.4173477 -0.15712552 1.8160001 114 120 84 255
-0.41286522 -0.15731131 1.8180001 105 113 78 255
-0.40792221 -0.157324 1.8180001 87 95 60 255
-0.40253502 -0.15716362 1.8160001 88 98 63 255
-0.3967199 -0.15683003 1.812 88 97 66 255
-0.39092571 -0.15649639 1.8080001 89 100 69 255
-0.38472533 -0.1559895 1.802 96 105 76 255
-0.37813514 -0.15530932 1.794 102 111 82 255
-0.37096345 -0.15436926 1.7830001 109 118 87 255
-0.3636454 -0.15334241 1.771 141 150 119 255
-0.35720226 -0.15266171 1.7630001 138 147 118 255
-0.35200104 -0.15250042 1.761 133 140 111 255
-0.34720418 -0.15251224 1.761 132 138 112 255
-0.34260088 -0.15261063 1.7620001 119 125 99 255
-0.33837464 -0.15288219 1.7650001 96 100 72 255
-0.33469808 -0.15341356 1.771 94 99 68 255
-0.33191922 -0.15437813 1.7820001 99 104 73 255
-0.32981363 -0.1556893 1.7970001 104 109 77 255
-0.3263596 -0.15639403 1.8050001 91 96 64 255
-0.32143638 -0.1564056 1.8050001 88 93 62 255
-0.31686297 -0.15659037 1.807 68 73 42 255
-0.31262296 -0.1569484 1.8110001 72 78 52 255
-0.30802035 -0.15713303 1.8130001 77 82 61 255
-0.30240294 -0.1567975 1.8090001 102 106 88 255
-0.29713538 -0.1566352 1.807 128 133 119 255
-0.29155433 -0.15629938 1.8030001 175 180 168 255
-0.2851994 -0.15552993 1.794 172 176 168 255
-0.27826777 -0.15441345 1.7810001 100 106 99 255
-0.27125278 -0.15320997 1.7670001 96 102 95 255
-0.26476571 -0.15226635 1.756 100 105 101 255
-0.25863403 -0.15149592 1.7470001 92 97 94 255
-0.25298667 -0.15098542 1.7410001 106 113 110 255
-0.24722867 -0.150388 1.7340001 106 113 110 255
-0.24164794 -0.1498771 1.728 101 108 105 255
-0.23651057 -0.14962623 1.725 98 105 102 255
-0.23138882 -0.14937517 1.7220001 91 96 92 255
-0.22667758 -0.1493842 1.7220001 90 95 91 255
-0.22196557 -0.14939308 1.7220001 86 89 85 255
-0.21737888 -0.14948858 1.723 85 91 84 255
-0.21253918 -0.14941041 1.7220001 74 80 73 255
-0.20758349 -0.14924531 1.72 70 76 69 255
-0.2024021 -0.14890648 1.7160001 85 91 84 255
-0.19781795 -0.14900137 1.7170001 70 75 71 255
-0.19300266 -0.14892252 1.7160001 58 63 59 255
-0.18808244 -0.14875674 1.7140001 107 113 106 255
-0.18306544 -0.14850397 1.7110001 87 93 86 255
-0.17868976 -0.14877179 1.7140001 75 81 74 255
-0.17409393 -0.14886588 1.715 77 83 76 255
-0.16939318 -0.14887299 1.715 88 94 87 255
-0.1643077 -0.14853269 1.7110001 87 93 86 255
-0.15970998 -0.14862628 1.7120001 85 91 84 255
-0.15510614 -0.14871968 1.7130001 83 89 82 255
-0.15049624 -0.14881293 1.7140001 82 88 81 255
-0.1457952 -0.14881916 1.7140001 83 89 82 255
-0.14117588 -0.14891206 1.715 82 88 81 255
-0.136471 -0.14891793 1.715 76 84 77 255
-0.13168873 -0.14883681 1.7140001 78 86 79 255
-0.12683736 -0.14866863 1.7120001 96 101 97 255
-0.12221047 -0.1487608 1.7130001 85 91 84 255
-0.11744042 -0.14867908 1.7120001 80 86 79 255
-0.11274124 -0.14868401 1.7120001 77 83 76 255
-0.1079154 -0.14851508 1.71 79 85 78 255
-0.10334156 -0.14869332 1.7120001 76 82 75 255
-0.098583467 -0.14861085 1.7110001 82 88 81 255
-0.093830459 -0.14852814 1.71 87 93 86 255
-0.089082569 -0.14844525 1.7090001 89 95 88 255
-0.084487937 -0.14862274 1.7110001 80 86 79 255
-0.079835355 -0.14871319 1.7120001 82 86 79 255
-0.075220846 -0.1488903 1.7140001 81 85 78 255
-0.070430472 -0.14871976 1.7120001 82 85 81 255
-0.065727584 -0.14872272 1.7120001 81 85 78 255
-0.061024413 -0.14872549 1.7120001 85 89 82 255
-0.056419685 -0.14898866 1.715 80 84 77 255
-0.051707789 -0.14899105 1.715 86 90 83 255
-0.046968285 -0.14890635 1.7140001 84 88 81 255
-0.042258732 -0.14890832 1.7140001 86 90 83 255
-0.03763663 -0.14925757 1.7180001 81 85 78 255
-0.03297323 -0.14951977 1.7210001 79 83 75 255
-0.028293209 -0.14978176 1.7240001 78 82 75 255
-0.023528261 -0.14960915 1.7220001 77 78 72 255
-0.018806949 -0.14969695 1.723 77 78 72 255
-0.014055567 -0.14952391 1.7210001 76 77 71 255
-0.0093367919 -0.1496982 1.723 79 80 76 255
-0.0045989729 -0.14961162 1.7220001 79 80 76 255
0.00013352348 -0.1496986 1.723 79 80 74 255
0.0048743417 -0.14987227 1.725 75 79 72 255
0.0096484274 -0.15039325 1.7310001 75 79 72 255
0.014438808 -0.15074024 1.7350001 74 78 71 255
0.019240044 -0.15100013 1.738 74 78 71 255
0.024002414 -0.15091231 1.7370001 74 78 71 255
0.02877575 -0.15091114 1.7370001 73 77 70 255
0.033529654 -0.15082289 1.7360001 75 76 72 255
0.038366176 -0.15108195 1.7390001 72 73 69 255
0.043119781 -0.15099327 1.738 78 79 75 255
0.047895268 -0.15099126 1.738 77 78 74 255
0.052579641 -0.15072845 1.7350001 77 80 76 255
0.057379518 -0.15081291 1.7360001 76 79 75 255
0.062077258 -0.15063654 1.7340001 78 83 80 255
0.066802293 -0.15054682 1.733 79 84 81 255
0.071397685 -0.15019634 1.7290001 83 88 85 255
0.07610292 -0.15010625 1.728 85 90 87 255
0.080755562 -0.14992909 1.7260001 85 90 87 255
0.085595042 -0.1500992 1.728 81 86 83 255
0.66277581 -0.14857399 1.7240001 20 23 20 255
0.66473866 -0.14796482 1.7170001 23 24 20 255
0.66666418 -0.14735593 1.71 30 34 27 255
0.66933793 -0.14691971 1.705 22 26 18 255
0.66921824 -0.14588058 1.6930001 22 29 18 255
0.67062646 -0.14518647 1.6850001 24 29 17 255
0.67399579 -0.14492346 1.682 25 30 18 255
0.68178743 -0.14560848 1.6900001 27 32 21 255
0.68515611 -0.14534605 1.687 28 33 22 255
0.68237668 -0.14379157 1.669 27 31 23 255
0.68279332 -0.14292671 1.659 27 31 23 255
0.68149966 -0.14171755 1.6450001 26 32 24 255
0.67679507 -0.13981953 1.623 31 37 30 255
0.67071307 -0.13766347 1.598 34 40 33 255
0.67041075 -0.13671382 1.5870001 29 33 25 255
0.67430139 -0.13662593 1.5860001 27 31 23 255
0.67733228 -0.13636605 1.5830001 25 30 18 255
0.68207073 -0.13645108 1.5840001 25 30 18 255
0.68508279 -0.13619183 1.5810001 24 29 15 255
0.69069642 -0.13644978 1.5840001 27 32 18 255
0.69501173 -0.13644964 1.5840001 25 30 18 255
0.70771706 -0.13808651 1.603 27 32 20 255
0.71253181 -0.13817316 1.6040001 25 30 19 255
0.71735388 -0.13826017 1.605 38 45 34 255
0.719935 -0.13791682 1.6010001 22 30 22 255
0.72566301 -0.13817684 1.6040001 55 64 57 255
0.72913373 -0.13800649 1.6020001 106 115 110 255
0.73488498 -0.13826725 1.605 165 177 178 255
0.73835176 -0.13809766 1.603 166 177 180 255
0.7418099 -0.13792844 1.6010001 172 181 184 255
0.74292904 -0.13732885 1.5940001 173 182 187 255
0.74307448 -0.13655728 1.585 176 183 186 255
0.74317312 -0.13578607 1.5760001 181 188 191 255
0.74275047 -0.13492905 1.5660001 182 189 192 255
0.74275267 -0.13415855 1.557 181 187 193 255
0.74222827 -0.13330223 1.5470001 183 189 195 255
0.74309921 -0.13270476 1.5400001 185 191 197 255
0.74247849 -0.13184913 1.5300001 187 193 199 255
0.74131757 -0.13090764 1.5190001 189 195 202 255
0.73960817 -0.12988031 1.5070001 190 196 203 255
0.74030334 -0.12928425 1.5000001 189 195 202 255
-0.73596597 -0.16221292 1.825 234 238 240 255
-0.72660732 -0.16123988 1.8140001 214 221 218 255
-0.71969646 -0.1608004 1.8090001 198 206 199 255
-0.71241856 -0.16027229 1.8030001 213 221 214 255
-0.70517427 -0.15974443 1.7970001 215 223 216 255
-0.69835311 -0.15930572 1.7920001 206 214 207 255
-0.69194686 -0.15895616 1.7880001 205 213 206 255
-0.68633181 -0.15878466 1.7860001 204 212 204 255
-0.68034661 -0.1585245 1.7830001 204 212 204 255
-0.67475724 -0.15835346 1.7810001 207 216 205 255
-0.66767484 -0.15782702 1.7750001 209 218 207 255
-0.66249275 -0.15774538 1.774 205 213 205 255
-0.65620434 -0.15739718 1.7700001 211 219 211 255
-0.65067428 -0.15722705 1.7680001 216 224 216 255
-0.6436941 -0.15670139 1.7620001 188 197 186 255
-0.63819736 -0.15653165 1.7600001 141 148 136 255
-0.63307172 -0.15645105 1.7590001 141 148 136 255
-0.62866616 -0.15654853 1.7600001 190 198 183 255
-0.62319219 -0.1563794 1.7580001 186 194 179 255
-0.61878437 -0.15647729 1.7590001 185 193 178 255
-0.61402255 -0.15648645 1.7590001 181 189 172 255
-0.61064625 -0.15685165 1.7630001 167 176 157 255
-0.60656106 -0.15703914 1.7650001 164 171 150 255
-0.60314715 -0.15740478 1.7690001 169 177 152 255
-0.59903502 -0.15759267 1.771 119 126 97 255
-0.59524775 -0.15786976 1.774 121 125 97 255
-0.59077853 -0.15796903 1.7750001 132 136 108 255
-0.58630383 -0.15806849 1.7760001 136 140 112 255
-0.58215111 -0.1582571 1.7780001 135 139 111 255
-0.57863677 -0.15862392 1.7820001 134 139 108 255
-0.57477862 -0.1589019 1.7850001 133 138 107 255
-0.57090414 -0.15918007 1.7880001 133 138 107 255
-0.5673297 -0.15954743 1.7920001 135 140 109 255
-0.56373352 -0.159915 1.7960001 136 141 110 255
-0.56073767 -0.16046081 1.802 125 130 99 255
-0.55678356 -0.16073966 1.8050001 110 115 83 255
-0.55281299 -0.16101867 1.8080001 107 113 78 255
-0.54791659 -0.16103065 1.8080001 99 105 70 255
-0.54362047 -0.16122083 1.8100001 97 103 68 255
-0.53871787 -0.16123301 1.8100001 88 94 58 255
-0.53410983 -0.16133437 1.8110001 81 87 51 255
-0.52949578 -0.16143581 1.812 113 119 84 255
-0.52429688 -0.16135918 1.8110001 130 135 103 255
-0.51938963 -0.16137169 1.8110001 130 135 104 255
-0.51419783 -0.16129516 1.8100001 131 136 105 255
-0.50957364 -0.16139695 1.8110001 113 118 87 255
-0.50494343 -0.16149881 1.812 115 120 89 255
-0.50030726 -0.16160075 1.8130001 113 118 87 255
-0.49593812 -0.16179188 1.8150001 108 113 81 255
-0.4910166 -0.1618048 1.8150001 105 110 78 255
-0.48662999 -0.16199607 1.817 118 123 91 255
-0.48117149 -0.16183078 1.8150001 106 111 79 255
-0.47624785 -0.16184381 1.8150001 103 108 76 255
-0.47132355 -0.16185687 1.8150001 102 107 75 255
-0.46639848 -0.16186997 1.8150001 109 114 83 255
-0.46172699 -0.16197228 1.8160001 102 107 76 255
-0.45679769 -0.16198541 1.8160001 108 115 84 255
-0.45211652 -0.16208777 1.817 117 124 92 255
-0.44693685 -0.16201173 1.8160001 103 110 78 255
-0.44176182 -0.16193566 1.8150001 105 110 78 255
-0.43635079 -0.16177036 1.8130001 111 117 82 255
-0.43166369 -0.16187274 1.8140001 125 131 96 255
-0.42673501 -0.16188586 1.8140001 116 121 89 255
-0.42227054 -0.16207747 1.8160001 108 116 81 255
-0.41733477 -0.16209058 1.8160001 124 130 95 255
-0.41262516 -0.16219291 1.817 118 125 93 255
-0.4074606 -0.16211674 1.8160001 90 100 67 255
-0.40274382 -0.16221902 1.817 105 115 80 255
-0.39780179 -0.16223201 1.817 99 109 76 255
-0.39307511 -0.16233426 1.8180001 109 119 86 255
-0.38812858 -0.16234718 1.8180001 107 116 85 255
-0.38275957 -0.16218144 1.8160001 114 123 92 255
-0.37656838 -0.16165836 1.8100001 108 117 86 255
-0.37020364 -0.16104582 1.8030001 83 92 61 255
-0.36407864 -0.16052242 1.7970001 94 103 74 255
-0.35838521 -0.16017757 1.7930001 138 147 118 255
-0.35251546 -0.15974323 1.7880001 144 152 127 255
-0.3464776 -0.15921943 1.7820001 139 147 122 255
-0.34162179 -0.15923157 1.7820001 123 129 103 255
-0.33752102 -0.15960112 1.7860001 117 124 95 255
-0.33470124 -0.16059621 1.7970001 116 121 90 255
-0.33182061 -0.16159134 1.8080001 114 120 85 255
-0.32797506 -0.16213964 1.8140001 94 99 67 255
-0.32356164 -0.16241974 1.817 101 106 74 255
-0.31895554 -0.16261038 1.8190001 86 91 60 255
-0.31433761 -0.16280095 1.8210001 72 79 50 255
-0.30919817 -0.16272321 1.8200001 62 67 45 255
-0.30372897 -0.16246653 1.817 61 66 45 255
-0.29860407 -0.16238852 1.8160001 65 69 51 255
-0.29380715 -0.16248925 1.817 49 54 40 255
-0.28836796 -0.16223215 1.8140001 43 48 37 255
-0.28247553 -0.16170654 1.8080001 111 115 107 255
-0.27584749 -0.16073352 1.7970001 122 126 119 255
-0.26912788 -0.15967077 1.7850001 119 123 116 255
-0.2627691 -0.15878668 1.7750001 100 105 101 255
-0.2567547 -0.15808125 1.7670001 108 115 111 255
-0.25035551 -0.1571072 1.756 106 113 109 255
-0.24443515 -0.15640131 1.748 99 106 102 255
-0.23896901 -0.15596361 1.743 96 103 99 255
-0.23379816 -0.15570471 1.7400001 94 99 95 255
-0.22877458 -0.1555351 1.738 94 99 95 255
-0.22401892 -0.15554431 1.738 82 87 83 255
-0.21938862 -0.15564288 1.7390001 83 89 82 255
-0.21462868 -0.15565181 1.7390001 74 80 73 255
-0.20938528 -0.15530255 1.7350001 72 78 71 255
-0.20404503 -0.15486354 1.7300001 93 99 92 255
-0.1991923 -0.15478241 1.7290001 73 79 72 255
-0.19411938 -0.15452208 1.7260001 65 71 64 255
-0.18917191 -0.15435106 1.7240001 107 113 106 255
-0.18412772 -0.15409033 1.7210001 85 91 84 255
-0.17972477 -0.15436664 1.7240001 76 82 75 255
-0.1751017 -0.15446371 1.725 87 93 86 255
-0.17057128 -0.1546502 1.7270001 90 96 89 255
-0.16574116 -0.15456781 1.7260001 86 92 85 255
-0.16100919 -0.15457484 1.7260001 83 89 82 255
-0.15618604 -0.1544921 1.725 88 91 87 255
-0.1513678 -0.15440917 1.7240001 86 89 85 255
-0.14655446 -0.15432607 1.723 87 92 88 255
-0.14174604 -0.15424275 1.7220001 86 91 87 255
-0.13702212 -0.15424883 1.7220001 77 83 76 255
-0.13229768 -0.15425473 1.7220001 76 84 77 255
-0.12742454 -0.15408126 1.72 96 102 95 255
-0.1226332 -0.15399715 1.7190001 89 95 88 255
-0.11777829 -0.15382327 1.7170001 83 89 82 255
-0.11299972 -0.15373877 1.7160001 82 88 81 255
-0.10841554 -0.15392287 1.7180001 80 86 79 255
-0.10369918 -0.15392756 1.7180001 85 91 84 255
-0.098924831 -0.15384248 1.7170001 88 94 87 255
-0.094100684 -0.15366757 1.715 88 94 87 255
-0.089495637 -0.15385088 1.7170001 83 89 82 255
-0.084879234 -0.15403399 1.7190001 80 86 79 255
-0.080204867 -0.15412727 1.72 79 85 78 255
-0.075480819 -0.15413079 1.72 83 86 82 255
-0.070715308 -0.15404445 1.7190001 82 85 81 255
-0.065993391 -0.15404752 1.7190001 86 90 83 255
-0.061271206 -0.15405039 1.7190001 84 88 81 255
-0.056614552 -0.15423228 1.7210001 82 86 79 255
-0.051886383 -0.15423472 1.7210001 85 89 82 255
-0.047158003 -0.15423697 1.7210001 86 90 83 255
-0.042429421 -0.15423898 1.7210001 84 88 81 255
-0.037788294 -0.15459928 1.725 79 83 76 255
-0.033105869 -0.15486977 1.728 77 81 74 255
-0.028357586 -0.15487117 1.728 76 77 71 255
-0.023581859 -0.1546931 1.7260001 75 76 70 255
-0.018860685 -0.15487331 1.728 74 75 69 255
-0.014112104 -0.15487404 1.728 76 77 73 255
-0.0093580484 -0.15478496 1.7270001 76 77 73 255
-0.0046094493 -0.15469564 1.7260001 77 77 75 255
0.00013390495 -0.15487501 1.728 74 75 71 255
0.0048854258 -0.15496452 1.7290001 73 76 72 255
0.0096535692 -0.15523307 1.7320001 72 76 69 255
0.014429839 -0.15541176 1.7340001 73 77 70 255
0.019250251 -0.15585914 1.7390001 75 79 72 255
0.024028972 -0.15585816 1.7390001 73 77 70 255
0.028791031 -0.15576734 1.738 74 78 71 255
0.033528157 -0.15558667 1.7360001 74 75 71 255
0.03832034 -0.15567468 1.7370001 72 75 71 255
0.043043431 -0.15549359 1.7350001 74 77 73 255
0.047810461 -0.15549153 1.7350001 77 80 76 255
0.052516691 -0.15531002 1.733 77 82 79 255
0.057343915 -0.15548679 1.7350001 81 86 83 255
0.062038701 -0.15530485 1.733 74 79 76 255
0.066760786 -0.15521234 1.7320001 73 78 75 255
0.67208856 -0.15433294 1.7360001 19 21 23 255
0.67406601 -0.15370482 1.7290001 31 33 33 255
0.67247319 -0.15227693 1.7130001 20 23 19 255
0.67079437 -0.15084943 1.697 25 29 22 255
0.67062181 -0.14977787 1.6850001 23 30 19 255
0.67318994 -0.14932884 1.6800001 25 30 19 255
0.67976624 -0.14976898 1.6850001 27 32 20 255
0.68393385 -0.14967605 1.6840001 29 34 22 255
0.68605292 -0.14913906 1.6780001 26 32 24 255
0.68525952 -0.14798024 1.6650001 26 32 24 255
0.68108249 -0.14611077 1.6440001 28 34 26 255
0.67595851 -0.14406395 1.6210001 34 40 33 255
0.67322928 -0.14255074 1.6040001 35 41 34 255
0.67378831 -0.14174883 1.595 30 34 26 255
0.67642558 -0.14139162 1.5910001 31 36 25 255
0.67861468 -0.14094585 1.5860001 25 30 18 255
0.6825003 -0.14085588 1.585 23 28 16 255
0.68334883 -0.14014417 1.577 27 32 20 255
0.68982399 -0.14058807 1.582 24 29 17 255
0.69457293 -0.14067684 1.5830001 26 31 20 255
0.70506847 -0.14192124 1.5970001 24 29 18 255
0.71253258 -0.14254393 1.6040001 23 27 19 255
0.71690804 -0.1425449 1.6040001 37 43 35 255
0.72083575 -0.14245735 1.603 20 28 21 255
0.72430754 -0.14228131 1.6010001 55 63 56 255
0.72868079 -0.14228339 1.6010001 111 120 113 255
0.73305607 -0.14228584 1.6010001 162 172 169 255
0.73789418 -0.14237759 1.6020001 166 175 177 255
0.7404232 -0.14202532 1.598 172 179 182 255
0.74246657 -0.14158456 1.5930001 174 181 184 255
0.7426098 -0.14078869 1.5840001 179 186 189 255
0.74317759 -0.14008203 1.5760001 179 186 189 255
0.74180681 -0.1390202 1.5640001 183 189 195 255
0.74084979 -0.13804759 1.5530001 182 188 194 255
0.7412743 -0.13734202 1.5450001 184 190 196 255
0.74214023 -0.13672572 1.5380001 187 193 199 255
0.74005854 -0.13557637 1.5250001 186 192 198 255
0.73790818 -0.13442734 1.5120001 189 195 202 255
0.73814303 -0.13372317 1.5040001 189 195 202 255
-0.74362344 -0.16892613 1.8440001 168 172 174 255
-0.73100847 -0.16719031 1.825 233 238 235 255
-0.72128272 -0.16609605 1.8130001 226 233 229 255
-0.71280837 -0.16527683 1.8040001 198 206 199 255
-0.70477611 -0.16454947 1.7960001 198 206 199 255
-0.69795746 -0.16409725 1.7910001 203 211 204 255
-0.69116664 -0.16364527 1.7860001 200 208 200 255
-0.68632531 -0.16365167 1.7860001 201 209 201 255
-0.6807214 -0.1634751 1.784 202 210 202 255
-0.67512906 -0.16329876 1.7820001 210 218 210 255
-0.66804373 -0.16275612 1.7760001 196 204 196 255
-0.66248518 -0.16258024 1.774 196 204 196 255
-0.65619665 -0.1622213 1.7700001 208 216 208 255
-0.65103436 -0.16213754 1.7690001 175 184 173 255
-0.6451472 -0.16187067 1.766 225 234 223 255
-0.64000207 -0.16178735 1.7650001 134 143 131 255
-0.63486266 -0.16170423 1.7640001 131 139 124 255
-0.63008624 -0.161713 1.7640001 150 159 140 255
-0.62531012 -0.16172197 1.7640001 176 182 164 255
-0.62018239 -0.16163947 1.7630001 175 181 163 255
-0.61645663 -0.16192392 1.766 179 185 167 255
-0.61306125 -0.1623003 1.7700001 167 172 151 255
-0.60895687 -0.16249348 1.7720001 159 164 142 255
-0.60552382 -0.16287032 1.7760001 149 155 130 255
-0.60105437 -0.16297221 1.7770001 147 151 123 255
-0.59725064 -0.16325776 1.7800001 135 139 111 255
-0.59276503 -0.16336004 1.7810001 136 140 114 255
-0.58827388 -0.1634625 1.7820001 135 139 111 255
-0.58410466 -0.16365688 1.784 139 143 115 255
-0.58089864 -0.16412665 1.789 143 147 119 255
-0.57702142 -0.16441312 1.7920001 135 140 109 255
-0.57344717 -0.16479155 1.7960001 134 139 108 255
-0.56953442 -0.16507843 1.7990001 118 123 92 255
-0.56560516 -0.16536544 1.802 119 124 93 255
-0.5613482 -0.16556086 1.8040001 115 120 89 255
-0.55708009 -0.1657564 1.8060001 109 114 83 255
-0.55280089 -0.16595212 1.8080001 103 107 72 255
-0.54790437 -0.16596438 1.8080001 95 101 66 255
-0.54330784 -0.16606854 1.8090001 92 97 65 255
-0.53870547 -0.16617283 1.8100001 108 114 79 255
-0.53409731 -0.16627721 1.8110001 127 132 100 255
-0.5294832 -0.16638172 1.812 132 137 106 255
-0.52428418 -0.16630265 1.8110001 127 132 101 255
-0.51966375 -0.16640735 1.812 128 135 106 255
-0.51446915 -0.16632843 1.8110001 136 142 116 255
-0.50927937 -0.16624957 1.8100001 116 122 96 255
-0.5046519 -0.16635448 1.8110001 112 119 90 255
-0.49974227 -0.16636761 1.8110001 122 129 98 255
-0.49565187 -0.1666564 1.8140001 128 135 104 255
-0.490733 -0.16666965 1.8140001 106 113 82 255
-0.48608121 -0.16677482 1.8150001 123 130 99 255
-0.48089322 -0.16669627 1.8140001 111 118 87 255
-0.47570989 -0.16661775 1.8130001 105 114 85 255
-0.47079095 -0.16663115 1.8130001 109 118 89 255
-0.46561435 -0.16655263 1.812 119 127 101 255
-0.46069667 -0.16656609 1.812 109 117 91 255
-0.45602977 -0.16667147 1.8130001 114 122 96 255
-0.45135674 -0.1667769 1.8140001 125 131 105 255
-0.44643137 -0.1667904 1.8140001 124 131 102 255
-0.44126177 -0.16671193 1.8130001 117 124 93 255
-0.43609679 -0.16663344 1.812 130 137 106 255
-0.43117446 -0.16664691 1.812 122 129 98 255
-0.42648649 -0.16675235 1.8130001 117 124 93 255
-0.42202473 -0.16694976 1.8150001 109 118 87 255
-0.4170917 -0.1669632 1.8150001 127 136 105 255
-0.4121578 -0.16697665 1.8150001 127 136 105 255
-0.40699866 -0.16689804 1.8140001 133 142 111 255
-0.402509 -0.16709541 1.8160001 111 120 89 255
-0.39778864 -0.16720077 1.817 121 128 96 255
-0.393062 -0.1673061 1.8180001 112 119 87 255
-0.38811553 -0.16731936 1.8180001 109 116 84 255
-0.3831681 -0.16733256 1.8180001 118 125 93 255
-0.37801173 -0.16725366 1.817 128 135 103 255
-0.37265468 -0.16708265 1.8150001 111 121 88 255
-0.36751014 -0.1670036 1.8140001 105 112 80 255
-0.36237007 -0.16692446 1.8130001 89 98 67 255
-0.35684025 -0.1666611 1.8100001 125 134 105 255
-0.35093704 -0.16621342 1.8050001 105 113 87 255
-0.34563524 -0.1660419 1.8030001 141 150 121 255
-0.34072134 -0.16605444 1.8030001 137 144 113 255
-0.33692402 -0.16661954 1.8090001 108 115 84 255
-0.33272606 -0.16700043 1.8130001 94 101 69 255
-0.3283245 -0.16728912 1.8160001 94 101 70 255
-0.3233715 -0.1673014 1.8160001 104 111 80 255
-0.31859285 -0.16740569 1.817 96 103 72 255
-0.3138079 -0.16750991 1.8180001 82 89 60 255
-0.30867675 -0.16742972 1.817 55 61 36 255
-0.30321586 -0.1671651 1.8140001 83 89 64 255
-0.29793489 -0.16699252 1.812 62 67 46 255
-0.29314893 -0.16709624 1.8130001 56 61 40 255
-0.2881977 -0.1671077 1.8130001 99 101 83 255
-0.28324559 -0.16711906 1.8130001 59 63 45 255
-0.27783209 -0.1668537 1.8100001 62 68 51 255
-0.27243403 -0.16658816 1.807 53 58 44 255
-0.26690352 -0.16623028 1.8030001 102 107 95 255
-0.26095814 -0.16559559 1.7960001 104 111 99 255
-0.25462237 -0.16468406 1.7860001 113 120 109 255
-0.2483405 -0.16377226 1.7760001 109 115 107 255
-0.24279797 -0.16332129 1.771 96 102 95 255
-0.23741637 -0.16296236 1.7670001 96 102 95 255
-0.23218742 -0.16269545 1.7640001 98 104 97 255
-0.22710299 -0.16252057 1.7620001 88 94 87 255
-0.22190256 -0.16225329 1.7590001 82 87 83 255
-0.21634755 -0.16170909 1.7530001 78 83 79 255
-0.21094529 -0.16125691 1.748 75 80 77 255
-0.20556965 -0.1608045 1.743 99 104 101 255
-0.20091188 -0.16090544 1.7440001 77 82 79 255
-0.19568561 -0.16054492 1.7400001 68 73 69 255
-0.19102913 -0.16064551 1.7410001 111 116 112 255
-0.18593855 -0.16037686 1.738 89 94 90 255
-0.1814892 -0.1606617 1.7410001 87 92 88 255
-0.17661673 -0.16057724 1.7400001 89 95 88 255
-0.17204535 -0.16076943 1.7420001 87 91 84 255
-0.16698225 -0.16049999 1.7390001 88 91 87 255
-0.16212152 -0.16041493 1.738 89 92 88 255
-0.15708461 -0.1601451 1.7350001 91 96 93 255
-0.15206355 -0.15987507 1.7320001 96 101 97 255
-0.14705835 -0.1596048 1.7290001 93 98 94 255
-0.14223365 -0.15951894 1.728 84 89 85 255
-0.13749348 -0.15952522 1.728 80 85 81 255
-0.13290639 -0.15971591 1.7300001 77 82 78 255
-0.1280856 -0.15962946 1.7290001 103 108 104 255
-0.12312709 -0.15935816 1.7260001 87 92 88 255
-0.11818458 -0.15908663 1.723 84 89 85 255
-0.11325805 -0.15881488 1.72 83 88 84 255
-0.10859998 -0.15891226 1.7210001 83 88 84 255
-0.10375489 -0.15873243 1.7190001 86 91 87 255
-0.098977976 -0.15864469 1.7180001 86 91 87 255
-0.094151288 -0.15846442 1.7160001 82 87 83 255
-0.089647934 -0.15883802 1.72 84 89 85 255
-0.085072882 -0.15911908 1.723 80 85 81 255
-0.080434375 -0.1593076 1.725 81 86 82 255
-0.075609028 -0.15912649 1.723 81 86 82 255
-0.070835494 -0.15903752 1.7220001 81 84 81 255
-0.066105552 -0.15904067 1.7220001 86 89 85 255
-0.061375331 -0.15904362 1.7220001 83 86 83 255
-0.056710653 -0.15923108 1.7240001 82 87 83 255
-0.052004598 -0.15932596 1.725 84 89 85 255
-0.047238041 -0.15923589 1.7240001 76 81 77 255
-0.042575393 -0.15951508 1.7270001 70 75 71 255
-0.03791799 -0.15988642 1.7310001 62 67 63 255
-0.033180978 -0.15998043 1.7320001 63 68 64 255
-0.028389104 -0.15979715 1.7300001 65 68 64 255
-0.023635421 -0.15979835 1.7300001 63 66 62 255
0.68068784 -0.15997387 1.7460001 173 177 179 255
0.67835629 -0.15831901 1.728 19 22 19 255
0.6715799 -0.15565677 1.6990001 28 31 27 255
0.6694231 -0.15409434 1.682 28 33 22 255
0.67198336 -0.15363163 1.677 26 31 20 255
0.67895514 -0.15417694 1.6830001 31 36 24 255
0.68189931 -0.15380645 1.6790001 29 34 22 255
0.68400502 -0.15325305 1.6730001 27 34 23 255
0.68114066 -0.15160079 1.6550001 26 33 22 255
0.67942244 -0.1502237 1.6400001 30 36 28 255
0.67637295 -0.14857219 1.6220001 34 40 32 255
0.67700452 -0.14774543 1.613 36 40 32 255
0.67843324 -0.14710219 1.6060001 31 36 25 255
0.68067557 -0.14664248 1.6010001 30 35 24 255
0.6816085 -0.14590833 1.5930001 25 30 18 255
0.68336064 -0.14535771 1.5870001 24 29 15 255
0.68681484 -0.14517382 1.585 29 34 22 255
0.6928761 -0.14553982 1.5890001 25 30 18 255
0.69808322 -0.14572297 1.5910001 27 32 21 255
0.70418596 -0.14608967 1.595 28 32 24 255
0.71164495 -0.14673151 1.6020001 41 45 38 255
0.71690923 -0.14691578 1.6040001 42 48 40 255
