ply
format ascii 1.0
comment PCL generated
element vertex 990
property float x
property float y
property float z
property uchar red
property uchar green
property uchar blue
property uchar alpha
element camera 0
property float view_px
property float view_py
property float view_pz
property float x_axisx
property float x_axisy
property float x_axisz
property float y_axisx
property float y_axisy
property float y_axisz
property float z_axisx
property float z_axisy
property float z_axisz
property float focal
property float scalex
property float scaley
property float centerx
property float centery
property int viewportx
property int viewporty
property float k1
property float k2
end_header
0.21937998 0.087630562 1.7360001 68 74 66 255
0.22439085 0.087726213 1.738 69 75 67 255
0.22980736 0.087973185 1.743 71 78 67 255
0.23498131 0.08811909 1.7460001 69 75 67 255
0.23989619 0.088163964 1.7470001 66 72 64 255
0.2445356 0.088107824 1.7460001 62 68 61 255
0.24888305 0.087950677 1.743 62 68 61 255
0.2535044 0.087894402 1.7420001 57 63 55 255
0.25826755 0.087888479 1.7420001 67 73 65 255
0.26363385 0.088084303 1.7460001 70 76 68 255
0.26794505 0.087926887 1.743 63 69 61 255
0.27255186 0.087870307 1.7420001 55 61 53 255
0.2771523 0.087813646 1.7410001 55 62 51 255
0.28320372 0.088210858 1.7490001 60 67 56 255
0.28962722 0.088708803 1.7590001 67 74 63 255
0.29593706 0.089156173 1.7680001 61 68 57 255
0.30093417 0.08920002 1.7690001 60 67 56 255
0.30507159 0.088991687 1.7650001 57 63 55 255
0.30918622 0.088783339 1.761 55 61 53 255
0.3130998 0.088524543 1.756 53 61 54 255
0.31752825 0.088416949 1.7540001 56 62 55 255
0.32267985 0.088510923 1.756 64 70 63 255
0.32784149 0.08860486 1.7580001 67 73 66 255
0.33301303 0.088698715 1.7600001 64 70 63 255
0.33781064 0.088691704 1.7600001 64 70 62 255
0.34299669 0.088785432 1.7620001 65 71 63 255
0.34819266 0.088879101 1.7640001 63 69 61 255
0.3531985 0.088922344 1.7650001 61 67 59 255
0.3576003 0.088814385 1.7630001 61 66 55 255
0.36260697 0.088857524 1.7640001 61 66 55 255
0.3678264 0.088950992 1.766 62 66 58 255
0.37305585 0.089044422 1.7680001 62 66 58 255
0.37765402 0.08898671 1.7670001 61 67 60 255
0.38224581 0.088928968 1.766 59 65 57 255
0.38683125 0.088871218 1.7650001 58 64 56 255
0.39207602 0.0889645 1.7670001 59 65 57 255
0.39710614 0.089007385 1.7680001 61 66 55 255
0.40214077 0.089050241 1.7690001 57 64 53 255
0.40717998 0.089093074 1.7700001 57 64 53 255
0.41222373 0.089135885 1.771 57 64 53 255
0.41680104 0.089078024 1.7700001 58 65 54 255
0.42137203 0.089020155 1.7690001 57 64 53 255
0.42569587 0.088911965 1.7670001 56 63 52 255
0.43049526 0.088904433 1.7670001 60 66 58 255
0.43529376 0.088896878 1.7670001 59 65 57 255
0.44009146 0.088889331 1.7670001 61 67 60 255
0.44413304 0.088730879 1.7640001 64 68 61 255
0.448412 0.088622756 1.7620001 66 70 63 255
0.4529365 0.088564932 1.761 65 69 61 255
0.45745489 0.088507153 1.7600001 64 68 60 255
0.46222958 0.088499658 1.7600001 65 69 61 255
0.46647295 0.088391624 1.7580001 66 70 63 255
0.47070467 0.088283621 1.756 67 71 64 255
0.47492492 0.088175662 1.7540001 65 69 62 255
0.47968063 0.088168271 1.7540001 65 69 62 255
0.48415941 0.088110648 1.7530001 64 70 63 255
0.48835319 0.088002786 1.751 66 72 65 255
0.49253556 0.087894976 1.7490001 67 73 66 255
0.4969908 0.08783748 1.748 61 69 62 255
0.50143999 0.087780014 1.7470001 64 72 65 255
0.50588316 0.0877226 1.7460001 63 71 64 255
0.510028 0.087614998 1.7440001 65 73 66 255
0.51386636 0.087457217 1.7410001 64 72 65 255
0.51798576 0.087349735 1.7390001 68 76 69 255
0.52179325 0.087192088 1.7360001 70 76 69 255
0.5271005 0.08728563 1.738 69 75 67 255
0.53241819 0.087379217 1.7400001 66 72 64 255
0.53743756 0.087422624 1.7410001 60 67 56 255
0.54183918 0.087365657 1.7400001 56 63 52 255
0.54623502 0.087308772 1.7390001 61 68 57 255
0.54999161 0.08715155 1.7360001 55 61 53 255
0.55405104 0.087044612 1.7340001 59 65 57 255
0.55906624 0.087088354 1.7350001 64 70 62 255
0.5673359 0.087634072 1.7460001 70 74 66 255
0.57664782 0.088330351 1.7600001 69 73 65 255
0.58471394 0.088825867 1.7700001 43 48 37 255
0.58983648 0.088869773 1.771 45 50 39 255
0.59496444 0.088913754 1.7720001 43 48 37 255
0.59975928 0.088907652 1.7720001 41 46 35 255
0.60421288 0.088851467 1.771 40 46 38 255
0.60591018 0.088394061 1.7620001 49 55 47 255
0.60617226 0.087736145 1.7490001 60 66 59 255
0.60776144 0.087279074 1.7400001 78 84 77 255
0.61106187 0.087072931 1.7360001 66 72 65 255
0.61505026 0.086967237 1.7340001 54 60 53 255
0.6201002 0.08701212 1.7350001 61 67 60 255
0.62623608 0.087207533 1.7390001 57 62 58 255
0.63420796 0.087653771 1.748 58 65 61 255
0.64259458 0.088150233 1.7580001 57 64 60 255
0.6521402 0.088797174 1.771 101 108 104 255
0.66324049 0.089644715 1.7880001 165 172 168 255
0.68377429 0.091745645 1.83 174 181 178 255
0.72590512 0.095997423 1.9150001 158 166 163 255
0.73147315 0.096042961 1.9160001 159 167 164 255
0.73243362 0.095487148 1.9050001 155 163 162 255
0.73372233 0.094981663 1.8950001 157 164 161 255
0.737297 0.094777107 1.891 156 163 160 255
0.73692483 0.094071545 1.8770001 156 163 160 255
0.73568702 0.093265988 1.8610001 153 160 157 255
0.73157722 0.092109844 1.8380001 153 160 157 255
0.73255318 0.09160541 1.8280001 149 156 153 255
0.73428297 0.091201417 1.8200001 143 150 146 255
0.73475182 0.090647295 1.8090001 141 149 142 255
0.7318911 0.089692518 1.7900001 126 134 127 255
0.73180968 0.089088723 1.7780001 121 129 122 255
0.7349788 0.088885978 1.774 122 130 123 255
0.7360422 0.088432901 1.7650001 123 131 124 255
0.73621869 0.087879829 1.7540001 124 132 125 255
0.73549187 0.087226763 1.7410001 122 130 123 255
0.73767209 0.086924627 1.7350001 122 130 123 255
0.73810947 0.086422279 1.725 124 132 125 255
0.7384941 0.085920155 1.715 125 133 126 255
0.73839253 0.085368134 1.7040001 129 138 131 255
0.74041307 0.085066818 1.6980001 136 145 140 255
0.73977 0.084465116 1.6860001 140 149 144 255
0.74171221 0.08416421 1.6800001 150 158 155 255
0.74140251 0.083613023 1.669 158 166 165 255
0.74282247 0.083262444 1.6620001 170 178 177 255
0.7419579 0.082661584 1.6500001 169 176 178 255
0.74329174 0.082311414 1.6430001 171 178 180 255
0.74458945 0.08196146 1.636 174 181 184 255
0.74539322 0.081561625 1.628 175 182 184 255
0.7456947 0.081111893 1.6190001 173 180 182 255
0.74502265 0.080562167 1.608 175 182 184 255
0.74475884 0.080062762 1.598 177 184 186 255
0.74491131 0.079613648 1.5890001 178 185 187 255
0.74595994 0.079264961 1.582 177 184 186 255
0.74744701 0.078966588 1.5760001 181 187 189 255
0.74699563 0.07846801 1.5660001 179 185 187 255
0.7488907 0.078220181 1.5610001 181 187 189 255
0.74786597 0.0776719 1.5500001 181 187 189 255
0.749695 0.077424504 1.5450001 183 189 191 255
0.75052327 0.077077098 1.5380001 181 187 189 255
0.75229746 0.076830141 1.5330001 182 188 191 255
0.7525664 0.076433048 1.5250001 183 189 191 255
0.75279427 0.07603617 1.5170001 182 188 190 255
0.75248206 0.075589374 1.508 183 189 191 255
0.75262517 0.075192921 1.5000001 185 191 193 255
-0.97691971 0.082062058 1.7270001 26 23 7 255
-0.95516574 0.08062426 1.697 31 28 14 255
-0.95262831 0.080802374 1.7010001 26 25 11 255
-0.96746171 0.08286915 1.7450001 24 23 9 255
-0.96311772 0.082905509 1.7460001 28 27 13 255
-0.95438325 0.082562424 1.7390001 39 38 22 255
-0.94460112 0.082124829 1.7300001 57 54 38 255
-0.94247973 0.082352206 1.7350001 64 60 43 255
-0.94033551 0.082579881 1.7400001 64 58 41 255
-0.9349426 0.082523115 1.7390001 42 34 17 255
-0.92742068 0.082276903 1.7340001 54 44 27 255
-0.93004066 0.082932517 1.748 87 75 58 255
-0.92517751 0.08292418 1.748 97 85 68 255
-0.9176864 0.082678996 1.743 95 83 66 255
-0.9138937 0.082766198 1.7450001 88 76 57 255
-0.91321993 0.08313825 1.7530001 86 72 53 255
-0.91457874 0.08370024 1.7650001 84 70 50 255
-0.92051393 0.084689222 1.7860001 82 68 48 255
-0.92069805 0.085156791 1.7960001 66 52 29 255
-0.91828161 0.08538755 1.8010001 67 53 30 255
-0.91432023 0.085476354 1.8030001 74 58 35 255
-0.91085607 0.085612848 1.8060001 80 61 39 255
-0.906376 0.085654825 1.807 54 35 13 255
-0.89989865 0.085507505 1.8040001 82 64 40 255
-0.89344156 0.085360475 1.8010001 89 72 52 255
-0.88404459 0.084929392 1.7920001 81 57 39 255
-0.8109259 0.085981846 1.8150001 136 141 127 255
-0.79798651 0.08512906 1.7970001 116 122 104 255
-0.78867799 0.084655479 1.7870001 120 127 106 255
-0.78118038 0.084371597 1.7810001 141 148 127 255
-0.77197355 0.083898418 1.771 147 153 135 255
-0.76022393 0.083141178 1.7550001 161 167 150 255
-0.75114572 0.082668371 1.7450001 163 171 154 255
-0.74340677 0.082337871 1.738 164 172 157 255
-0.73740757 0.082197048 1.7350001 164 172 157 255
-0.7318483 0.082103774 1.733 168 178 161 255
-0.72588181 0.081963308 1.7300001 172 182 165 255
-0.71868235 0.081680864 1.7240001 170 181 162 255
-0.71193087 0.081445962 1.7190001 169 179 162 255
-0.70561922 0.081258602 1.715 172 182 165 255
-0.69892168 0.081023999 1.71 176 186 169 255
-0.69265854 0.080836937 1.7060001 178 186 171 255
-0.68561143 0.080555253 1.7 179 187 172 255
-0.67899841 0.080321074 1.6950001 180 188 173 255
-0.67241359 0.080087043 1.6900001 181 189 174 255
-0.66704214 0.079995304 1.6880001 182 190 175 255
-0.66168243 0.079903699 1.6860001 181 189 174 255
-0.65555483 0.07971745 1.682 184 192 177 255
-0.65022373 0.079626106 1.6800001 180 188 173 255
-0.64451987 0.079487495 1.677 181 189 172 255
-0.6392144 0.079396389 1.6750001 179 189 172 255
-0.63354141 0.079258002 1.6720001 178 188 171 255
-0.62750918 0.079072326 1.6680001 174 184 167 255
-0.62261951 0.079028971 1.6670001 175 185 168 255
-0.61773574 0.078985728 1.6660001 174 184 167 255
-0.61285776 0.078942597 1.6650001 170 179 160 255
-0.60798562 0.078899577 1.664 169 178 159 255
-0.60311919 0.078856654 1.6630001 167 176 157 255
-0.59861845 0.078861266 1.6630001 165 174 153 255
-0.59340352 0.078771129 1.6610001 159 168 147 255
-0.58890861 0.07877592 1.6610001 156 166 143 255
-0.58406204 0.078733392 1.6600001 156 166 143 255
-0.57957023 0.078738391 1.6600001 148 158 135 255
-0.57473207 0.078696042 1.659 153 163 140 255
-0.5705868 0.078748651 1.6600001 155 165 142 255
-0.56609511 0.078753918 1.6600001 155 165 142 255
-0.5619418 0.078806713 1.6610001 145 155 130 255
-0.55744749 0.078812145 1.6610001 140 150 125 255
-0.55328584 0.078865111 1.6620001 137 147 124 255
-0.54911876 0.078918152 1.6630001 138 148 125 255
-0.54461867 0.078923821 1.6630001 163 173 150 255
-0.5401184 0.078929558 1.6630001 152 164 141 255
-0.53529584 0.078887902 1.6620001 165 177 154 255
-0.53015912 0.078798845 1.6600001 149 161 138 255
-0.52566636 0.078804776 1.6600001 139 151 128 255
-0.5214873 0.078858249 1.6610001 144 156 133 255
-0.51699114 0.078864299 1.6610001 158 168 145 255
-0.51218617 0.078822933 1.6600001 155 164 143 255
-0.50708044 0.078734115 1.6580001 154 163 142 255
-0.50259137 0.078740314 1.6580001 155 164 143 255
-0.49840236 0.078794062 1.659 145 154 133 255
-0.49450517 0.078895368 1.6610001 144 153 132 255
-0.49000669 0.078901716 1.6610001 144 154 129 255
-0.48521549 0.078860596 1.6600001 143 153 128 255
-0.48042908 0.078819513 1.659 142 152 127 255
-0.47536081 0.078730948 1.6570001 142 152 129 255
-0.47058704 0.078689925 1.6560001 154 164 141 255
-0.46638089 0.07874395 1.6570001 153 163 140 255
-0.4618901 0.078750499 1.6570001 148 160 137 255
-0.45739868 0.07875707 1.6570001 137 149 126 255
-0.45208666 0.078621067 1.654 152 163 142 255
-0.44760212 0.078627668 1.654 157 168 147 255
-0.44231322 0.078491673 1.651 143 154 133 255
-0.43704 0.07835567 1.6480001 146 157 136 255
-0.43204471 0.078267202 1.646 154 165 144 255
-0.42731944 0.078226291 1.6450001 151 162 143 255
-0.42311299 0.078280494 1.646 172 183 164 255
-0.41864598 0.078287147 1.646 155 166 147 255
-0.41417825 0.0782938 1.646 166 177 158 255
-0.40921205 0.078205332 1.6440001 161 172 153 255
-0.40425587 0.078116849 1.6420001 172 183 164 255
-0.39882284 0.077933177 1.6380001 182 193 174 255
-0.39389223 0.077844635 1.636 179 190 171 255
-0.38873374 0.077708505 1.6330001 138 149 130 255
-0.38429672 0.077715099 1.6330001 126 137 116 255
-0.37985885 0.077721685 1.6330001 121 131 108 255
-0.37542021 0.077728257 1.6330001 135 145 122 255
-0.37075353 0.077687211 1.6320001 139 146 124 255
-0.36654043 0.077741355 1.6330001 135 145 122 255
-0.36232096 0.077795491 1.6340001 138 148 123 255
-0.35787624 0.077801995 1.6340001 126 136 111 255
-0.35364699 0.077856109 1.6350001 126 136 110 255
-0.34962502 0.077957816 1.6370001 125 136 107 255
-0.34601295 0.078154765 1.641 118 127 96 255
-0.34196204 0.078256473 1.6430001 111 120 89 255
-0.33810475 0.078405783 1.646 112 121 90 255
-0.33402759 0.078507453 1.6480001 120 127 96 255
-0.33033854 0.078704387 1.6520001 116 123 92 255
-0.32642955 0.078853659 1.6550001 109 116 85 255
-0.32211438 0.078907639 1.6560001 111 118 86 255
-0.31740922 0.078866251 1.6550001 108 115 83 255
-0.31327584 0.07896781 1.6570001 119 126 94 255
-0.30950329 0.079164647 1.6610001 119 124 92 255
-0.30515724 0.07921847 1.6620001 87 94 65 255
-0.30026224 0.079129264 1.6600001 57 61 35 255
-0.29484275 0.078896962 1.6550001 22 22 2 255
-0.28997591 0.0788076 1.6530001 24 24 6 255
-0.28546456 0.078813545 1.6530001 26 23 9 255
-0.28095227 0.078819424 1.6530001 25 22 8 255
-0.27660641 0.078872927 1.654 29 26 12 255
-0.27192518 0.078831002 1.6530001 26 23 9 255
-0.26741028 0.078836709 1.6530001 25 22 6 255
-0.26321265 0.078937747 1.6550001 27 26 12 255
-0.25884688 0.078991026 1.6560001 25 24 10 255
-0.25447482 0.079044245 1.6570001 41 43 33 255
-0.24964391 0.078954302 1.6550001 60 64 56 255
-0.24526742 0.079007395 1.6560001 55 61 54 255
-0.24030314 0.078869574 1.6530001 76 84 77 255
-0.23549709 0.07877937 1.651 88 96 89 255
-0.23028141 0.078545928 1.646 73 81 74 255
-0.22550382 0.078455552 1.6440001 80 88 81 255
-0.22060195 0.078317359 1.641 74 82 75 255
-0.21597913 0.078274533 1.6400001 97 104 100 255
-0.21123202 0.078183889 1.6380001 94 101 97 255
-0.20687373 0.078236356 1.6390001 80 88 81 255
-0.20287971 0.078431964 1.6430001 58 64 57 255
-0.19874226 0.078579761 1.646 57 63 55 255
-0.19411564 0.078536525 1.6450001 57 64 53 255
-0.1893785 0.078445464 1.6430001 63 68 57 255
-0.18487665 0.078449786 1.6430001 65 70 59 255
-0.18070346 0.078597277 1.646 60 65 54 255
-0.17662019 0.078792453 1.6500001 62 66 58 255
-0.17261861 0.079035312 1.6550001 63 67 59 255
-0.1686905 0.079325862 1.6610001 57 62 51 255
-0.16423474 0.079377532 1.6620001 59 64 53 255
-0.15938857 0.079238079 1.659 58 63 52 255
-0.15474489 0.079194047 1.6580001 61 66 55 255
-0.15019669 0.079197675 1.6580001 64 69 58 255
-0.14582357 0.079296745 1.6600001 65 70 59 255
-0.1413538 0.079347961 1.6610001 64 69 58 255
-0.13687794 0.079399064 1.6620001 64 69 58 255
-0.13215724 0.079306759 1.6600001 65 70 59 255
-0.12729323 0.079118796 1.6560001 63 68 57 255
-0.12274716 0.079121813 1.6560001 65 70 59 255
-0.11862884 0.079411425 1.6620001 68 75 64 255
-0.11433984 0.079605386 1.6660001 65 70 59 255
-0.10989661 0.079703689 1.6680001 65 70 59 255
-0.10506313 0.079515167 1.664 65 70 59 255
-0.10049274 0.079517692 1.664 65 70 59 255
-0.095806643 0.079424538 1.6620001 65 69 61 255
-0.091240935 0.079426832 1.6620001 67 71 63 255
-0.086726986 0.079476811 1.6630001 67 72 61 255
-0.082553014 0.079861246 1.6710001 67 72 61 255
-0.078194745 0.08010219 1.6760001 64 69 58 255
-0.073633052 0.080151863 1.677 62 67 55 255
-0.068942063 0.080058038 1.6750001 64 69 58 255
-0.064338602 0.0800597 1.6750001 67 72 61 255
-0.05973487 0.080061249 1.6750001 67 72 61 255
-0.05516379 0.080110475 1.6760001 68 73 62 255
-0.05061714 0.080207393 1.6780001 65 70 59 255
-0.046031862 0.080256402 1.6790001 65 70 59 255
-0.041416224 0.08025749 1.6790001 68 73 62 255
-0.036800399 0.080258466 1.6790001 66 71 60 255
-0.032165259 0.080211528 1.6780001 68 73 62 255
-0.027568312 0.080260076 1.6790001 64 69 58 255
-0.02299309 0.080404118 1.682 64 71 59 255
-0.018401269 0.080548048 1.6850001 64 71 59 255
-0.013776532 0.080596253 1.6860001 65 70 58 255
-0.0091408147 0.080596544 1.6860001 67 72 60 255
-0.0045130723 0.080740117 1.6890001 68 73 61 255
0.00013110852 0.080835775 1.6910001 64 71 59 255
0.0047834599 0.080883518 1.692 63 70 58 255
0.0094412901 0.080931142 1.6930001 66 73 61 255
0.014112905 0.081026457 1.6950001 63 70 58 255
0.018795457 0.081121646 1.697 65 70 58 255
0.023475097 0.08116892 1.6980001 66 71 59 255
0.028176712 0.081263877 1.7 65 70 58 255
0.032869879 0.081310928 1.7010001 66 71 60 255
0.037568402 0.081357844 1.702 62 66 58 255
0.042272266 0.081404649 1.7030001 68 72 64 255
0.047009014 0.08149913 1.705 70 74 66 255
0.051726233 0.081545703 1.7060001 70 74 66 255
0.056448728 0.08159215 1.7070001 69 75 67 255
0.061176483 0.081638485 1.7080001 69 76 65 255
0.065870903 0.081636898 1.7080001 69 76 65 255
0.070565052 0.081635207 1.7080001 67 74 62 255
0.075391077 0.081776783 1.7110001 68 75 63 255
0.080186471 0.081870444 1.7130001 68 75 63 255
0.085042074 0.082011789 1.7160001 65 72 61 255
0.089809194 0.082057424 1.7170001 66 73 62 255
0.094526358 0.082055144 1.7170001 69 75 67 255
0.099243149 0.082052767 1.7170001 67 73 65 255
0.10395952 0.082050271 1.7170001 68 75 64 255
0.10867544 0.082047664 1.7170001 67 74 63 255
0.11345696 0.082092732 1.7180001 69 76 64 255
0.1183123 0.082185477 1.72 67 74 62 255
0.12324966 0.082325876 1.723 65 74 63 255
0.12798016 0.082322828 1.723 63 72 61 255
0.13278715 0.08236745 1.7240001 65 74 63 255
0.13775863 0.082507506 1.7270001 69 76 65 255
0.14282852 0.082695223 1.7310001 69 75 67 255
0.14791982 0.082882829 1.7350001 62 69 58 255
0.15294445 0.083022527 1.738 62 69 58 255
0.15789421 0.083114363 1.7400001 64 70 62 255
0.16285427 0.083206065 1.7420001 66 72 64 255
0.16763227 0.083202153 1.7420001 63 69 61 255
0.17231058 0.083150364 1.7410001 61 67 59 255
0.17698278 0.083098494 1.7400001 64 68 61 255
0.18185769 0.08314205 1.7410001 64 68 61 255
0.18663019 0.083137728 1.7410001 65 69 62 255
0.19162185 0.083228819 1.743 67 71 64 255
0.19651107 0.08327207 1.7440001 66 70 62 255
0.20117418 0.083219722 1.743 64 70 62 255
0.20571293 0.083119549 1.7410001 62 68 60 255
0.21023992 0.083019286 1.7390001 66 72 64 255
0.215497 0.083205387 1.743 66 72 64 255
0.22077519 0.083391368 1.7470001 67 73 65 255
0.2260745 0.083577231 1.751 63 69 61 255
0.23152676 0.083810732 1.756 64 70 62 255
0.2363326 0.083805479 1.756 62 68 61 255
0.24100026 0.083752438 1.7550001 58 64 57 255
0.24524145 0.083556145 1.751 59 65 58 255
0.24988829 0.083502963 1.7500001 58 64 57 255
0.25423771 0.083354272 1.7470001 59 65 58 255
0.2590147 0.083348662 1.7470001 68 74 67 255
0.26394171 0.083390675 1.748 69 75 67 255
0.26841214 0.083289512 1.7460001 60 66 58 255
0.27287078 0.08318828 1.7440001 55 61 53 255
0.27763599 0.083182395 1.7440001 59 65 57 255
0.28385764 0.083605684 1.7530001 63 70 59 255
0.28996283 0.083981141 1.761 67 74 63 255
0.29594344 0.084308811 1.7680001 67 74 63 255
0.30111074 0.084397934 1.7700001 61 69 61 255
0.30576944 0.084343955 1.7690001 58 66 59 255
0.30989507 0.084146909 1.7650001 52 60 53 255
0.32859415 0.08397802 1.7620001 61 67 60 255
0.33358744 0.084019087 1.7630001 57 63 56 255
0.33820137 0.083964787 1.7620001 59 65 58 255
0.34319827 0.084005758 1.7630001 56 62 55 255
0.34839702 0.084094308 1.7650001 59 65 58 255
0.35380581 0.084230453 1.7680001 67 73 66 255
0.35882437 0.084271267 1.7690001 66 72 64 255
0.36405295 0.084359661 1.771 68 74 66 255
0.36887497 0.084352747 1.771 67 71 63 255
0.37390697 0.084393419 1.7720001 63 69 61 255
0.37851608 0.084338829 1.771 64 70 63 255
0.38333526 0.084331818 1.771 65 71 64 255
0.38815349 0.084324777 1.771 61 67 59 255
0.39363647 0.084460549 1.774 61 67 59 255
0.39868569 0.084501073 1.7750001 65 70 59 255
0.40373939 0.084541567 1.7760001 65 70 59 255
0.40879768 0.084582031 1.7770001 59 66 55 255
0.41339493 0.084527284 1.7760001 58 65 54 255
0.41775033 0.084424935 1.774 63 70 59 255
0.4223322 0.084370181 1.7730001 61 68 57 255
0.42666692 0.084267847 1.771 61 68 57 255
0.43147713 0.08426068 1.771 67 73 65 255
0.43604016 0.084205933 1.7700001 60 66 58 255
0.44084606 0.084198773 1.7700001 64 70 63 255
0.44489571 0.084048904 1.7670001 62 66 59 255
0.44918275 0.083946623 1.7650001 63 67 60 255
0.45371544 0.083891928 1.7640001 65 69 62 255
0.457982 0.083789699 1.7620001 61 65 57 255
0.46276215 0.083782598 1.7620001 61 65 57 255
0.46674562 0.083632872 1.7590001 63 67 60 255
0.47151613 0.083625801 1.7590001 65 69 62 255
0.47574446 0.083523683 1.7570001 67 71 64 255
0.48078176 0.0835642 1.7580001 68 72 65 255
0.48527133 0.083509676 1.7570001 63 69 62 255
0.48919705 0.083360121 1.7540001 65 71 64 255
0.49366912 0.083305679 1.7530001 65 71 64 255
0.49756643 0.083156228 1.7500001 65 71 64 255
0.50202101 0.083101861 1.7490001 63 71 64 255
0.50646961 0.083047546 1.748 65 73 66 255
0.5109123 0.082993276 1.7470001 67 75 68 255
0.51475865 0.082844034 1.7440001 65 73 66 255
0.51918399 0.082789876 1.743 65 73 66 255
0.52360356 0.082735769 1.7420001 64 72 65 255
0.52862358 0.082776681 1.743 69 75 67 255
0.53334278 0.082770161 1.743 66 72 64 255
0.53744423 0.082668744 1.7410001 64 71 60 255
0.54184574 0.082614861 1.7400001 61 68 57 255
0.54624152 0.082561038 1.7390001 63 69 61 255
0.55094844 0.082554772 1.7390001 60 66 58 255
0.55565506 0.082548566 1.7390001 60 66 58 255
0.56165034 0.082732283 1.743 66 70 62 255
0.57026649 0.08329574 1.7550001 70 74 66 255
0.57894748 0.083859183 1.7670001 54 58 50 255
0.58637184 0.084232807 1.7750001 35 39 31 255
0.59184092 0.084321737 1.7770001 30 34 26 255
0.59765655 0.084458187 1.7800001 28 34 26 255
0.60314983 0.084547266 1.7820001 28 32 24 255
0.60865402 0.08463642 1.784 22 28 20 255
0.61073011 0.084251255 1.7760001 24 30 23 255
0.61137664 0.083676495 1.7640001 43 49 42 255
0.61300623 0.083244205 1.7550001 68 74 67 255
0.61564314 0.082954347 1.7490001 77 83 76 255
0.61966658 0.082854338 1.7470001 75 80 76 255
0.62439418 0.082849294 1.7470001 58 65 61 255
0.63200295 0.08322373 1.7550001 43 50 47 255
0.6436463 0.084119819 1.774 92 99 96 255
0.6638 0.086106479 1.8160001 168 175 172 255
0.69700086 0.089083873 1.8790001 163 170 167 255
0.70918709 0.089979932 1.8980001 166 173 170 255
0.73300248 0.088481545 1.8670001 157 164 163 255
0.73173732 0.087719783 1.8510001 157 164 161 255
0.72959036 0.086863451 1.8330001 154 161 158 255
0.72975123 0.086291686 1.8210001 152 159 156 255
0.73226863 0.086004414 1.8150001 146 153 149 255
0.73353612 0.085575178 1.8060001 140 147 143 255
0.73230261 0.084861845 1.7910001 132 140 133 255
0.73181212 0.084243484 1.7780001 125 133 126 255
0.73498094 0.084051736 1.774 125 133 126 255
0.73562717 0.083575904 1.7640001 123 131 124 255
0.73538107 0.083005518 1.7520001 126 134 127 255
0.73507112 0.082435332 1.7400001 126 134 127 255
0.73639798 0.082054846 1.7320001 126 134 127 255
0.73725492 0.081627183 1.723 126 133 129 255
0.73720324 0.081104964 1.7120001 130 137 133 255
0.73752671 0.080630317 1.702 136 145 140 255
0.74041367 0.080440119 1.6980001 141 149 146 255
0.74064785 0.07996586 1.6880001 142 150 147 255
0.74171245 0.079586558 1.6800001 149 157 154 255
0.74140251 0.07906533 1.669 158 166 165 255
0.74192846 0.078639045 1.6600001 169 177 176 255
0.74105817 0.078070849 1.6480001 173 180 182 255
0.741934 0.077692337 1.6400001 173 180 182 255
0.74367839 0.077408761 1.6340001 174 181 183 255
0.74447644 0.077030644 1.626 175 182 184 255
0.74569345 0.076700106 1.6190001 175 182 184 255
0.74594796 0.076275021 1.6100001 178 185 187 255
0.74615526 0.075850122 1.6010001 180 187 189 255
0.7453782 0.075330667 1.59 179 186 188 255
0.74548644 0.07490617 1.5810001 179 186 188 255
0.74744469 0.074671388 1.5760001 180 186 188 255
0.74747014 0.074247278 1.567 182 188 190 255
0.74888796 0.073965527 1.5610001 182 188 190 255
0.74738055 0.073399663 1.549 183 189 191 255
0.74872136 0.073118314 1.5430001 183 189 192 255
0.748568 0.072695002 1.534 181 187 190 255
0.75033081 0.072461449 1.529 183 189 192 255
0.75009519 0.072038539 1.5200001 185 191 193 255
0.75130153 0.071758002 1.5140001 186 192 194 255
0.75098085 0.071335487 1.5050001 185 191 193 255
-1.0222836 0.078285716 1.7460001 22 23 11 255
-0.99925411 0.076881453 1.715 20 21 9 255
-0.98742419 0.076329671 1.7030001 22 21 7 255
-0.9987483 0.077570997 1.7310001 24 21 7 255
-0.98982525 0.077244088 1.7240001 27 24 8 255
-0.98608994 0.077320836 1.7260001 32 28 12 255
-0.98974001 0.077980213 1.7410001 42 36 19 255
-0.97464472 0.077161893 1.723 51 45 28 255
-0.9602198 0.076388963 1.7060001 29 25 9 255
-0.96549761 0.077183567 1.7240001 27 24 8 255
-0.96622229 0.077620171 1.7340001 65 62 46 255
-0.97410375 0.078638867 1.7570001 67 64 48 255
-0.97027802 0.078717843 1.7590001 78 75 59 255
-0.95711702 0.078036472 1.7440001 54 51 35 255
-0.94786721 0.077668786 1.7360001 49 43 26 255
-0.94247019 0.077614665 1.7350001 57 49 32 255
-0.93816459 0.077650353 1.7360001 51 37 18 255
-0.93278319 0.077596903 1.7350001 77 63 44 255
-0.92848176 0.07763321 1.7360001 90 74 51 255
-0.92737204 0.077938117 1.743 101 82 60 255
-0.92305243 0.077975012 1.7440001 105 84 62 255
-0.91767871 0.077922806 1.743 95 76 54 255
-0.91179138 0.077826194 1.7410001 88 69 47 255
-0.9074825 0.077864014 1.7420001 89 71 47 255
-0.90472674 0.078036189 1.7460001 85 69 45 255
-0.90298378 0.078298002 1.7520001 82 68 44 255
-0.90069908 0.078515381 1.7570001 81 67 43 255
-0.89788073 0.078688323 1.761 79 66 43 255
-0.89707285 0.079040259 1.7690001 77 64 41 255
-0.89925069 0.07966049 1.7830001 81 68 45 255
-0.89784384 0.079968184 1.7900001 80 67 44 255
-0.89340895 0.08000809 1.7910001 80 67 44 255
-0.88897228 0.080048256 1.7920001 70 56 36 255
-0.88157374 0.079820685 1.7870001 34 24 7 255
-0.87714952 0.079861395 1.7880001 25 19 2 255
-0.80690461 0.080634475 1.8060001 140 145 131 255
-0.79576629 0.080009356 1.7920001 122 128 110 255
-0.78735417 0.079652324 1.784 136 143 122 255
-0.77942628 0.079340145 1.7770001 153 160 139 255
-0.77066654 0.078938857 1.7680001 148 155 134 255
-0.75892526 0.078225188 1.7520001 163 169 151 255
-0.74985534 0.077779599 1.7420001 160 169 150 255
-0.74255252 0.077512778 1.7360001 161 170 151 255
-0.73655885 0.077380069 1.733 166 175 156 255
-0.73058301 0.077247538 1.7300001 164 173 154 255
-0.72462475 0.077115148 1.7270001 165 176 157 255
-0.71785045 0.07689362 1.7220001 169 180 161 255
-0.71110457 0.076672249 1.7170001 171 182 163 255
-0.70521003 0.076540336 1.7140001 171 182 163 255
-0.69851536 0.07631924 1.7090001 179 189 172 255
-0.69266099 0.076187618 1.7060001 182 190 173 255
-0.68480748 0.075832829 1.6980001 181 189 172 255
-0.67820007 0.075612143 1.6930001 185 193 176 255
-0.67162073 0.075391576 1.6880001 185 193 176 255
-0.66704518 0.075394467 1.6880001 187 195 178 255
-0.66129309 0.075263478 1.6850001 185 193 176 255
-0.65516847 0.075087957 1.6810001 185 193 178 255
-0.6494531 0.074957207 1.6780001 185 193 176 255
-0.64452332 0.074915923 1.677 184 192 175 255
-0.63845479 0.07474073 1.6730001 180 188 171 255
-0.63278747 0.074610323 1.6700001 179 189 172 255
-0.62713689 0.074480012 1.6670001 174 184 167 255
-0.6226235 0.074483842 1.6670001 176 186 169 255
-0.61773992 0.074443117 1.6660001 172 182 165 255
-0.61249387 0.074357785 1.664 163 174 155 255
-0.60798991 0.074361943 1.664 169 180 161 255
-0.6034863 0.074366197 1.664 171 180 161 255
-0.59862304 0.074325874 1.6630001 164 173 154 255
-0.59412259 0.074330322 1.6630001 160 169 148 255
-0.58891332 0.074245468 1.6610001 159 168 147 255
-0.5847705 0.074294806 1.6620001 154 164 141 255
-0.57992423 0.074254833 1.6610001 150 160 137 255
-0.57577628 0.07430435 1.6620001 148 158 135 255
-0.57127929 0.074309252 1.6620001 154 164 141 255
-0.56644136 0.074269526 1.6610001 158 168 145 255
-0.56194705 0.074274592 1.6610001 146 156 131 255
-0.55711716 0.074235 1.6600001 138 148 123 255
-0.55295837 0.074284926 1.6610001 141 151 126 255
-0.54879397 0.074334934 1.6620001 141 151 126 255
-0.54462421 0.074385025 1.6630001 157 167 142 255
-0.54044878 0.074435182 1.664 144 154 129 255
-0.53594565 0.07444068 1.664 159 169 144 255
-0.53080368 0.074356757 1.6620001 158 168 142 255
-0.52598888 0.074317634 1.6610001 153 163 137 255
-0.5214932 0.074323297 1.6610001 156 166 140 255
-0.51761961 0.074418522 1.6630001 154 164 138 255
-0.51311773 0.074424297 1.6630001 157 167 141 255
-0.50830978 0.074385367 1.6620001 152 162 137 255
-0.50380993 0.074391246 1.6620001 152 162 137 255
-0.49900931 0.074352406 1.6610001 149 159 134 255
-0.49510679 0.0744479 1.6630001 154 164 138 255
-0.49060291 0.074453913 1.6630001 148 156 130 255
-0.48609859 0.074459955 1.6630001 152 160 134 255
-0.48072496 0.074331708 1.6600001 155 163 137 255
-0.47565398 0.074248254 1.6580001 150 158 133 255
-0.47030911 0.074120022 1.6550001 150 158 133 255
-0.46582431 0.074126177 1.6550001 156 166 143 255
-0.46133903 0.074132353 1.6550001 153 165 142 255
-0.45712912 0.07418336 1.6560001 151 163 140 255
-0.45181975 0.07405518 1.6530001 154 165 144 255
-0.44706738 0.074016616 1.6520001 154 165 144 255
-0.44178385 0.073888436 1.649 158 169 148 255
-0.4367812 0.073805071 1.6470001 160 171 150 255
-0.43178868 0.073721699 1.6450001 160 171 150 255
-0.4273259 0.073727973 1.6450001 167 178 157 255
-0.42260537 0.073689424 1.6440001 169 180 159 255
-0.41788945 0.073650867 1.6430001 167 178 157 255
-0.41292661 0.07356748 1.641 174 185 166 255
-0.40847179 0.073573768 1.641 166 177 158 255
-0.40327755 0.073445529 1.6380001 159 170 151 255
-0.39834231 0.073362105 1.636 177 188 169 255
-0.39341718 0.073278666 1.6340001 185 196 177 255
-0.38897821 0.073284909 1.6340001 159 170 151 255
-0.3840678 0.073201433 1.6320001 127 139 116 255
-0.37963262 0.073207647 1.6320001 126 136 113 255
-0.37519667 0.073213845 1.6320001 136 143 121 255
-0.37098712 0.073264912 1.6330001 140 147 125 255
-0.36677122 0.073315956 1.6340001 131 139 114 255
-0.36210561 0.073277257 1.6330001 132 142 117 255
-0.35766357 0.073283397 1.6330001 125 135 110 255
-0.3532207 0.073289514 1.6330001 130 140 114 255
-0.34941769 0.073430255 1.636 135 146 117 255
-0.34538668 0.073526122 1.6380001 132 141 112 255
-0.34155202 0.073666863 1.641 122 131 102 255
-0.33749476 0.0737627 1.6430001 107 116 85 255
-0.33322302 0.073813625 1.6440001 122 129 98 255
-0.32974482 0.074044123 1.649 121 128 97 255
-0.32584399 0.074184828 1.6520001 111 118 86 255
-0.32212049 0.074370429 1.6560001 107 113 78 255
-0.31722349 0.074286528 1.654 106 111 79 255
-0.31290373 0.074337326 1.6550001 106 111 79 255
-0.30876398 0.074433006 1.6570001 113 118 86 255
-0.30461237 0.074528657 1.659 108 115 86 255
-0.2995446 0.074399643 1.6560001 48 54 29 255
-0.29449227 0.074270561 1.6530001 28 30 12 255
-0.28963086 0.074186347 1.651 24 24 6 255
-0.28512487 0.074191943 1.651 23 22 8 255
-0.28078803 0.074242428 1.6520001 27 24 10 255
-0.27627757 0.074247926 1.6520001 28 25 11 255
-0.27176625 0.074253358 1.6520001 28 25 11 255
-0.26725399 0.074258737 1.6520001 27 24 10 255
-0.26290002 0.074309021 1.6530001 29 26 12 255
-0.25838336 0.074314289 1.6530001 27 25 14 255
-0.25401944 0.074364454 1.654 39 41 31 255
-0.24934748 0.07432463 1.6530001 52 56 48 255
-0.2451245 0.074419633 1.6550001 58 64 57 255
-0.24030827 0.074334718 1.6530001 73 81 74 255
-0.23550212 0.074249715 1.651 91 99 92 255
-0.23014647 0.073984727 1.6450001 73 81 74 255
-0.22537155 0.073899552 1.6430001 75 83 76 255
-0.2207412 0.073859274 1.6420001 73 81 74 255
-0.21637894 0.073908895 1.6430001 92 99 95 255
-0.21149458 0.073778488 1.6400001 96 104 97 255
-0.20675209 0.073692977 1.6380001 85 93 86 255
-0.20251375 0.073787354 1.6400001 58 64 57 255
-0.19862595 0.074016653 1.6450001 56 62 54 255
-0.19423798 0.074065901 1.646 55 62 51 255
-0.18961327 0.074025072 1.6450001 59 64 53 255
-0.18510586 0.074029163 1.6450001 62 67 56 255
-0.18070754 0.07407818 1.646 62 67 56 255
-0.17651716 0.074217133 1.649 62 66 58 255
-0.17241393 0.074401021 1.6530001 64 69 58 255
-0.1685928 0.074719876 1.6600001 59 64 53 255
-0.16423853 0.074813604 1.6620001 62 67 56 255
-0.15948834 0.074727193 1.6600001 60 65 54 255
-0.15493514 0.074730702 1.6600001 58 63 52 255
-0.15047196 0.074779168 1.6610001 59 64 53 255
-0.14600265 0.074827522 1.6620001 61 66 55 255
-0.14144219 0.074830778 1.6620001 65 70 59 255
-0.13679881 0.074788906 1.6610001 61 66 55 255
-0.13223997 0.07479196 1.6610001 62 66 58 255
-0.12744996 0.074659839 1.6580001 62 66 58 255
-0.12297242 0.074707724 1.659 65 69 61 255
-0.1187744 0.07493566 1.664 66 70 62 255
-0.11461709 0.075208545 1.6700001 62 67 56 255
-0.110031 0.075211138 1.6700001 62 67 56 255
-0.1053182 0.075123541 1.6680001 65 70 59 255
-0.10061592 0.075035848 1.6660001 64 68 60 255
-0.096039519 0.075038128 1.6660001 65 69 61 255
-0.091352917 0.074950218 1.664 65 69 61 255
-0.086937681 0.075087421 1.6670001 67 72 61 255
-0.082703203 0.075404704 1.674 63 68 57 255
-0.078336604 0.075631812 1.6790001 61 66 55 255
-0.073722646 0.075633585 1.6790001 57 64 53 255
-0.069026053 0.075545162 1.677 60 67 56 255
-0.064416982 0.075546734 1.677 59 66 55 255
-0.059878968 0.075638294 1.6790001 62 69 58 255
-0.055296782 0.075684696 1.6800001 62 67 56 255
-0.050769191 0.075821094 1.6830001 61 66 55 255
-0.046197474 0.075912334 1.6850001 61 66 55 255
-0.041565236 0.075913377 1.6850001 67 72 61 255
-0.036954727 0.075959355 1.6860001 65 70 59 255
-0.032319397 0.075960167 1.6860001 63 67 59 255
-0.027700344 0.076005928 1.687 63 67 59 255
-0.023075672 0.076051593 1.6880001 66 71 60 255
-0.01843448 0.076052077 1.6880001 64 69 58 255
-0.013801381 0.076097511 1.6890001 65 70 59 255
-0.0091573019 0.076097786 1.6890001 65 70 59 255
-0.0045185266 0.076188058 1.6910001 63 70 59 255
0.00013118924 0.076233163 1.692 63 70 59 255
0.0047920579 0.076368272 1.6950001 64 71 59 255
0.0094638271 0.076458216 1.697 64 71 59 255
0.01415488 0.076593094 1.7 63 70 58 255
0.018851293 0.076682806 1.702 59 66 54 255
0.023558624 0.076772429 1.7040001 64 69 57 255
0.028260272 0.076816872 1.705 64 69 58 255
0.032967303 0.076861203 1.7060001 63 68 57 255
0.037657611 0.076860368 1.7060001 61 67 59 255
0.042397406 0.076949522 1.7080001 61 67 59 255
0.047148012 0.077038564 1.71 65 71 63 255
0.051939737 0.077172562 1.7130001 65 71 63 255
0.056648519 0.077171281 1.7130001 68 74 66 255
0.061392877 0.077214941 1.7140001 67 74 63 255
0.06602677 0.077123351 1.7120001 66 73 61 255
0.07073202 0.07712175 1.7120001 65 73 58 255
0.075525098 0.077210136 1.7140001 68 73 59 255
0.080375649 0.077343456 1.7170001 65 73 58 255
0.085192792 0.077431604 1.7190001 64 71 59 255
0.090020567 0.077519655 1.7210001 66 73 62 255
0.094803892 0.077562541 1.7220001 65 72 61 255
0.099592321 0.077605322 1.723 66 73 62 255
0.10432529 0.077602968 1.723 65 72 61 255
0.1090578 0.077600494 1.723 68 73 62 255
0.11392196 0.077688001 1.725 65 72 61 255
0.11872782 0.07773035 1.7260001 66 73 62 255
0.12353871 0.07777261 1.7270001 66 72 64 255
0.12842885 0.077859782 1.7290001 66 72 64 255
0.13325241 0.077901825 1.7300001 68 74 66 255
0.13840002 0.078123882 1.7350001 70 76 68 255
0.14349197 0.078300782 1.7390001 62 68 60 255
0.14869058 0.078522593 1.7440001 66 73 62 255
0.15347601 0.078519173 1.7440001 64 71 60 255
0.15853308 0.07865072 1.7470001 67 73 65 255
0.163232 0.078602083 1.7460001 60 66 58 255
0.16811728 0.078643404 1.7470001 63 69 61 255
0.17271046 0.078549571 1.7450001 63 69 62 255
0.17759711 0.078590676 1.7460001 62 68 61 255
0.18238412 0.078586698 1.7460001 64 68 61 255
0.18738483 0.078672625 1.748 63 67 59 255
0.19206595 0.078623451 1.7470001 60 66 58 255
0.19707893 0.078709193 1.7490001 58 64 56 255
0.20175582 0.078659832 1.748 62 68 60 255
0.2066628 0.078700393 1.7490001 62 68 60 255
0.21133269 0.078650862 1.748 65 71 63 255
0.2168618 0.078916214 1.7540001 64 70 62 255
0.22217023 0.079091467 1.7580001 66 72 64 255
0.22749975 0.079266615 1.7620001 66 72 64 255
0.23245475 0.079306699 1.7630001 68 74 67 255
0.23727988 0.07930173 1.7630001 69 75 68 255
0.25060761 0.078926578 1.7550001 55 60 56 255
0.25482526 0.078741431 1.751 58 64 57 255
0.25902015 0.078556262 1.7470001 61 67 60 255
0.2637963 0.078550898 1.7470001 63 71 64 255
0.26795658 0.078365617 1.743 67 75 68 255
0.27272001 0.078360118 1.743 62 70 63 255
0.27780095 0.078444473 1.7450001 58 66 59 255
0.37496883 0.079765148 1.7770001 58 66 59 255
0.3791641 0.079623885 1.774 61 69 62 255
0.38420793 0.079662144 1.7750001 57 63 56 255
0.38947541 0.079745233 1.7770001 61 67 60 255
0.39497477 0.079873167 1.7800001 61 67 60 255
0.39981565 0.079866447 1.7800001 59 65 58 255
0.40465564 0.079859704 1.7800001 59 63 56 255
0.40926471 0.079808101 1.779 53 59 52 255
0.41410017 0.079801336 1.779 56 62 55 255
0.41846374 0.079704851 1.7770001 57 63 56 255
0.42281559 0.079608366 1.7750001 57 63 56 255
0.42715576 0.079511911 1.7730001 52 58 51 255
0.4319714 0.079505131 1.7730001 55 61 54 255
0.43653986 0.079453506 1.7720001 57 63 56 255
0.44110203 0.079401895 1.771 55 61 54 255
0.44565806 0.079350293 1.7700001 58 62 55 255
0.45020771 0.079298697 1.7690001 58 62 55 255
0.45500845 0.07929194 1.7690001 56 60 53 255
0.45928851 0.079195552 1.7670001 60 64 57 255
0.46381962 0.079144016 1.766 61 65 58 255
0.46781391 0.079002865 1.7630001 61 67 60 255
0.4723272 0.078951374 1.7620001 62 68 61 255
0.47683436 0.07889989 1.761 59 65 58 255
0.48133552 0.078848451 1.7600001 59 65 57 255
0.48610672 0.078841835 1.7600001 63 69 61 255
0.48976159 0.07865607 1.756 60 66 58 255
0.49395746 0.078559943 1.7540001 61 67 60 255
0.49785748 0.078419074 1.751 61 69 62 255
0.50231475 0.078367814 1.7500001 67 73 66 255
0.50676596 0.078316599 1.7490001 65 73 66 255
0.51179624 0.078354977 1.7500001 64 72 65 255
0.51565069 0.078214303 1.7470001 65 73 66 255
0.52038193 0.078207992 1.7470001 63 71 64 255
0.52511281 0.078201726 1.7470001 63 71 64 255
0.53014642 0.07824026 1.748 69 77 69 255
0.53457308 0.078189328 1.7470001 67 75 67 255
0.53806782 0.078004196 1.743 64 72 64 255
0.54247475 0.077953391 1.7420001 65 71 63 255
0.54719007 0.077947393 1.7420001 66 72 64 255
0.55285543 0.078075677 1.7450001 63 69 62 255
0.55853683 0.078204006 1.748 63 69 62 255
0.56520092 0.078466594 1.7540001 65 73 66 255
0.57319689 0.078908123 1.7640001 68 76 69 255
0.58059162 0.079260208 1.7720001 30 38 31 255
0.58769906 0.079567574 1.779 25 33 26 255
0.59384513 0.079740822 1.7830001 32 40 33 255
0.60135567 0.080092989 1.7910001 185 193 186 255
0.60789412 0.080311038 1.7960001 180 187 183 255
0.61480075 0.080573849 1.802 175 182 178 255
0.61658156 0.080166057 1.7930001 177 184 180 255
0.61796713 0.079713702 1.7830001 115 122 118 255
0.61999726 0.079350904 1.7750001 39 46 42 255
0.62374425 0.079211749 1.7720001 117 124 121 255
0.6285392 0.079206817 1.7720001 126 133 130 255
0.63512141 0.079425454 1.7770001 174 181 180 255
0.6478529 0.080403969 1.7990001 178 185 184 255
0.67376554 0.082991347 1.8570001 174 181 180 255
0.72829461 0.08285664 1.8550001 157 164 163 255
0.72976398 0.082451344 1.8460001 156 163 162 255
0.72760332 0.081644259 1.8280001 152 159 158 255
0.72775042 0.081105359 1.8160001 152 159 156 255
0.72944719 0.08074528 1.8080001 144 151 148 255
0.7315079 0.080430038 1.8010001 139 146 142 255
0.73107839 0.079847038 1.7880001 132 139 135 255
0.73099124 0.079308882 1.7760001 127 135 128 255
0.73374009 0.079083487 1.771 127 135 128 255
0.73562908 0.078768969 1.7640001 126 134 127 255
0.73580253 0.078276023 1.7530001 127 135 128 255
0.7342276 0.077604644 1.738 129 136 132 255
0.73384827 0.077067442 1.7260001 131 138 134 255
0.7338329 0.076575048 1.715 135 142 139 255
0.73505116 0.076216802 1.7070001 138 145 142 255
0.73709422 0.075948045 1.7010001 139 147 146 255
0.73997819 0.075768754 1.697 144 152 151 255
0.74196464 0.075500354 1.6910001 153 161 160 255
0.74259567 0.075098202 1.682 165 173 172 255
0.74229097 0.07460694 1.6710001 170 178 177 255
0.7414813 0.074071206 1.659 172 179 181 255
0.74105781 0.073580317 1.6480001 173 180 182 255
0.74193341 0.073223554 1.6400001 174 181 183 255
0.74367768 0.072956279 1.6340001 175 182 184 255
0.74447554 0.072599895 1.626 176 183 185 255
0.74523175 0.07224369 1.618 177 184 186 255
0.74548328 0.071843043 1.6090001 179 186 188 255
0.74661982 0.071531862 1.6020001 180 187 189 255
0.74678284 0.07113158 1.5930001 182 188 190 255
0.74689907 0.070731483 1.5840001 181 187 189 255
0.74696833 0.070331566 1.575 181 187 189 255
0.74651372 0.069887184 1.5650001 181 188 190 255
0.74648666 0.069487639 1.5560001 182 189 192 255
0.74641281 0.069088273 1.5470001 183 190 193 255
0.74726266 0.068778425 1.5400001 184 191 194 255
0.74807686 0.068468764 1.5330001 181 187 193 255
0.74787378 0.068069965 1.524 183 189 195 255
0.74713063 0.06762667 1.5140001 184 191 194 255
0.74732774 0.067272902 1.506 184 191 194 255
-1.0304503 0.073409155 1.743 22 23 9 255
-1.0231246 0.073226318 1.7390001 22 23 11 255
-1.0105594 0.072665036 1.7260001 23 21 10 255
-1.0039015 0.07252524 1.723 21 20 6 255
-0.99726784 0.072385885 1.72 23 20 6 255
-0.96930981 0.070690066 1.6800001 26 22 6 255
-0.97144008 0.071182825 1.692 36 30 13 255
-0.9803645 0.072180539 1.7160001 44 36 19 255
-0.98347473 0.072757691 1.7300001 71 63 46 255
-0.98085541 0.072914518 1.7340001 78 70 53 255
-0.97146547 0.072567105 1.7260001 26 20 3 255
-0.96212655 0.072220132 1.7180001 88 84 68 255
-0.96621174 0.072882339 1.7340001 64 61 45 255
-0.97187585 0.073670775 1.7530001 66 63 47 255
-0.96309721 0.073366798 1.7460001 67 64 48 255
-0.95436335 0.073063217 1.7390001 90 87 71 255
-0.94676602 0.072844058 1.7340001 74 68 52 255
-0.94300437 0.072919279 1.7360001 50 42 25 255
-0.93869644 0.072952807 1.7370001 56 42 23 255
-0.93385017 0.072944619 1.7370001 78 63 44 255
-0.927939 0.072852761 1.7350001 94 75 53 255
-0.92310798 0.072845191 1.7350001 111 91 67 255
-0.91722304 0.072753936 1.733 108 85 62 255
-0.91240662 0.072746947 1.733 98 75 53 255
-0.90707129 0.07269828 1.7320001 96 73 50 255
-0.90278751 0.072733827 1.733 93 70 47 255
-0.8995387 0.072853588 1.7360001 91 71 47 255
-0.8947314 0.072847702 1.7360001 89 71 47 255
-0.88941544 0.07280013 1.7350001 87 71 47 255
-0.88512868 0.072836734 1.7360001 80 66 42 255
-0.88489711 0.073209241 1.7450001 81 68 45 255
-0.88310665 0.073456086 1.751 82 69 46 255
-0.88178831 0.073745109 1.7580001 80 67 44 255
-0.88043493 0.074034356 1.7650001 77 66 43 255
-0.87904656 0.074323811 1.7720001 81 70 49 255
-0.87219667 0.074152142 1.7680001 74 67 47 255
-0.87076831 0.074442051 1.7750001 68 63 43 255
-0.80868119 0.075420216 1.7990001 149 155 138 255
-0.80198973 0.075252309 1.7950001 149 155 137 255
-0.79487813 0.075042672 1.7900001 145 152 131 255
-0.78691316 0.074749373 1.7830001 146 153 132 255
-0.77854955 0.074414335 1.7750001 144 150 132 255
-0.77066714 0.074121401 1.7680001 144 150 132 255
-0.76022559 0.073577084 1.7550001 149 155 137 255
-0.75028676 0.073074847 1.743 153 161 144 255
-0.74212599 0.07274048 1.7350001 157 165 148 255
-0.73613518 0.072615892 1.7320001 158 167 148 255
-0.73016214 0.072491452 1.7290001 159 168 149 255
-0.72336763 0.072283313 1.7240001 169 178 159 255
-0.71660161 0.072075322 1.7190001 166 175 156 255
-0.70944983 0.071825534 1.7130001 170 178 161 255
-0.70397776 0.071743622 1.7110001 173 183 168 255
-0.69810885 0.071619891 1.7080001 175 184 172 255
-0.69266337 0.071538247 1.7060001 174 183 171 255
-0.68561655 0.071288995 1.7 180 190 175 255
-0.67940444 0.071123727 1.6960001 184 192 175 255
-0.67321497 0.070958585 1.692 178 186 169 255
-0.66783834 0.07087744 1.6900001 187 195 180 255
-0.66129613 0.070670582 1.6850001 184 192 177 255
-0.65478176 0.070463844 1.6800001 180 188 173 255
-0.64868224 0.070299149 1.6760001 179 187 172 255
-0.643758 0.070260391 1.6750001 181 189 174 255
-0.63731337 0.070053957 1.6700001 178 186 171 255
-0.63203323 0.069973469 1.6680001 176 184 167 255
-0.62714052 0.069935016 1.6670001 177 187 170 255
-0.62262732 0.069938637 1.6670001 175 186 167 255
-0.61774379 0.069900401 1.6660001 160 171 152 255
-0.61212981 0.069778346 1.6630001 165 176 157 255
-0.60799408 0.069824219 1.664 164 175 156 255
-0.60312784 0.069786273 1.6630001 168 177 158 255
-0.59898722 0.069832332 1.664 161 170 151 255
-0.59448421 0.069836535 1.664 162 171 152 255
-0.58998144 0.069840826 1.664 159 168 149 255
-0.58512694 0.06980323 1.6630001 151 160 139 255
-0.58027804 0.069765709 1.6620001 151 160 139 255
-0.57612753 0.069812231 1.6630001 153 162 141 255
-0.57265902 0.069942795 1.6660001 154 163 142 255
-0.56781024 0.069905505 1.6650001 151 160 139 255
-0.56296688 0.069868296 1.664 153 162 141 255
-0.55779338 0.069789156 1.6620001 165 174 153 255
-0.55362928 0.069836065 1.6630001 144 153 132 255
-0.54945958 0.069883041 1.664 136 145 124 255
-0.54528445 0.069930099 1.6650001 142 151 130 255
-0.54110372 0.069977216 1.6660001 160 170 147 255
-0.53659528 0.069982402 1.6660001 129 139 116 255
-0.53144783 0.069903612 1.664 145 155 132 255
-0.52694422 0.069908895 1.664 154 164 141 255
-0.52244055 0.069914244 1.664 157 167 144 255
-0.51855892 0.070003681 1.6660001 165 175 152 255
-0.51374048 0.069967113 1.6650001 154 164 141 255
-0.50892711 0.069930576 1.664 151 161 138 255
-0.5041188 0.06989409 1.6630001 142 152 129 255
-0.49901512 0.069815606 1.6610001 150 160 137 255
-0.49481484 0.069863245 1.6620001 151 161 138 255
-0.49031371 0.069868892 1.6620001 149 159 136 255
-0.48581222 0.069874592 1.6620001 150 160 137 255
-0.48073089 0.069796212 1.6600001 151 161 138 255
-0.475373 0.069675818 1.6570001 152 161 140 255
-0.4703151 0.069597475 1.6550001 152 162 139 255
-0.46554884 0.069561206 1.654 153 162 141 255
-0.46134499 0.069609076 1.6550001 154 165 146 255
-0.45658296 0.069572844 1.654 155 166 147 255
-0.4512791 0.069452502 1.651 159 170 151 255
-0.44626153 0.069374219 1.649 158 169 150 255
-0.441522 0.069338024 1.6480001 153 164 145 255
-0.43678731 0.069301829 1.6470001 156 167 148 255
-0.43205729 0.069265634 1.646 159 170 151 255
-0.42733198 0.069229454 1.6450001 162 173 154 255
-0.42235434 0.069151178 1.6430001 165 176 157 255
-0.4173868 0.069072895 1.641 174 184 167 255
-0.41242945 0.068994612 1.6390001 167 177 160 255
-0.40773112 0.068958402 1.6380001 170 180 163 255
-0.4027912 0.068880096 1.636 159 170 151 255
-0.39786139 0.068801768 1.6340001 166 177 158 255
-0.39294168 0.068723425 1.6320001 168 180 157 255
-0.3887462 0.0687714 1.6330001 141 153 130 255
-0.38407382 0.068735145 1.6320001 128 140 115 255
-0.37940603 0.068698868 1.631 127 137 111 255
-0.37497276 0.068704695 1.631 129 139 116 255
-0.37076589 0.068752654 1.6320001 137 147 124 255
-0.36677721 0.068842717 1.6340001 137 145 120 255
-0.36211157 0.068806387 1.6330001 133 141 115 255
-0.35788852 0.068854302 1.6340001 125 134 105 255
-0.35322666 0.068817928 1.6330001 120 129 98 255
-0.34942365 0.068950094 1.636 125 134 103 255
-0.34539258 0.06904012 1.6380001 139 148 117 255
-0.34134978 0.06913013 1.6400001 132 141 110 255
-0.33708975 0.069177963 1.641 122 131 100 255
-0.33282346 0.069225788 1.6420001 123 130 99 255
-0.32915074 0.069400072 1.646 120 127 96 255
-0.32506081 0.069490016 1.6480001 119 126 95 255
-0.32134813 0.069664277 1.6520001 113 118 87 255
-0.31703746 0.06971202 1.6530001 103 108 77 255
-0.31272036 0.069759727 1.654 98 103 72 255
-0.30839694 0.069807403 1.6550001 86 93 62 255
-0.30406716 0.069855034 1.6560001 87 93 67 255
