ply
format ascii 1.0
comment PCL generated
element vertex 1008
property float x
property float y
property float z
property uchar red
property uchar green
property uchar blue
property uchar alpha
element camera 0
property float view_px
property float view_py
property float view_pz
property float x_axisx
property float x_axisy
property float x_axisz
property float y_axisx
property float y_axisy
property float y_axisz
property float z_axisx
property float z_axisy
property float z_axisz
property float focal
property float scalex
property float scaley
property float centerx
property float centery
property int viewportx
property int viewporty
property float k1
property float k2
end_header
0.69544071 -0.098320365 1.5280001 26 30 13 255
0.70007157 -0.098386019 1.529 25 29 11 255
0.70286739 -0.098194554 1.526 29 33 15 255
0.70518577 -0.097939014 1.5220001 29 33 15 255
0.71074677 -0.09813419 1.5250001 26 32 14 255
0.71445125 -0.098072246 1.524 21 31 14 255
0.718624 -0.09807492 1.524 14 24 9 255
0.7232734 -0.098142259 1.5250001 41 51 36 255
0.72602266 -0.097952455 1.5220001 132 142 131 255
0.72683895 -0.097505495 1.5150001 147 156 149 255
0.72568929 -0.096801355 1.5040001 158 167 160 255
0.72787869 -0.096548013 1.5000001 164 171 167 255
-0.75389802 -0.11180571 1.6670001 228 235 223 255
-0.74215716 -0.11073168 1.651 215 222 210 255
-0.73408002 -0.1101945 1.6430001 194 204 189 255
-0.72782457 -0.10992588 1.6390001 197 207 192 255
-0.7207101 -0.10952339 1.6330001 220 229 217 255
-0.71275288 -0.10898704 1.6250001 225 235 220 255
-0.70484096 -0.10845096 1.6170001 207 218 199 255
-0.69740748 -0.1079822 1.6100001 195 205 182 255
-0.69130486 -0.10771488 1.6060001 140 148 122 255
-0.6869365 -0.1077161 1.6060001 126 135 104 255
-0.68256962 -0.10771757 1.6060001 92 98 62 255
-0.67904866 -0.10785341 1.608 142 148 112 255
-0.67509866 -0.10792243 1.6090001 136 143 111 255
-0.67031068 -0.10785751 1.608 141 148 117 255
-0.66552937 -0.10779284 1.6070001 184 193 164 255
-0.6607548 -0.10772838 1.6060001 138 147 118 255
-0.65598667 -0.10766414 1.605 129 138 109 255
-0.650819 -0.10753302 1.603 125 132 103 255
-0.64606655 -0.10746919 1.6020001 125 132 101 255
-0.64172095 -0.10747264 1.6020001 140 147 116 255
-0.63737649 -0.10747631 1.6020001 140 147 116 255
-0.63224238 -0.10734596 1.6 137 146 117 255
-0.62829733 -0.10741711 1.6010001 152 160 134 255
-0.62434763 -0.10748844 1.6020001 145 153 128 255
-0.62000626 -0.10749286 1.6020001 164 174 149 255
-0.61451256 -0.10729616 1.5990001 144 152 126 255
-0.60941732 -0.10716672 1.5970001 125 133 107 255
-0.60509133 -0.10717166 1.5970001 122 131 102 255
-0.60114217 -0.10724388 1.598 127 136 107 255
-0.597188 -0.10731627 1.5990001 135 144 115 255
-0.59285814 -0.10732172 1.5990001 150 159 130 255
-0.58852863 -0.1073273 1.5990001 139 148 119 255
-0.58346891 -0.10719883 1.5970001 153 163 137 255
-0.57878292 -0.10713758 1.5960001 132 142 117 255
-0.57410264 -0.10707647 1.595 134 144 119 255
-0.56942809 -0.10701552 1.5940001 141 151 128 255
-0.56511372 -0.10702183 1.5940001 135 145 122 255
-0.56115127 -0.10709542 1.595 137 147 124 255
-0.55683458 -0.107102 1.595 141 149 124 255
-0.55251789 -0.1071087 1.595 139 147 122 255
-0.54820132 -0.10711552 1.595 138 148 123 255
-0.54354388 -0.10705532 1.5940001 137 147 122 255
-0.53956836 -0.10712954 1.595 136 146 121 255
-0.5349164 -0.10706956 1.5940001 145 157 132 255
-0.53060251 -0.10707684 1.5940001 122 132 107 255
-0.52661872 -0.1071514 1.595 133 143 118 255
-0.52197462 -0.10709172 1.5940001 136 146 121 255
-0.5176605 -0.10709931 1.5940001 137 145 119 255
-0.5133462 -0.10710698 1.5940001 132 140 114 255
-0.50935107 -0.10718197 1.595 130 140 114 255
-0.50503361 -0.10718982 1.595 137 145 119 255
-0.50102991 -0.107265 1.5960001 131 139 114 255
-0.49702051 -0.10734025 1.5970001 129 139 113 255
-0.49300534 -0.10741558 1.598 134 144 118 255
-0.48867872 -0.10742378 1.598 129 139 113 255
-0.48465475 -0.10749928 1.5990001 132 142 116 255
-0.48092547 -0.10764208 1.6010001 130 141 112 255
-0.47748262 -0.10785221 1.6040001 130 140 114 255
-0.47284314 -0.10779347 1.603 126 137 108 255
-0.46879327 -0.10786927 1.6040001 125 135 109 255
-0.46473742 -0.10794512 1.605 125 136 107 255
-0.46096262 -0.10808831 1.6070001 123 133 107 255
-0.45689222 -0.10816429 1.608 126 136 110 255
-0.45337883 -0.10837487 1.6110001 126 137 108 255
-0.45068476 -0.10878736 1.6170001 128 139 108 255
-0.44795758 -0.10919994 1.623 123 134 103 255
-0.44492394 -0.10954536 1.628 124 135 104 255
-0.44213328 -0.10995815 1.6340001 124 135 104 255
-0.4390415 -0.11030372 1.6390001 135 144 113 255
-0.43592206 -0.11064938 1.6440001 126 135 104 255
-0.43277472 -0.11099512 1.649 135 142 110 255
-0.4301191 -0.11147558 1.6560001 127 134 102 255
-0.42613971 -0.11161952 1.6580001 114 121 89 255
-0.4218944 -0.11169615 1.659 138 145 113 255
-0.41739136 -0.11170547 1.659 138 144 109 255
-0.41338539 -0.11184949 1.6610001 83 89 54 255
-0.40887544 -0.11185883 1.6610001 69 77 42 255
-0.40460819 -0.11193553 1.6620001 59 67 31 255
-0.400094 -0.11194488 1.6620001 69 75 39 255
-0.39605504 -0.11208893 1.664 73 79 43 255
-0.39176917 -0.11216565 1.6650001 69 75 39 255
-0.38770962 -0.11230974 1.6670001 75 81 45 255
-0.38386822 -0.1125212 1.6700001 82 89 50 255
-0.37978256 -0.1126653 1.6720001 75 83 47 255
-0.37568521 -0.1128094 1.674 67 74 35 255
-0.37113267 -0.1128187 1.674 74 81 42 255
-0.36614141 -0.11269318 1.6720001 83 90 51 255
-0.36137637 -0.11263501 1.6710001 79 83 47 255
-0.35618889 -0.11244197 1.6680001 70 75 35 255
-0.35122767 -0.11231629 1.6660001 68 73 33 255
-0.34565219 -0.11198828 1.6610001 105 109 71 255
-0.3405138 -0.11179502 1.6580001 104 108 70 255
-0.33579618 -0.11173654 1.6570001 100 107 68 255
-0.33188286 -0.11194777 1.6600001 104 110 74 255
-0.32814953 -0.11222642 1.664 96 102 66 255
-0.32400459 -0.11237016 1.6660001 96 105 66 255
-0.31946436 -0.11237897 1.6660001 98 106 71 255
-0.31473419 -0.11232024 1.6650001 103 110 79 255
-0.3105675 -0.11246383 1.6670001 109 116 85 255
-0.30638903 -0.11260739 1.669 5 9 0 255
-0.30201796 -0.11268344 1.6700001 10 15 4 255
-0.29728428 -0.11262445 1.669 11 14 2 255
-0.29237977 -0.1124979 1.6670001 12 15 3 255
-0.28748536 -0.11237127 1.6650001 15 16 4 255
-0.2827709 -0.11231203 1.664 16 17 5 255
-0.27839544 -0.11238769 1.6650001 9 12 0 255
-0.27450708 -0.1126658 1.669 44 47 35 255
-0.26994902 -0.11267382 1.669 42 47 35 255
-0.26523113 -0.11261426 1.6680001 45 52 40 255
-0.25989273 -0.1122845 1.6630001 49 56 44 255
-0.25504145 -0.11215719 1.6610001 52 61 49 255
-0.25035104 -0.11209729 1.6600001 38 47 35 255
-0.24566528 -0.11203728 1.659 43 52 41 255
-0.24112955 -0.11204471 1.659 42 49 37 255
-0.23645036 -0.11198448 1.6580001 53 60 48 255
-0.2319157 -0.11199171 1.6580001 54 63 51 255
-0.22710602 -0.11186374 1.6560001 54 63 51 255
-0.22230645 -0.11173562 1.654 50 59 47 255
-0.21778038 -0.11174251 1.654 52 62 47 255
-0.21299572 -0.11161416 1.6520001 58 66 51 255
-0.20834738 -0.11155325 1.651 47 55 40 255
-0.20358033 -0.11142464 1.649 50 58 43 255
-0.19882353 -0.11129591 1.6470001 48 53 39 255
-0.19407694 -0.11116704 1.6450001 46 54 39 255
-0.18945582 -0.11110563 1.6440001 43 50 38 255
-0.18495199 -0.11111166 1.6440001 47 54 42 255
-0.18022798 -0.11098242 1.6420001 47 54 42 255
-0.17572825 -0.1109882 1.6420001 50 57 45 255
-0.17091505 -0.11079107 1.6390001 56 63 51 255
-0.16611762 -0.1105938 1.636 56 64 49 255
-0.16143481 -0.11046398 1.6340001 55 63 48 255
-0.15705054 -0.11053684 1.6350001 53 61 46 255
-0.15247351 -0.11047436 1.6340001 49 56 44 255
-0.14790142 -0.11041174 1.6330001 54 61 49 255
-0.14342201 -0.1104166 1.6330001 56 63 51 255
-0.13911222 -0.11055656 1.6350001 56 61 49 255
-0.13446154 -0.11042589 1.6330001 56 61 49 255
-0.12974171 -0.11022746 1.6300001 57 62 50 255
-0.12519155 -0.11016414 1.6290001 56 61 49 255
-0.12064636 -0.11010067 1.628 61 66 54 255
-0.11610618 -0.11003705 1.6270001 65 70 59 255
-0.11157101 -0.10997327 1.626 60 65 54 255
-0.10710676 -0.109977 1.626 63 68 57 255
-0.10264207 -0.10998058 1.626 61 66 54 255
-0.098237336 -0.11005165 1.6270001 58 63 51 255
-0.093826704 -0.11012258 1.628 56 61 49 255
-0.089410201 -0.11019338 1.6290001 58 63 51 255
-0.084883541 -0.11012873 1.628 53 60 48 255
-0.080411434 -0.11013158 1.628 50 59 48 255
-0.075938977 -0.11013427 1.628 51 60 49 255
-0.071466215 -0.11013681 1.628 55 64 53 255
-0.067034304 -0.11020687 1.6290001 62 71 60 255
-0.062442996 -0.11000615 1.626 76 85 74 255
-0.058046196 -0.11014356 1.628 61 68 56 255
-0.053638157 -0.11028082 1.6300001 59 66 54 255
-0.049309373 -0.1106209 1.6350001 57 62 48 255
-0.044843253 -0.11069018 1.636 58 61 47 255
-0.040297464 -0.11055636 1.6340001 54 59 45 255
-0.0357625 -0.11042237 1.6320001 58 63 49 255
-0.031219216 -0.11022055 1.6290001 58 63 51 255
-0.026741534 -0.11022157 1.6290001 58 63 51 255
-0.022250071 -0.11015476 1.628 56 61 49 255
-0.01777493 -0.11015545 1.628 59 64 52 255
-0.013283376 -0.11002068 1.626 59 64 52 255
-0.008813601 -0.11002105 1.626 59 64 52 255
-0.0043437891 -0.1100213 1.626 62 67 55 255
0.00012611896 -0.11008903 1.6270001 60 65 53 255
0.0046015247 -0.11015661 1.628 61 66 54 255
0.0090768328 -0.11015637 1.628 61 68 56 255
0.013560427 -0.11022365 1.6290001 60 67 55 255
0.017994097 -0.10995244 1.6250001 63 70 59 255
0.022447163 -0.10988408 1.6240001 65 72 61 255
0.026861493 -0.10968021 1.6210001 63 70 59 255
0.031336494 -0.10974687 1.6220001 65 72 61 255
0.035750657 -0.10961037 1.6200001 64 71 60 255
0.040203311 -0.10960905 1.6200001 64 71 60 255
0.044628222 -0.1095399 1.6190001 68 73 61 255
0.04913839 -0.10967358 1.6210001 66 71 57 255
0.053626288 -0.10973946 1.6220001 66 71 57 255
0.058083639 -0.10973751 1.6220001 68 73 61 255
0.06246363 -0.10960011 1.6200001 67 72 60 255
0.066873677 -0.10953021 1.6190001 66 73 62 255
0.071277939 -0.10946017 1.618 64 71 60 255
0.075816825 -0.10959293 1.6200001 65 72 61 255
0.08026728 -0.10959024 1.6200001 67 74 63 255
0.0847174 -0.1095874 1.6200001 66 75 64 255
0.08905708 -0.10944912 1.618 65 74 63 255
0.093385413 -0.10931069 1.6160001 66 74 66 255
0.097702384 -0.10917214 1.6140001 65 73 65 255
0.1021345 -0.10916872 1.6140001 69 77 70 255
0.10656623 -0.10916515 1.6140001 70 76 69 255
0.11092873 -0.10909382 1.613 68 74 66 255
0.1152138 -0.10895472 1.6110001 60 67 56 255
0.11956166 -0.10888311 1.6100001 61 68 57 255
0.12390357 -0.10881136 1.6090001 64 73 61 255
0.12823947 -0.1087395 1.608 70 79 68 255
0.13265187 -0.10873511 1.608 70 78 70 255
0.13697852 -0.10866297 1.6070001 73 81 74 255
0.14165105 -0.10886116 1.6100001 70 76 69 255
0.14633949 -0.10905921 1.613 69 75 67 255
0.15113729 -0.10932472 1.6170001 68 72 64 255
0.15566781 -0.10938725 1.618 67 72 61 255
0.15990634 -0.10924684 1.6160001 66 71 60 255
0.16413333 -0.1091063 1.6140001 67 72 61 255
0.16824423 -0.10889805 1.6110001 66 72 64 255
0.17265962 -0.10889249 1.6110001 70 76 68 255
0.17674458 -0.10868404 1.608 71 77 69 255
0.18103778 -0.10861066 1.6070001 76 82 74 255
0.1849786 -0.10833441 1.603 71 79 71 255
0.18913312 -0.10819325 1.6010001 71 78 66 255
0.19351773 -0.10818712 1.6010001 72 79 67 255
0.19802526 -0.10824845 1.6020001 71 78 66 255
0.20253752 -0.10830966 1.603 65 72 60 255
0.20679639 -0.10823564 1.6020001 63 70 58 255
0.21091719 -0.10809395 1.6 67 74 63 255
0.21502632 -0.10795217 1.598 72 79 68 255
0.21912377 -0.10781031 1.5960001 78 84 76 255
0.22334951 -0.1077359 1.595 80 86 78 255
0.22742629 -0.10759388 1.5930001 80 86 78 255
0.23192783 -0.10765437 1.5940001 71 78 67 255
0.23673055 -0.10784983 1.5970001 68 73 62 255
0.24109595 -0.10784257 1.5970001 66 73 62 255
0.24499944 -0.10763267 1.5940001 61 68 57 255
0.24857289 -0.10728767 1.5890001 80 86 78 255
0.25243652 -0.10707763 1.5860001 70 76 68 255
0.25628299 -0.10686757 1.5830001 61 69 61 255
0.26077071 -0.10692745 1.5840001 59 67 59 255
0.26476103 -0.10678475 1.582 80 88 80 255
0.26822937 -0.1064395 1.577 82 91 80 255
0.27166957 -0.10609423 1.572 75 84 73 255
0.2756083 -0.10595141 1.5700001 69 78 67 255
0.27989182 -0.10594346 1.5700001 72 81 70 255
0.28417456 -0.10593547 1.5700001 73 82 71 255
0.28808898 -0.10579247 1.5680001 73 81 74 255
0.29217812 -0.10571691 1.567 70 78 71 255
0.29607186 -0.10557382 1.5650001 83 91 83 255
0.30091336 -0.10576797 1.5680001 75 81 73 255
0.30577037 -0.10596203 1.5710001 77 84 73 255
0.31064293 -0.10615601 1.5740001 73 80 69 255
0.31453058 -0.10601271 1.572 71 78 67 255
0.31820369 -0.10580196 1.5690001 75 82 71 255
0.3220652 -0.10565861 1.567 75 84 73 255
0.32653973 -0.10571753 1.5680001 74 83 72 255
0.33080792 -0.10570896 1.5680001 75 84 73 255
0.33486155 -0.10563295 1.567 74 83 72 255
0.33890903 -0.10555691 1.5660001 73 82 71 255
0.3429502 -0.10548086 1.5650001 74 83 72 255
0.34720701 -0.10547219 1.5650001 73 82 71 255
0.35191217 -0.10559827 1.567 72 80 72 255
0.3561728 -0.10558952 1.567 68 76 68 255
0.36043274 -0.10558078 1.567 72 81 70 255
0.36422637 -0.10543726 1.5650001 72 81 70 255
0.36847928 -0.10542848 1.5650001 76 83 72 255
0.37296966 -0.10548706 1.5660001 73 80 69 255
0.37746465 -0.1055456 1.567 70 77 66 255
0.38196439 -0.10560414 1.5680001 67 74 63 255
0.38622245 -0.10559531 1.5680001 65 72 61 255
0.39047986 -0.1055865 1.5680001 61 67 59 255
0.39448479 -0.10551033 1.567 62 68 60 255
0.39899251 -0.10556886 1.5680001 61 67 59 255
0.4032478 -0.10556005 1.5680001 66 72 64 255
0.40750247 -0.10555127 1.5680001 71 78 67 255
0.41149381 -0.10547516 1.567 75 82 71 255
0.41574439 -0.1054664 1.567 72 79 68 255
0.42026249 -0.10552498 1.5680001 73 80 69 255
0.42451459 -0.10551626 1.5680001 72 79 68 255
0.4287661 -0.10550757 1.5680001 70 77 66 255
0.4332931 -0.1055662 1.5690001 71 78 67 255
0.43810394 -0.10569211 1.5710001 71 78 66 255
0.44264343 -0.10575079 1.572 72 79 68 255
0.44718784 -0.10580949 1.5730001 70 77 66 255
0.45231119 -0.10600273 1.5760001 71 78 67 255
0.45658109 -0.10599423 1.5760001 69 76 65 255
0.46172786 -0.10618753 1.5790001 73 80 69 255
0.46659529 -0.10631361 1.5810001 73 80 69 255
0.4720687 -0.1065742 1.585 70 77 66 255
0.4763613 -0.10656586 1.585 70 77 65 255
0.48065341 -0.10655761 1.585 75 82 70 255
0.48525122 -0.10661662 1.5860001 72 79 68 255
0.4898541 -0.10667573 1.5870001 72 79 68 255
0.49446195 -0.10673486 1.5880001 66 72 64 255
0.49656233 -0.10625641 1.5810001 58 66 58 255
0.49704066 -0.1054421 1.5690001 73 81 73 255
0.49777323 -0.10469518 1.5580001 82 91 80 255
0.49973488 -0.10421723 1.5510001 78 87 76 255
0.5032829 -0.10407537 1.549 76 83 72 255
0.50747526 -0.10406801 1.549 73 80 69 255
0.51265842 -0.10426228 1.552 75 82 71 255
0.51685864 -0.10425509 1.552 69 76 65 255
0.52206606 -0.10444952 1.5550001 75 82 70 255
0.52796644 -0.10477835 1.5600001 77 84 72 255
0.53423512 -0.10517441 1.5660001 72 79 67 255
0.53916085 -0.10530192 1.5680001 67 74 62 255
0.54201806 -0.1050266 1.5640001 63 70 58 255
0.5445044 -0.10468428 1.559 61 68 57 255
0.54766786 -0.10447643 1.5560001 60 69 58 255
0.55116981 -0.10433584 1.554 55 64 53 255
0.55680555 -0.10459826 1.5580001 66 73 62 255
0.5624631 -0.10486076 1.562 78 85 74 255
0.56814259 -0.10512338 1.5660001 31 38 27 255
0.57165104 -0.10498337 1.5640001 37 42 30 255
0.57551712 -0.10491063 1.5630001 43 48 36 255
0.57863635 -0.1047038 1.5600001 51 58 46 255
0.58211339 -0.10456427 1.5580001 69 76 64 255
0.58595645 -0.10449203 1.557 77 84 72 255
0.59055257 -0.10455416 1.5580001 68 75 63 255
0.59477293 -0.10454936 1.5580001 64 71 60 255
0.59860939 -0.10447761 1.557 63 70 59 255
0.60244113 -0.10440606 1.5560001 66 73 61 255
0.60626799 -0.10433467 1.5550001 67 74 62 255
0.60969758 -0.10419637 1.5530001 68 75 63 255
0.61390775 -0.10419247 1.5530001 72 82 67 255
0.61811864 -0.10418875 1.5530001 69 79 64 255
0.62233049 -0.10418521 1.5530001 72 80 65 255
0.62654299 -0.10418186 1.5530001 76 84 69 255
0.63075662 -0.10417873 1.5530001 27 32 20 255
0.63578898 -0.10430996 1.5550001 20 23 11 255
0.63836366 -0.10403892 1.5510001 19 22 10 255
0.63967478 -0.10356685 1.544 18 21 9 255
0.64178312 -0.10322918 1.539 20 23 11 255
0.64386547 -0.10289175 1.534 17 20 8 255
0.64887887 -0.10302404 1.536 18 21 9 255
0.65390462 -0.10315659 1.5380001 18 21 9 255
0.65894246 -0.10328934 1.5400001 19 22 10 255
0.66442311 -0.1034894 1.5430001 20 23 9 255
0.6699217 -0.10368969 1.5460001 20 23 9 255
0.6741299 -0.10368901 1.5460001 20 23 9 255
0.67614579 -0.10335324 1.5410001 20 23 9 255
0.67857754 -0.10308477 1.5370001 20 23 9 255
0.68232185 -0.10301779 1.536 21 24 10 255
0.68650937 -0.10301813 1.536 22 26 9 255
0.68889999 -0.10275044 1.5320001 20 24 7 255
0.69172311 -0.1025501 1.529 23 25 8 255
0.69726247 -0.10275244 1.5320001 26 28 11 255
0.70190448 -0.10282093 1.5330001 24 28 10 255
0.70747519 -0.10302383 1.536 26 30 12 255
0.70889443 -0.10262337 1.5300001 28 32 14 255
0.71494365 -0.10289393 1.534 23 29 11 255
0.7191419 -0.1028965 1.534 21 30 11 255
0.72287083 -0.10283229 1.5330001 20 30 15 255
0.72375089 -0.10236587 1.526 127 137 122 255
0.72841132 -0.10243639 1.5270001 131 141 130 255
0.72828203 -0.10183639 1.5180001 144 154 145 255
0.7290709 -0.10137083 1.511 158 167 160 255
0.72836828 -0.10070427 1.501 165 172 168 255
-0.75073344 -0.11585964 1.6600001 231 238 227 255
-0.74170846 -0.11516068 1.6500001 212 219 208 255
-0.73363376 -0.11460164 1.6420001 222 231 219 255
-0.72738075 -0.11432207 1.6380001 211 220 208 255
-0.71894473 -0.11369381 1.6290001 212 221 209 255
-0.71055955 -0.11306583 1.6200001 210 220 203 255
-0.70309675 -0.11257771 1.613 207 218 199 255
-0.69654024 -0.11222945 1.608 133 143 118 255
-0.69216466 -0.11223042 1.608 124 133 102 255
-0.68779057 -0.11223164 1.608 106 113 81 255
-0.68341804 -0.11223312 1.608 138 145 106 255
-0.67904681 -0.11223486 1.608 142 148 112 255
-0.67467695 -0.11223684 1.608 119 126 94 255
-0.66989154 -0.11216925 1.6070001 181 188 157 255
-0.66552687 -0.1121717 1.6070001 159 168 137 255
-0.66075194 -0.11210458 1.6060001 135 144 113 255
-0.65557492 -0.11196788 1.6040001 125 134 103 255
-0.65040988 -0.1118314 1.6020001 133 140 109 255
-0.64525658 -0.11169513 1.6 150 157 126 255
-0.64091629 -0.11169866 1.6 141 148 119 255
-0.63657689 -0.11170243 1.6 155 163 137 255
-0.63184321 -0.11163658 1.5990001 163 171 146 255
-0.62750822 -0.11164075 1.5990001 168 176 151 255
-0.62278432 -0.11157528 1.598 151 161 138 255
-0.61845356 -0.11157983 1.598 135 145 120 255
-0.61335492 -0.11144493 1.5960001 127 135 110 255
-0.60864919 -0.11138 1.595 124 132 106 255
-0.60470736 -0.11145494 1.5960001 129 137 111 255
-0.60038447 -0.11146021 1.5960001 147 155 129 255
-0.59606212 -0.11146566 1.5960001 141 149 123 255
-0.59174025 -0.11147127 1.5960001 140 150 124 255
-0.58741868 -0.11147705 1.5960001 149 159 133 255
-0.58236688 -0.11134329 1.5940001 143 153 127 255
-0.5773263 -0.11120966 1.5920001 127 137 112 255
-0.5730167 -0.11121589 1.5920001 143 153 128 255
-0.56870735 -0.11122227 1.5920001 138 148 123 255
-0.56404364 -0.11115892 1.5910001 138 148 125 255
-0.56008923 -0.11123545 1.5920001 142 152 129 255
-0.55578053 -0.11124224 1.5920001 141 151 128 255
-0.55112547 -0.11117929 1.5910001 134 144 121 255
-0.54647583 -0.11111645 1.59 139 149 126 255
-0.54183185 -0.11105375 1.5890001 140 150 127 255
-0.53786975 -0.11113092 1.59 142 152 127 255
-0.53356671 -0.11113834 1.59 130 142 117 255
-0.52959645 -0.11121576 1.5910001 130 140 115 255
-0.52496034 -0.11115348 1.59 135 145 120 255
-0.52065712 -0.11116123 1.59 139 149 124 255
-0.51635373 -0.11116906 1.59 139 147 122 255
-0.51205015 -0.11117701 1.59 133 143 118 255
-0.5074271 -0.11111514 1.5890001 134 144 119 255
-0.50312579 -0.11112324 1.5890001 136 144 119 255
-0.4988243 -0.11113145 1.5890001 134 142 117 255
-0.49514496 -0.11127963 1.5910001 134 144 119 255
-0.49052894 -0.11121806 1.59 135 145 119 255
-0.48622394 -0.11122653 1.59 133 143 117 255
-0.48191842 -0.11123505 1.59 131 141 116 255
-0.47821349 -0.11138359 1.5920001 136 146 120 255
-0.47479489 -0.11160216 1.595 127 137 111 255
-0.47076967 -0.1116809 1.5960001 122 132 106 255
-0.46644646 -0.11168971 1.5960001 123 133 107 255
-0.46241224 -0.11176858 1.5970001 125 134 105 255
-0.45837212 -0.1118475 1.598 128 138 112 255
-0.45404205 -0.11185649 1.598 128 138 112 255
-0.45055568 -0.11207555 1.6010001 127 138 109 255
-0.44649509 -0.11215466 1.6020001 127 138 107 255
-0.4427045 -0.11230382 1.6040001 125 136 107 255
-0.43917572 -0.11252306 1.6070001 124 135 104 255
-0.43590078 -0.11281241 1.6110001 124 135 104 255
-0.43260345 -0.11310183 1.6150001 120 131 100 255
-0.42875358 -0.11325125 1.6170001 136 145 114 255
-0.42515457 -0.11347074 1.6200001 133 142 111 255
-0.42179835 -0.11376034 1.6240001 125 134 103 255
-0.41790572 -0.11390991 1.626 136 145 114 255
-0.41451019 -0.11419963 1.6300001 133 140 109 255
-0.41134381 -0.11455947 1.6350001 125 132 101 255
-0.40790069 -0.1148493 1.6390001 127 134 103 255
-0.40418893 -0.11506911 1.6420001 127 134 102 255
-0.40070358 -0.11535902 1.646 134 141 109 255
-0.39647359 -0.11543872 1.6470001 133 140 108 255
-0.39247543 -0.11558853 1.649 107 114 82 255
-0.38870084 -0.11580843 1.6520001 123 131 96 255
-0.38537434 -0.11616858 1.6570001 104 112 77 255
-0.38224971 -0.1165989 1.6630001 93 101 66 255
-0.37909165 -0.11702925 1.669 67 77 42 255
-0.37522689 -0.11724927 1.6720001 62 70 34 255
-0.37112322 -0.11739918 1.674 68 76 40 255
-0.36635098 -0.11733867 1.6730001 81 87 51 255
-0.36158323 -0.11727811 1.6720001 80 86 50 255
-0.35682017 -0.11721753 1.6710001 68 72 34 255
-0.35227242 -0.11722703 1.6710001 69 71 33 255
-0.34668344 -0.1168857 1.6660001 90 94 56 255
-0.34112075 -0.11654426 1.6610001 94 98 60 255
-0.3361924 -0.11641324 1.659 105 112 73 255
-0.33227363 -0.11663302 1.6620001 90 96 60 255
-0.3283377 -0.11685279 1.6650001 91 97 61 255
-0.32419008 -0.11700236 1.6670001 92 98 62 255
-0.31983891 -0.11708168 1.6680001 90 98 63 255
-0.31510338 -0.11702056 1.6670001 93 100 68 255
-0.31111756 -0.11724018 1.6700001 102 109 78 255
-0.30693102 -0.11738957 1.6720001 2 5 0 255
-0.30273262 -0.11753891 1.674 13 17 9 255
-0.29781002 -0.1174073 1.6720001 15 17 7 255
-0.29324821 -0.11741607 1.6720001 17 17 7 255
-0.28834021 -0.11728429 1.6700001 18 18 8 255
-0.28378212 -0.11729287 1.6700001 17 17 7 255
-0.27922317 -0.11730137 1.6700001 17 18 6 255
-0.27532119 -0.11759078 1.674 17 20 8 255
-0.27058786 -0.11752889 1.6730001 40 45 33 255
-0.2657001 -0.11739665 1.6710001 43 50 38 255
-0.2603536 -0.11705349 1.6660001 51 58 46 255
-0.25549424 -0.116921 1.664 50 59 47 255
-0.25079575 -0.11685866 1.6630001 40 49 37 255
-0.2461019 -0.11679623 1.6620001 42 51 39 255
-0.2414127 -0.11673366 1.6610001 44 51 39 255
-0.2368708 -0.11674128 1.6610001 51 58 46 255
-0.2320483 -0.11660821 1.659 53 62 50 255
-0.22723594 -0.116475 1.6570001 52 61 49 255
-0.22243376 -0.11634168 1.6550001 50 59 47 255
-0.21803677 -0.11641915 1.6560001 52 60 45 255
-0.21324673 -0.11628558 1.654 54 62 47 255
-0.20884544 -0.11636282 1.6550001 53 61 44 255
-0.20394412 -0.11615866 1.6520001 51 59 44 255
-0.19917922 -0.1160247 1.6500001 52 60 45 255
-0.19430655 -0.11582029 1.6470001 51 59 44 255
-0.1896801 -0.11575636 1.646 53 60 48 255
-0.1851709 -0.11576264 1.646 54 61 49 255
-0.18066104 -0.11576879 1.646 55 62 50 255
-0.17615049 -0.11577481 1.646 58 65 53 255
-0.17132646 -0.1155697 1.6430001 58 65 53 255
-0.16651821 -0.11536441 1.6400001 57 65 50 255
-0.16182458 -0.11522933 1.6380001 55 63 48 255
-0.15723735 -0.11516444 1.6370001 59 67 52 255
-0.15265496 -0.1150994 1.636 58 66 51 255
-0.14798695 -0.1149639 1.6340001 56 63 51 255
-0.14359276 -0.11503929 1.6350001 55 62 50 255
-0.13910748 -0.11504419 1.6350001 57 64 52 255
-0.13453928 -0.11497859 1.6340001 62 67 55 255
-0.12973727 -0.11470173 1.6300001 59 64 52 255
-0.12534094 -0.11477657 1.631 61 66 54 255
-0.1207163 -0.11464013 1.6290001 61 66 55 255
-0.11631624 -0.11471469 1.6300001 63 68 57 255
-0.11170438 -0.11457794 1.628 60 65 54 255
-0.10730064 -0.11465219 1.6290001 62 67 56 255
-0.10282786 -0.11465592 1.6290001 61 66 54 255
-0.098415039 -0.11472988 1.6300001 56 61 49 255
-0.093881063 -0.11466292 1.6290001 57 62 50 255
-0.089407071 -0.11466618 1.6290001 54 59 47 255
-0.084880568 -0.1145989 1.628 46 53 41 255
-0.080457993 -0.11467224 1.6290001 55 64 53 255
-0.076029599 -0.11474546 1.6300001 55 64 53 255
-0.071551494 -0.1147481 1.6300001 56 65 54 255
-0.067031942 -0.11468019 1.6290001 71 80 69 255
-0.062555991 -0.11468252 1.6290001 65 74 63 255
-0.058186755 -0.1148959 1.6320001 59 66 54 255
-0.053800784 -0.11510914 1.6350001 59 64 52 255
-0.049367934 -0.11525181 1.6370001 58 61 47 255
-0.044869069 -0.11525352 1.6370001 56 59 45 255
-0.040296029 -0.11504383 1.6340001 55 60 46 255
-0.035761226 -0.1149044 1.6320001 55 60 46 255
-0.031237267 -0.11476481 1.6300001 55 62 50 255
-0.026756998 -0.11476585 1.6300001 55 62 50 255
-0.022249278 -0.11462592 1.628 56 63 51 255
-0.017774297 -0.11462664 1.628 57 64 52 255
-0.013291071 -0.1145568 1.6270001 63 68 56 255
-0.0088187074 -0.11455721 1.6270001 62 67 53 255
-0.0043489765 -0.11462785 1.628 63 68 54 255
0.00012619198 -0.11462793 1.628 64 69 55 255
0.0046041869 -0.11469825 1.6290001 63 68 56 255
0.0090765087 -0.11462758 1.628 62 67 55 255
0.013543296 -0.11455677 1.6270001 66 71 59 255
0.017971307 -0.11427456 1.623 63 70 59 255
0.022418717 -0.11420342 1.6220001 65 72 61 255
0.026860535 -0.11413212 1.6210001 67 74 63 255
0.03133538 -0.11420147 1.6220001 66 73 62 255
0.035771456 -0.11412985 1.6210001 66 73 62 255
0.04020188 -0.11405806 1.6200001 65 72 60 255
0.044654202 -0.11405653 1.6200001 64 71 59 255
0.049166963 -0.11419564 1.6220001 67 72 58 255
0.053657439 -0.11426418 1.623 65 70 56 255
0.05811739 -0.11426216 1.623 64 71 59 255
0.062499978 -0.11411919 1.6210001 63 70 58 255
0.066912621 -0.11404648 1.6200001 66 73 62 255
0.071319483 -0.11397359 1.6190001 64 73 62 255
0.075767353 -0.11397094 1.6190001 65 74 63 255
0.080264457 -0.11403854 1.6200001 63 72 61 255
0.084766716 -0.11410598 1.6210001 64 73 62 255
0.089164048 -0.11403248 1.6200001 66 74 66 255
0.093497723 -0.11388844 1.618 69 77 69 255
0.097820036 -0.11374427 1.6160001 65 73 66 255
0.10219423 -0.11367034 1.6150001 69 77 70 255
0.10656253 -0.11359626 1.6140001 72 78 70 255
0.11085612 -0.11345164 1.6120001 68 74 66 255
0.1151383 -0.11330691 1.6100001 64 71 60 255
0.11940901 -0.11316203 1.608 64 71 60 255
0.12374529 -0.11308741 1.6070001 67 76 64 255
0.12807557 -0.11301263 1.6060001 71 80 69 255
0.13264734 -0.11314881 1.608 70 78 70 255
0.13722955 -0.11328483 1.6100001 71 77 69 255
0.14199816 -0.11356145 1.6140001 69 75 67 255
0.1466067 -0.11369717 1.6160001 69 73 65 255
0.1513191 -0.11390311 1.6190001 67 71 63 255
0.15575878 -0.11389782 1.6190001 65 69 61 255
0.16009888 -0.11382207 1.618 68 73 62 255
0.1644329 -0.11374618 1.6170001 67 74 63 255
0.16865636 -0.11359983 1.6150001 69 75 67 255
0.17297541 -0.11352371 1.6140001 69 75 67 255
0.17728829 -0.11344745 1.613 72 78 70 255
0.18136978 -0.11323044 1.6100001 75 81 73 255
0.1855495 -0.11308364 1.608 74 82 74 255
0.18948133 -0.11279608 1.6040001 77 84 73 255
0.19387406 -0.11278972 1.6040001 73 80 68 255
0.19838966 -0.11285355 1.605 70 77 66 255
0.20291005 -0.11291725 1.6060001 64 71 59 255
0.20704791 -0.11276992 1.6040001 66 73 61 255
0.21104227 -0.11255217 1.6010001 67 74 63 255
0.21501951 -0.11233436 1.598 66 75 64 255
0.21939144 -0.11232735 1.598 75 83 75 255
0.22362255 -0.11224993 1.5970001 79 87 79 255
0.22827572 -0.11238327 1.5990001 76 82 74 255
0.23293908 -0.11251649 1.6010001 71 78 67 255
0.23761258 -0.1126496 1.603 62 67 56 255
0.24169233 -0.1125015 1.6010001 67 72 61 255
0.24545301 -0.11221281 1.5970001 63 70 59 255
0.24903457 -0.1118538 1.5920001 79 86 75 255
0.25306553 -0.11170552 1.59 65 71 63 255
0.25708473 -0.11155716 1.5880001 58 66 58 255
0.26142138 -0.11154923 1.5880001 69 77 69 255
0.26508787 -0.11126026 1.5840001 80 88 80 255
0.26822144 -0.11076054 1.577 81 90 79 255
0.27166158 -0.11040127 1.572 74 82 74 255
0.27577579 -0.11032289 1.5710001 73 82 71 255
0.28006202 -0.11031466 1.5710001 76 85 74 255
0.28452837 -0.11037656 1.572 73 81 73 255
0.28844824 -0.11022778 1.5700001 71 79 72 255
0.29235631 -0.11007894 1.5680001 66 74 66 255
0.29644182 -0.11000025 1.567 83 89 81 255
0.30148062 -0.1102725 1.5710001 77 83 75 255
0.30654043 -0.11054464 1.575 75 82 71 255
0.31102908 -0.11060613 1.5760001 69 76 65 255
0.31492215 -0.11045703 1.5740001 69 78 67 255
0.31860068 -0.11023772 1.5710001 74 83 72 255
0.32267308 -0.11015874 1.5700001 79 88 77 255
0.32694751 -0.11014988 1.5700001 72 80 72 255
0.33122107 -0.11014099 1.5700001 72 80 72 255
0.33506653 -0.10999177 1.5680001 74 83 72 255
0.33911663 -0.10991267 1.567 77 85 77 255
0.34337965 -0.10990368 1.567 74 82 74 255
0.34786373 -0.1099648 1.5680001 74 82 74 255
0.35235244 -0.11002588 1.5690001 71 79 71 255
0.35639122 -0.10994668 1.5680001 69 75 67 255
0.36065385 -0.10993759 1.5680001 69 75 67 255
0.36468291 -0.10985837 1.567 63 69 61 255
0.36917672 -0.10991935 1.5680001 65 71 63 255
0.37367517 -0.10998032 1.5690001 66 75 64 255
0.37841922 -0.11011136 1.5710001 64 73 62 255
0.38292977 -0.11017227 1.572 69 78 67 255
0.38744503 -0.11023316 1.5730001 74 83 72 255
0.39171603 -0.11022398 1.5730001 70 76 68 255
0.39573449 -0.11014472 1.572 74 80 72 255
0.39974692 -0.1100655 1.5710001 68 74 66 255
0.40401039 -0.11005636 1.5710001 72 78 70 255
0.40853301 -0.11011726 1.572 70 77 66 255
0.41306046 -0.11017818 1.5730001 75 82 71 255
0.41759273 -0.1102391 1.5740001 74 81 70 255
0.42212969 -0.11030003 1.575 74 81 70 255
0.42613006 -0.11022092 1.5740001 75 80 69 255
0.43121824 -0.11042194 1.577 71 78 67 255
0.43576968 -0.11048293 1.5780001 71 78 67 255
0.44032609 -0.11054394 1.5790001 73 80 69 255
0.44432414 -0.11046495 1.5780001 73 80 69 255
0.44888487 -0.11052605 1.5790001 73 80 69 255
0.45402443 -0.11072713 1.582 73 80 69 255
0.45860037 -0.11078827 1.5830001 69 76 65 255
0.46405858 -0.1110594 1.5870001 71 78 66 255
0.46983308 -0.1114005 1.5920001 73 80 68 255
0.47533634 -0.11167164 1.5960001 70 77 65 255
0.47995931 -0.11173292 1.5970001 71 78 66 255
0.48428401 -0.11172429 1.5970001 74 81 69 255
0.48983219 -0.11199553 1.6010001 73 80 69 255
0.49416703 -0.11198702 1.6010001 72 78 70 255
0.49819016 -0.11190864 1.6 71 77 69 255
0.50126541 -0.11162055 1.5960001 68 74 67 255
0.50273484 -0.11098292 1.5870001 62 70 63 255
0.50159931 -0.10978605 1.5700001 80 88 81 255
0.50101602 -0.10872928 1.5550001 85 91 83 255
0.50360024 -0.10837194 1.5500001 79 85 77 255
0.50746781 -0.10829438 1.549 79 85 77 255
0.51331174 -0.10863639 1.554 76 80 72 255
0.51818347 -0.10876873 1.5560001 73 80 69 255
0.52373749 -0.10904098 1.5600001 73 80 69 255
0.52863616 -0.10917349 1.562 77 84 73 255
0.53422809 -0.10944589 1.5660001 76 83 72 255
0.53846627 -0.10943884 1.5660001 70 77 65 255
0.54166472 -0.10922226 1.5630001 66 73 61 255
0.54414856 -0.10886608 1.5580001 62 69 57 255
0.54766142 -0.10871969 1.5560001 60 67 55 255
0.55187291 -0.10871319 1.5560001 59 66 54 255
0.55822891 -0.10912601 1.562 70 77 66 255
0.56425744 -0.10946905 1.567 79 84 73 255
0.56886232 -0.1095328 1.5680001 33 38 27 255
0.57164526 -0.10924741 1.5640001 37 42 31 255
0.57514328 -0.10910189 1.562 44 51 40 255
0.57900184 -0.10902641 1.5610001 54 61 50 255
0.58210808 -0.10881141 1.5580001 65 72 61 255
0.58595121 -0.10873625 1.557 76 83 72 255
0.58978957 -0.10866129 1.5560001 74 81 70 255
0.59476817 -0.10879601 1.5580001 73 78 67 255
0.59822035 -0.10865156 1.5560001 68 73 62 255
0.60243666 -0.10864694 1.5560001 67 72 61 255
0.60665363 -0.10864253 1.5560001 66 73 61 255
0.61087137 -0.10863829 1.5560001 62 69 57 255
0.61508977 -0.10863425 1.5560001 72 80 65 255
0.61930901 -0.1086304 1.5560001 72 80 65 255
0.62352914 -0.10862676 1.5560001 71 79 64 255
0.62734663 -0.10855351 1.5550001 76 81 67 255
0.63156587 -0.10855027 1.5550001 13 18 4 255
0.63660371 -0.10868686 1.557 19 22 8 255
0.63794947 -0.10819544 1.5500001 20 23 11 255
0.64132959 -0.10805325 1.5480001 21 24 12 255
0.64303195 -0.10763209 1.5420001 21 22 10 255
0.64554244 -0.1073508 1.5380001 19 22 10 255
0.64929968 -0.10727912 1.5370001 19 22 10 255
0.65517861 -0.10755666 1.5410001 20 23 11 255
0.66022491 -0.10769485 1.5430001 21 24 10 255
0.66614449 -0.10797287 1.5470001 21 24 10 255
0.67122084 -0.10811153 1.549 20 23 9 255
0.67500144 -0.10804107 1.5480001 20 23 9 255
0.67658424 -0.1076219 1.5420001 20 23 9 255
0.67901903 -0.10734259 1.5380001 21 24 10 255
0.68276626 -0.10727291 1.5370001 20 23 9 255
0.68695682 -0.1072733 1.5370001 21 25 8 255
0.69159889 -0.10734377 1.5380001 21 25 8 255
0.69217652 -0.10678636 1.5300001 25 27 10 255
0.69498813 -0.10657819 1.5270001 26 28 10 255
0.70053256 -0.10678909 1.5300001 27 29 11 255
0.70747703 -0.10720966 1.536 30 32 14 255
0.7116766 -0.10721175 1.536 29 31 13 255
0.71634436 -0.10728397 1.5370001 22 28 10 255
0.72008216 -0.10721688 1.536 20 28 11 255
0.72287387 -0.1070105 1.5330001 50 60 45 255
0.72470284 -0.10666478 1.5280001 132 143 130 255
0.7269839 -0.10638919 1.524 134 144 135 255
0.72780627 -0.10590447 1.5170001 152 161 154 255
0.72811019 -0.1053502 1.5090001 156 165 160 255
0.72885811 -0.10486604 1.5020001 166 173 170 255
-0.75028235 -0.12031057 1.659 238 243 232 255
-0.74215877 -0.11972932 1.651 206 211 200 255
-0.73363429 -0.11907589 1.6420001 230 239 227 255
-0.72738105 -0.11878536 1.6380001 197 206 194 255
-0.71806204 -0.11798748 1.6270001 216 226 211 255
-0.71012062 -0.11740746 1.6190001 202 213 194 255
-0.70309621 -0.11697276 1.613 195 206 185 255
-0.69827211 -0.11690092 1.6120001 128 138 112 255
-0.69388533 -0.11690189 1.6120001 128 137 106 255
-0.68950021 -0.11690313 1.6120001 142 152 119 255
-0.68469143 -0.11683209 1.6110001 141 148 116 255
-0.67946726 -0.1166888 1.6090001 127 134 102 255
-0.67467487 -0.11661829 1.608 177 186 155 255
-0.67072284 -0.11669308 1.6090001 190 199 168 255
-0.66593844 -0.11662306 1.608 134 143 114 255
-0.66074914 -0.11648075 1.6060001 124 132 106 255
-0.65557188 -0.11633867 1.6040001 128 136 110 255
-0.6504066 -0.1161968 1.6020001 147 155 129 255
-0.64525306 -0.11605517 1.6 161 171 146 255
-0.64051199 -0.11598629 1.5990001 149 159 136 255
-0.63577729 -0.1159176 1.598 167 177 154 255
-0.6310488 -0.11584914 1.5970001 160 169 148 255
-0.62632662 -0.11578088 1.5960001 164 173 152 255
-0.62161058 -0.11571279 1.595 145 155 132 255
-0.61728781 -0.11571749 1.595 140 147 125 255
-0.6129657 -0.11572235 1.595 125 132 110 255
-0.60864413 -0.11572741 1.595 143 151 126 255
-0.60432321 -0.11573266 1.595 131 139 114 255
-0.60000294 -0.11573811 1.595 148 158 133 255
-0.59568304 -0.11574371 1.595 148 158 133 255
-0.59099293 -0.11567694 1.5940001 150 160 135 255
-0.5863086 -0.11561032 1.5930001 146 156 130 255
-0.58126473 -0.11547128 1.5910001 148 158 132 255
-0.57659471 -0.11540496 1.59 132 142 116 255
-0.57229036 -0.11541139 1.59 147 157 131 255
-0.56834346 -0.11549056 1.5910001 142 152 127 255
-0.56332791 -0.1153521 1.5890001 141 151 128 255
-0.55902702 -0.11535897 1.5890001 137 147 124 255
-0.55437708 -0.11529338 1.5880001 142 152 129 255
-0.54973274 -0.11522792 1.5870001 140 150 127 255
-0.54543757 -0.11523519 1.5870001 145 155 132 255
-0.54148346 -0.1153152 1.5880001 140 150 127 255
-0.53718567 -0.11532272 1.5880001 141 151 126 255
-0.53288794 -0.11533038 1.5880001 125 135 110 255
-0.52859014 -0.11533815 1.5880001 141 151 126 255
-0.52363199 -0.11520077 1.5860001 130 140 115 255
-0.51933938 -0.11520874 1.5860001 138 148 123 255
-0.51504672 -0.11521684 1.5860001 134 144 119 255
-0.51075387 -0.11522503 1.5860001 133 143 118 255
-0.50646085 -0.11523332 1.5860001 136 146 121 255
-0.50216764 -0.11524171 1.5860001 135 145 120 255
-0.49818808 -0.11532285 1.5870001 138 148 123 255
-0.49389166 -0.11533143 1.5870001 133 143 118 255
-0.48959491 -0.11534008 1.5870001 133 143 118 255
-0.48499206 -0.11527612 1.5860001 129 139 113 255
-0.48100051 -0.11535762 1.5870001 131 141 115 255
-0.47670281 -0.1153665 1.5870001 142 150 124 255
-0.47299999 -0.11552084 1.5890001 120 130 104 255
-0.46899095 -0.11560258 1.59 120 128 102 255
-0.4652684 -0.11575709 1.5920001 128 136 110 255
-0.4609555 -0.11576627 1.5920001 128 137 108 255
-0.45721567 -0.11592092 1.5940001 134 142 116 255
-0.45318046 -0.11600293 1.595 131 139 114 255
-0.44942078 -0.11615775 1.5970001 129 139 114 255
-0.44481355 -0.1160944 1.5960001 127 139 114 255
-0.4410392 -0.11624933 1.598 126 138 113 255
-0.43698013 -0.11633156 1.5990001 125 138 109 255
-0.43372676 -0.1166321 1.603 131 144 115 255
-0.42937964 -0.11664166 1.603 142 153 122 255
-0.42503193 -0.11665127 1.603 146 157 126 255
-0.42042112 -0.11658811 1.6020001 139 150 121 255
-0.41633457 -0.11667053 1.603 118 129 100 255
-0.41198492 -0.11668018 1.603 131 142 113 255
-0.40865174 -0.11698104 1.6070001 130 141 112 255
-0.40504462 -0.11720915 1.6100001 119 128 99 255
-0.4019182 -0.11758292 1.6150001 120 131 102 255
-0.39802542 -0.1177383 1.6170001 125 136 107 255
-0.39460793 -0.11803935 1.6210001 129 140 111 255
-0.39020514 -0.11804914 1.6210001 127 138 109 255
-0.38651556 -0.11827742 1.6240001 130 141 112 255
-0.38280895 -0.11850575 1.6270001 111 120 89 255
-0.38001546 -0.11902544 1.6340001 129 138 107 255
-0.37741303 -0.11961807 1.6420001 105 114 83 255
-0.37522057 -0.12035649 1.6520001 114 123 92 255
-0.37229967 -0.1208764 1.659 98 108 75 255
-0.36867481 -0.12117779 1.6630001 60 70 35 255
-0.36458939 -0.12133344 1.6650001 76 84 49 255
-0.36049229 -0.1214891 1.6670001 67 73 38 255
-0.35638338 -0.12164472 1.669 66 72 37 255
-0.35268444 -0.12194613 1.6730001 69 75 40 255
-0.3475062 -0.12173725 1.6700001 74 80 45 255
-0.34193271 -0.1213825 1.6650001 85 91 56 255
-0.33658823 -0.12110054 1.6610001 86 92 57 255
-0.33246419 -0.12125597 1.6630001 85 91 56 255
-0.32852554 -0.1214843 1.6660001 90 96 61 255
-0.32456964 -0.12171257 1.669 91 97 61 255
-0.32021311 -0.121795 1.6700001 86 92 56 255
-0.31585023 -0.12187736 1.6710001 88 97 57 255
-0.31166732 -0.12203261 1.6730001 90 97 65 255
-0.30747259 -0.12218779 1.6750001 47 53 28 255
-0.3030853 -0.12227 1.6760001 15 18 4 255
-0.2981573 -0.12213324 1.674 17 17 7 255
-0.29359007 -0.12214232 1.674 18 18 8 255
-0.289022 -0.12215132 1.674 21 19 9 255
-0.28428319 -0.12208728 1.6730001 19 17 7 255
-0.2798833 -0.12216908 1.674 18 19 7 255
-0.27580607 -0.1223968 1.677 19 20 6 255
-0.27106461 -0.12233248 1.6760001 45 48 34 255
-0.26616874 -0.12219505 1.674 46 51 37 255
-0.26097047 -0.12191152 1.6700001 49 54 40 255
-0.25579318 -0.12162785 1.6660001 50 57 45 255
-0.2509385 -0.12149005 1.664 43 50 38 255
-0.2463901 -0.12149817 1.664 44 54 39 255
-0.24198626 -0.12157921 1.6650001 43 53 36 255
-0.23729089 -0.12151409 1.664 48 58 41 255
-0.23232046 -0.12130281 1.6610001 54 64 47 255
-0.22750275 -0.12116439 1.659 53 61 46 255
-0.22282963 -0.12109891 1.6580001 50 58 43 255
-0.21829283 -0.12110632 1.6580001 52 60 45 255
-0.2136264 -0.1210406 1.6570001 49 57 42 255
-0.2090908 -0.12104777 1.6570001 54 62 47 255
-0.20443107 -0.12098179 1.6560001 50 58 43 255
-0.19965534 -0.12084258 1.654 53 61 46 255
-0.19477186 -0.12063019 1.651 56 64 49 255
-0.19001935 -0.12049071 1.649 52 60 45 255
-0.18538958 -0.12042415 1.6480001 56 63 51 255
-0.1807646 -0.12035747 1.6470001 56 63 51 255
-0.17635846 -0.1204368 1.6480001 61 68 56 255
-0.17152908 -0.12022365 1.6450001 62 70 55 255
-0.16691855 -0.12015653 1.6440001 60 68 53 255
-0.16211532 -0.11994309 1.641 60 65 51 255
-0.15752 -0.11987566 1.6400001 59 64 50 255
-0.15292954 -0.11980811 1.6390001 60 65 51 255
-0.14834401 -0.1197404 1.6380001 63 68 56 255
-0.14376335 -0.11967252 1.6370001 60 65 53 255
-0.13918762 -0.1196045 1.636 61 66 55 255
-0.13461685 -0.11953633 1.6350001 65 70 59 255
-0.12981224 -0.11924866 1.631 61 66 55 255
-0.12533645 -0.11925329 1.631 62 67 56 255
-0.1208602 -0.11925777 1.631 65 70 59 255
-0.11645478 -0.11933521 1.6320001 60 65 53 255
-0.11197482 -0.11933939 1.6320001 57 64 52 255
-0.10756025 -0.11941655 1.6330001 59 64 52 255
-0.10307664 -0.11942042 1.6330001 55 60 48 255
-0.098592602 -0.11942412 1.6330001 55 60 48 255
-0.093992911 -0.1192814 1.631 56 61 49 255
-0.089458704 -0.11921167 1.6300001 54 59 47 255
-0.084877476 -0.1190686 1.628 57 62 51 255
-0.080504455 -0.11921795 1.6300001 54 61 50 255
-0.07607346 -0.119294 1.631 59 65 57 255
-0.071592771 -0.11929674 1.631 67 75 67 255
-0.067111775 -0.11929933 1.631 66 75 64 255
-0.062707305 -0.11944806 1.6330001 59 66 55 255
-0.058362875 -0.1197429 1.6370001 59 64 52 255
-0.053897519 -0.11981815 1.6380001 56 61 47 255
-0.049426429 -0.11989324 1.6390001 54 60 43 255
-0.044922233 -0.119895 1.6390001 57 63 46 255
-0.040368527 -0.11975031 1.6370001 56 61 47 255
-0.035803728 -0.11953227 1.6340001 56 61 47 255
-0.031274438 -0.11938723 1.6320001 57 64 52 255
-0.026788834 -0.11938831 1.6320001 58 65 54 255
-0.022289451 -0.11931608 1.631 61 68 57 255
-0.017795473 -0.11924368 1.6300001 60 65 53 255
-0.013306918 -0.11917111 1.6290001 63 68 56 255
-0.0088292211 -0.11917153 1.6290001 64 69 57 255
-0.0043488164 -0.11909863 1.628 65 70 58 255
0.0001261873 -0.11909869 1.628 65 70 58 255
0.0046068425 -0.11924493 1.6300001 65 70 58 255
0.0090817483 -0.11917152 1.6290001 66 71 60 255
0.013542796 -0.11902478 1.6270001 67 72 61 255
0.017992789 -0.11887787 1.6250001 65 71 63 255
0.022445532 -0.11880394 1.6240001 65 72 61 255
0.026892679 -0.11872985 1.623 65 72 61 255
0.031334221 -0.11865561 1.6220001 66 73 62 255
0.035814267 -0.11872751 1.623 68 75 63 255
0.040250026 -0.11865293 1.6220001 66 73 61 255
0.044707686 -0.11865134 1.6220001 66 73 61 255
0.049195465 -0.11872272 1.623 65 72 60 255
0.053688526 -0.11879393 1.6240001 66 73 61 255
0.058115255 -0.11871871 1.623 65 72 61 255
0.062497683 -0.11857016 1.6210001 70 77 66 255
0.06691017 -0.1184946 1.6200001 65 73 65 255
0.071360931 -0.11849203 1.6200001 65 73 65 255
0.075858183 -0.11856242 1.6210001 64 73 62 255
0.080311067 -0.11855952 1.6210001 65 73 65 255
0.084815927 -0.11862961 1.6220001 67 73 65 255
0.089270882 -0.11862639 1.6220001 68 74 66 255
0.093552113 -0.1184036 1.6190001 68 74 66 255
0.09781649 -0.11818067 1.6160001 71 77 70 255
0.10219055 -0.11810387 1.6150001 71 77 70 255
0.10655869 -0.1180269 1.6140001 71 77 69 255
0.11092091 -0.11794979 1.613 72 78 70 255
0.11527719 -0.11787254 1.6120001 69 76 65 255
0.11955327 -0.11772202 1.6100001 66 75 64 255
0.12397188 -0.11771759 1.6100001 68 77 65 255
0.12839 -0.11771302 1.6100001 71 80 69 255
0.13313757 -0.11800074 1.6140001 71 78 67 255
0.13790654 -0.11828827 1.618 69 76 65 255
0.14252101 -0.11842946 1.6200001 68 75 64 255
0.14696443 -0.11842428 1.6200001 66 71 60 255
0.15150072 -0.11849202 1.6210001 67 72 61 255
0.15613814 -0.11863274 1.623 66 70 62 255
0.16048908 -0.11855403 1.6220001 69 74 63 255
0.16483393 -0.11847518 1.6210001 67 74 63 255
0.16917267 -0.11839622 1.6200001 67 74 63 255
0.17339809 -0.11824403 1.618 70 77 66 255
0.17761195 -0.11809174 1.6160001 68 75 64 255
0.18181416 -0.11793932 1.6140001 71 79 71 255
0.18612012 -0.11785986 1.613 73 81 73 255
0.18994741 -0.11748802 1.608 79 86 75 255
0.19435096 -0.1174814 1.608 72 79 67 255
0.19850659 -0.11732856 1.6060001 71 78 66 255
0.20290324 -0.1173217 1.6060001 65 72 60 255
0.20704101 -0.11716864 1.6040001 66 73 61 255
0.2110353 -0.11694245 1.6010001 74 81 70 255
0.21514697 -0.11678919 1.5990001 69 77 69 255
0.21952151 -0.11678191 1.5990001 74 82 74 255
0.22403531 -0.11684755 1.6 78 86 78 255
0.22912484 -0.11720517 1.605 81 87 79 255
0.23380451 -0.1173436 1.6070001 68 74 66 255
0.23849429 -0.11748188 1.6090001 55 62 51 255
0.2424394 -0.11725498 1.6060001 63 70 59 255
0.24621369 -0.11695503 1.6020001 64 71 60 255
0.24996525 -0.11665501 1.598 75 82 71 255
0.25385335 -0.11642792 1.595 62 70 62 255
0.25788611 -0.11627378 1.5930001 63 71 63 255
0.26207179 -0.11619256 1.5920001 70 78 70 255
0.26558176 -0.11581933 1.5870001 79 87 79 255
0.26906359 -0.11544607 1.582 77 86 75 255
0.27269015 -0.11514575 1.5780001 75 84 73 255
0.27682069 -0.11506431 1.577 79 87 79 255
0.28094491 -0.11498279 1.5760001 76 85 74 255
0.28506288 -0.1149012 1.575 71 79 71 255
0.28899083 -0.11474662 1.5730001 74 82 75 255
0.29290706 -0.11459198 1.5710001 67 75 67 255
0.29737908 -0.11465612 1.572 78 84 76 255
0.30243137 -0.11493897 1.5760001 75 81 73 255
0.30731007 -0.11514878 1.5790001 74 81 70 255
0.31180957 -0.11521268 1.58 67 74 63 255
0.3155134 -0.11498485 1.577 60 66 58 255
0.31940287 -0.11482991 1.575 57 65 57 255
0.32328069 -0.11467496 1.5730001 62 71 60 255
0.32735494 -0.11459286 1.572 62 70 62 255
0.33163393 -0.11458363 1.572 61 70 59 255
0.33569846 -0.1145015 1.5710001 66 75 64 255
0.33975673 -0.11441931 1.5700001 66 74 66 255
0.34402785 -0.11440999 1.5700001 62 70 62 255
0.34807637 -0.11432777 1.5690001 68 76 68 255
0.35256776 -0.11439125 1.5700001 72 78 70 255
0.35683656 -0.11438184 1.5700001 74 80 72 255
0.36133456 -0.11444527 1.5710001 71 78 67 255
0.3651391 -0.11429013 1.5690001 67 73 65 255
0.36940286 -0.11428068 1.5690001 70 76 68 255
0.37414214 -0.11441686 1.5710001 68 76 68 255
0.37913254 -0.11462586 1.5740001 67 75 67 255
0.38389477 -0.11476197 1.5760001 70 79 68 255
0.38842091 -0.11482525 1.577 68 76 68 255
0.39295173 -0.11488852 1.5780001 69 75 67 255
0.39698386 -0.11480618 1.577 70 76 68 255
0.40126425 -0.11479667 1.577 69 75 67 255
0.40528682 -0.11471435 1.5760001 69 75 67 255
0.40956327 -0.11470486 1.5760001 68 75 64 255
0.4143641 -0.11484094 1.5780001 69 76 65 255
0.41890991 -0.11490424 1.5790001 70 77 65 255
0.42372853 -0.11504032 1.5810001 73 78 66 255
0.42801595 -0.11503088 1.5810001 73 78 67 255
0.43339652 -0.11531248 1.585 73 78 67 255
0.43824586 -0.11544859 1.5870001 71 78 67 255
0.44254783 -0.11543921 1.5870001 73 80 69 255
0.44628602 -0.11528439 1.585 73 80 69 255
0.45058146 -0.11527512 1.585 74 81 70 255
0.45631129 -0.1156295 1.59 74 81 70 255
0.46148837 -0.11583846 1.5930001 72 79 68 255
0.46726608 -0.11619285 1.598 72 79 68 255
0.47277531 -0.11647454 1.6020001 73 80 68 255
0.47800785 -0.11668354 1.605 70 77 65 255
0.48265526 -0.11674719 1.6060001 70 77 65 255
0.48761091 -0.11688358 1.608 70 77 65 255
0.49288294 -0.1170927 1.6110001 72 79 68 255
0.49755365 -0.11715652 1.6120001 66 72 64 255
0.50160664 -0.11707506 1.6110001 70 76 68 255
0.50533992 -0.11692104 1.6090001 69 75 68 255
0.50747824 -0.11640382 1.6020001 64 72 65 255
0.50702244 -0.11530551 1.5870001 63 71 64 255
0.50487435 -0.1138442 1.567 87 95 88 255
0.50521696 -0.11296435 1.5550001 84 90 83 255
0.50811529 -0.11266586 1.5510001 82 88 81 255
0.51330411 -0.11287597 1.554 79 83 75 255
0.51850891 -0.11308615 1.557 73 79 71 255
0.52406573 -0.11336905 1.5610001 76 83 72 255
0.52862889 -0.11343415 1.562 74 80 72 255
0.53353858 -0.11357199 1.5640001 71 78 67 255
0.5374276 -0.11349209 1.5630001 72 79 67 255
0.5413112 -0.11341233 1.562 60 67 55 255
0.54414177 -0.11311489 1.5580001 63 70 58 255
0.54800671 -0.11303543 1.557 63 70 58 255
0.55293036 -0.11317389 1.559 66 73 61 255
0.56036675 -0.11382063 1.5680001 78 83 72 255
0.56641161 -0.11417707 1.5730001 35 40 29 255
0.57067001 -0.11417072 1.5730001 41 46 35 255
0.57273579 -0.11372907 1.567 58 63 52 255
0.57624215 -0.11357791 1.5650001 57 64 53 255
0.57973802 -0.11342693 1.5630001 49 56 45 255
0.5824762 -0.11313099 1.559 62 69 58 255
0.58632231 -0.11305297 1.5580001 76 83 72 255
0.59054244 -0.11304767 1.5580001 77 84 73 255
