ply
format ascii 1.0
comment PCL generated
element vertex 993
property float x
property float y
property float z
property uchar red
property uchar green
property uchar blue
property uchar alpha
element camera 0
property float view_px
property float view_py
property float view_pz
property float x_axisx
property float x_axisy
property float x_axisz
property float y_axisx
property float y_axisy
property float y_axisz
property float z_axisx
property float z_axisy
property float z_axisz
property float focal
property float scalex
property float scaley
property float centerx
property float centery
property int viewportx
property int viewporty
property float k1
property float k2
end_header
0.75267804 0.61760002 1.7900001 170 177 173 255
0.75340194 0.61420637 1.7800001 172 179 175 255
0.75407338 0.6108138 1.7700001 173 180 176 255
0.75169086 0.60500634 1.7530001 172 179 176 255
0.74921715 0.59919947 1.7360001 173 180 176 255
0.74925858 0.59546453 1.725 174 181 177 255
0.75099051 0.59311134 1.7180001 174 181 177 255
0.75092721 0.58937842 1.7070001 175 182 178 255
0.74992073 0.58495581 1.6940001 174 181 177 255
0.74750882 0.57949799 1.6780001 178 183 179 255
0.74770093 0.57611305 1.6680001 178 183 179 255
0.74738961 0.57238364 1.6570001 180 185 181 255
0.74702054 0.56865519 1.646 181 186 182 255
0.74522388 0.56389111 1.6320001 180 185 182 255
0.74381208 0.55947328 1.6190001 186 189 186 255
0.74371797 0.55609304 1.6090001 184 189 186 255
0.74264175 0.5520224 1.5970001 185 190 187 255
0.74430901 0.55002677 1.5910001 185 190 187 255
0.74218154 0.54526645 1.577 185 190 187 255
0.7418732 0.54188997 1.567 187 192 189 255
0.74056029 0.53782266 1.5550001 184 189 186 255
0.74205834 0.53583163 1.549 185 190 187 255
0.74256307 0.53315002 1.5410001 187 192 188 255
0.74254233 0.53012353 1.5320001 188 193 190 255
0.74393755 0.52813631 1.526 186 191 188 255
0.74432272 0.52545816 1.5180001 187 192 189 255
0.74368072 0.52208871 1.508 186 191 188 255
0.75837946 0.67907768 1.9860001 162 169 165 255
0.75614578 0.6722765 1.9660001 164 171 167 255
0.75845253 0.66957957 1.9580001 167 174 170 255
0.75798684 0.66448987 1.9430001 164 171 167 255
0.7562626 0.65837514 1.9250001 164 171 167 255
0.75523263 0.65294516 1.909 166 173 169 255
0.75571078 0.64888436 1.8970001 169 176 172 255
0.75652647 0.64516652 1.886 167 174 170 255
0.7548607 0.63939714 1.8690001 169 174 170 255
0.75391716 0.63431287 1.8540001 166 173 169 255
0.75248396 0.62888718 1.8380001 167 174 170 255
0.75261396 0.62483102 1.8260001 168 175 171 255
0.75185049 0.62009138 1.812 171 178 174 255
0.75393635 0.61774832 1.8050001 173 180 176 255
0.75430453 0.61403745 1.794 171 178 174 255
0.7537685 0.60964304 1.7810001 172 179 176 255
0.75145924 0.60388011 1.7640001 174 181 178 255
0.74948776 0.5984602 1.748 174 181 178 255
0.7482937 0.59372574 1.7340001 174 181 178 255
0.74789381 0.58967698 1.7220001 174 181 177 255
0.74961585 0.58734143 1.715 175 182 178 255
0.74866307 0.58295208 1.702 175 182 178 255
0.74764138 0.57856357 1.6890001 175 182 178 255
0.74699616 0.5745185 1.677 179 186 182 255
0.74718392 0.57115948 1.6670001 179 184 180 255
0.74777061 0.5681442 1.6580001 179 184 180 255
0.74604154 0.56341648 1.6440001 182 185 181 255
0.74515122 0.55937493 1.6320001 183 186 183 255
0.74281937 0.55430579 1.6170001 186 189 186 255
0.74456692 0.55232275 1.6110001 187 190 187 255
0.74395978 0.5486266 1.6 185 190 187 255
0.74563378 0.54664606 1.5940001 184 189 186 255
0.74445468 0.54260898 1.582 186 191 188 255
0.74463236 0.53960174 1.5730001 185 190 187 255
0.74238247 0.5348801 1.559 185 190 187 255
0.74293214 0.53221792 1.5510001 185 190 187 255
0.74199539 0.5285272 1.5400001 182 187 184 255
0.74100095 0.52483732 1.529 186 191 188 255
0.7418986 0.5225215 1.5220001 188 193 190 255
0.74325132 0.52055025 1.516 188 193 190 255
0.74309546 0.51755011 1.5070001 188 193 190 255
0.75567031 0.67125517 1.9790001 165 172 168 255
0.75649291 0.66722095 1.9670001 165 172 168 255
0.75802642 0.66386616 1.9570001 166 173 169 255
0.75638658 0.65779859 1.9390001 166 173 169 255
0.75504291 0.652071 1.9220001 165 172 168 255
0.75598162 0.64837998 1.9110001 166 173 169 255
0.75646389 0.64435065 1.899 167 172 168 255
0.75487715 0.63862574 1.8820001 171 176 172 255
0.75441068 0.6339196 1.868 169 176 172 255
0.75346315 0.62887502 1.853 168 175 171 255
0.75407302 0.62518895 1.8420001 169 176 172 255
0.75256407 0.61980665 1.8260001 171 178 174 255
0.75138456 0.61476469 1.8110001 167 174 170 255
0.75179553 0.61108142 1.8000001 172 179 175 255
0.75340992 0.60841775 1.7920001 174 181 177 255
0.75202048 0.60337842 1.7770001 169 176 172 255
0.74927318 0.59732115 1.7590001 174 179 175 255
0.74771529 0.59228319 1.7440001 176 181 178 255
0.7465089 0.58758569 1.7300001 177 182 178 255
0.74609655 0.58356827 1.7180001 174 181 177 255
0.74780601 0.58125037 1.7110001 174 181 177 255
0.7481603 0.57791442 1.7010001 175 182 178 255
0.74846244 0.5745796 1.6910001 177 184 180 255
0.74648517 0.56954658 1.6760001 178 185 181 255
0.74577242 0.56553382 1.664 179 184 180 255
0.74409437 0.56084222 1.6500001 181 186 182 255
0.74370307 0.55717099 1.6390001 180 185 181 255
0.74325395 0.55350077 1.628 183 186 183 255
0.7436657 0.55051148 1.6190001 187 190 187 255
0.74449295 0.5478633 1.6110001 185 190 187 255
0.74341959 0.54385591 1.5990001 185 190 187 255
0.74368596 0.54086971 1.59 184 189 186 255
0.74249429 0.53686398 1.5780001 185 190 187 255
0.74313253 0.53421998 1.5700001 187 191 191 255
0.74039686 0.52919501 1.5550001 182 186 186 255
0.74141264 0.52689338 1.5480001 187 192 189 255
0.74191135 0.52425259 1.5400001 186 191 188 255
0.74091554 0.5205915 1.529 187 192 189 255
0.74132419 0.51795274 1.521 186 190 190 255
0.7421822 0.51565582 1.5140001 187 191 191 255
0.74053997 0.51165682 1.5020001 188 192 192 255
0.7555086 0.67050451 1.9930001 163 170 166 255
0.7537263 0.66414577 1.9740001 163 170 166 255
0.75722587 0.66249824 1.9690001 165 173 166 255
0.75721437 0.65782356 1.955 165 173 166 255
0.75439769 0.65079451 1.9340001 165 173 166 255
0.75264627 0.64477557 1.9160001 167 174 170 255
0.75514948 0.64245939 1.909 165 172 168 255
0.75562501 0.63846165 1.8970001 168 175 171 255
0.75563586 0.63412821 1.8840001 168 175 171 255
0.75476992 0.62912267 1.8690001 168 175 171 255
0.75382388 0.62411791 1.8540001 167 174 170 255
0.75361639 0.61978728 1.8410001 169 176 172 255
0.75086731 0.61343759 1.8220001 171 178 174 255
0.7500903 0.60877192 1.8080001 170 177 173 255
0.75007409 0.60478073 1.7960001 172 179 175 255
0.75125557 0.60180068 1.7870001 172 179 175 255
0.74942797 0.59646416 1.771 172 179 175 255
0.74666286 0.59045482 1.7530001 176 181 177 255
0.74551588 0.58579338 1.7390001 175 180 176 255
0.74472582 0.5814696 1.7260001 177 182 178 255
0.74386686 0.57714677 1.7130001 174 180 173 255
0.74556094 0.57484645 1.7060001 174 181 177 255
0.74590003 0.57153636 1.6960001 175 182 178 255
0.74662936 0.56856436 1.687 172 179 175 255
0.74463981 0.5635711 1.6720001 177 184 181 255
0.74301833 0.55891562 1.6580001 182 187 184 255
0.74177325 0.55459785 1.6450001 178 183 180 255
0.74227405 0.55162966 1.636 182 187 183 255
0.74272817 0.54866254 1.6270001 182 187 184 255
0.74313569 0.5456965 1.618 182 187 184 255
0.74349666 0.54273152 1.6090001 184 189 185 255
0.74241626 0.53875548 1.5970001 185 190 187 255
0.74127257 0.53478032 1.585 184 189 186 255
0.74147695 0.53181821 1.5760001 185 190 187 255
0.74163473 0.52885717 1.567 185 190 187 255
0.74079382 0.52522206 1.5560001 184 189 186 255
0.74228972 0.52327579 1.5500001 184 189 186 255
0.74327421 0.52099317 1.5430001 185 190 187 255
0.74276996 0.51769871 1.5330001 185 190 187 255
0.74075162 0.51339191 1.5200001 187 192 189 255
0.74160516 0.51111251 1.5130001 187 192 189 255
0.74045169 0.50748289 1.5020001 188 193 190 255
0.75025666 0.65573049 1.9650002 165 173 166 255
0.75334561 0.65376151 1.9590001 165 173 166 255
0.75330532 0.64912373 1.9450001 164 172 165 255
0.75163025 0.643152 1.927 167 175 168 255
0.74907285 0.63651341 1.9070001 167 173 166 255
0.75154996 0.63421494 1.9000001 167 173 166 255
0.75359267 0.63158381 1.8920001 169 175 168 255
0.75479174 0.62828618 1.8820001 169 175 168 255
0.75432283 0.62365413 1.868 167 175 168 255
0.75052685 0.61635196 1.8460001 168 175 171 255
0.74947745 0.61138773 1.8310001 168 175 171 255
0.74628752 0.60475463 1.8110001 172 179 175 255
0.74796814 0.60212958 1.8030001 172 179 175 255
0.74793679 0.59816974 1.7910001 172 179 175 255
0.75036407 0.59621489 1.7850001 173 180 176 255
0.749376 0.59158897 1.771 173 180 176 255
0.74873936 0.58729815 1.7580001 176 181 177 255
0.746319 0.5816716 1.7410001 176 181 177 255
0.74553329 0.57738233 1.728 176 181 177 255
0.745547 0.57376212 1.7170001 175 180 176 255
0.74725068 0.57147974 1.71 175 182 178 255
0.74759948 0.56819588 1.7 172 179 175 255
0.74745345 0.56457883 1.6890001 171 178 175 255
0.74368691 0.55828822 1.6700001 179 186 183 255
0.74161059 0.55333537 1.6550001 181 186 183 255
0.74125761 0.54972059 1.6440001 182 187 184 255
0.74220783 0.54711008 1.636 182 187 183 255
0.74403 0.54516965 1.6300001 182 187 184 255
0.74444437 0.54222697 1.6210001 181 186 182 255
0.74481219 0.53928542 1.6120001 183 188 184 255
0.74234438 0.53433728 1.5970001 184 189 186 255
0.74026406 0.52972442 1.5830001 183 188 185 255
0.74093181 0.52712017 1.575 184 189 186 255
0.74250513 0.52518654 1.5690001 185 190 187 255
0.74214447 0.52191514 1.559 184 189 186 255
0.74316823 0.51964909 1.552 185 190 187 255
0.74415684 0.51738435 1.5450001 187 192 188 255
0.74414116 0.51445091 1.536 186 191 187 255
0.74213004 0.51017863 1.5230001 186 191 188 255
0.74152017 0.50691193 1.5130001 186 191 188 255
0.741844 0.50431645 1.5050001 188 192 192 255
0.75480616 0.65431643 1.9770001 165 173 166 255
0.75062054 0.64607424 1.9520001 164 172 165 255
0.75133449 0.64213544 1.9400001 167 175 168 255
0.75120467 0.63753569 1.9260001 167 175 168 255
0.74864346 0.63095069 1.9060001 167 175 168 255
0.74913871 0.6270147 1.8940001 167 175 168 255
0.75076538 0.62407303 1.8850001 166 174 167 255
0.75274593 0.6214636 1.8770001 167 175 168 255
0.75266582 0.6171996 1.8640001 169 177 170 255
0.7492643 0.61028755 1.8430001 169 177 170 255
0.74656832 0.60403848 1.8240001 172 179 175 255
0.74418205 0.59812105 1.8060001 173 180 176 255
0.7466771 0.59617889 1.8000001 172 179 175 255
0.74663627 0.59225059 1.7880001 174 181 177 255
0.74821317 0.58964831 1.7800001 173 180 176 255
0.74678695 0.58472806 1.7650001 175 182 178 255
0.74741 0.58146518 1.7550001 174 179 175 255
0.74498022 0.57588398 1.738 174 181 177 255
0.74504775 0.57229167 1.7270001 176 183 179 255
0.74592572 0.56936318 1.7180001 178 183 180 255
0.74806774 0.56743002 1.7120001 176 183 180 255
0.74754125 0.56350935 1.7 179 184 181 255
0.74473882 0.55793202 1.6830001 180 185 182 255
0.74318099 0.55334985 1.669 183 188 185 255
0.74244481 0.54943156 1.6570001 182 187 184 255
0.74299788 0.54650903 1.6480001 180 185 182 255
0.74305052 0.54325587 1.6380001 181 186 183 255
0.74350739 0.54033536 1.6290001 182 187 184 255
0.74345839 0.53708422 1.6190001 184 189 186 255
0.74335718 0.5338341 1.6090001 183 188 184 255
0.74227417 0.52992123 1.5970001 184 189 185 255
0.74206299 0.5266729 1.5870001 185 190 186 255
0.74368125 0.52475321 1.5810001 183 188 184 255
0.74432331 0.52217084 1.5730001 186 191 187 255
0.74302047 0.51826167 1.5610001 184 189 185 255
0.74356955 0.51568139 1.5530001 186 191 187 255
0.74359608 0.51277018 1.544 185 190 186 255
0.7430917 0.5095278 1.534 186 191 187 255
0.7405864 0.5049575 1.5200001 185 190 186 255
0.74094677 0.50238132 1.5120001 186 191 188 255
0.74175912 0.50013852 1.5050001 188 193 190 255
0.75172102 0.64627373 1.9690001 165 173 166 255
0.74905062 0.63941157 1.9480001 164 172 165 255
0.74820316 0.63419127 1.932 169 175 168 255
0.74922025 0.63061333 1.9210001 167 173 166 255
0.74742985 0.6247384 1.9030001 169 177 170 255
0.74633354 0.61952066 1.8870001 168 176 169 255
0.74754143 0.61627394 1.8770001 169 177 170 255
0.74989957 0.61401325 1.8700001 168 176 169 255
0.7506066 0.61044031 1.8590001 171 179 172 255
0.74840987 0.60456961 1.8410001 174 180 173 255
0.74734432 0.59968489 1.8260001 171 177 170 255
0.74455053 0.59348726 1.807 172 180 173 255
0.74538767 0.59024638 1.7970001 173 181 174 255
0.74491966 0.58602107 1.784 174 182 175 255
0.74606395 0.58311075 1.7750001 173 181 174 255
0.74462265 0.57823026 1.7600001 174 182 175 255
0.74480474 0.57466483 1.7490001 175 180 176 255
0.7419287 0.56880021 1.7310001 177 182 178 255
0.74283826 0.56589383 1.7220001 177 184 180 255
0.74500346 0.56397444 1.7160001 177 182 179 255
0.7475754 0.56238496 1.7110001 177 184 181 255
0.74572569 0.55750972 1.6960001 180 185 182 255
0.7442385 0.55296391 1.682 181 186 183 255
0.74401248 0.54940522 1.6710001 181 186 183 255
0.74552071 0.54716265 1.664 182 187 184 255
0.74473935 0.54327708 1.6520001 181 186 183 255
0.7448017 0.54005015 1.6420001 182 187 183 255
0.74481195 0.53682423 1.6320001 184 189 185 255
0.74339241 0.53261238 1.6190001 183 188 184 255
0.74328983 0.52938825 1.6090001 183 188 184 255
0.74313509 0.52616513 1.5990001 182 187 183 255
0.7443307 0.52393031 1.5920001 184 189 185 255
0.74596131 0.5220257 1.5860001 183 188 184 255
0.74661583 0.51946419 1.5780001 184 189 185 255
0.74532574 0.51558679 1.5660001 185 190 186 255
0.74397236 0.51171017 1.554 187 192 188 255
0.7425555 0.50783426 1.5420001 184 189 185 255
0.74059111 0.50362968 1.529 185 190 186 255
0.73855764 0.49942568 1.516 185 190 186 255
0.73792523 0.49621078 1.506 187 192 189 255
0.73921192 0.49431494 1.5000001 187 192 189 255
0.75054628 0.63990372 1.9660001 164 172 165 255
0.74863547 0.63374877 1.9470001 166 174 167 255
0.74855876 0.62922215 1.9330001 170 176 169 255
0.74762732 0.62404537 1.9170001 167 175 168 255
0.74386108 0.61659068 1.8940001 167 175 168 255
0.74273902 0.61141557 1.8780001 166 174 167 255
0.74352258 0.60786915 1.8670001 167 175 168 255
0.74705487 0.60660297 1.863 170 178 171 255
0.7477414 0.60305882 1.8520001 169 177 170 255
0.74836987 0.59951562 1.8410001 172 178 171 255
0.74771231 0.59499639 1.8270001 172 178 171 255
0.74533218 0.58917528 1.8090001 172 180 173 255
0.74368495 0.58400631 1.7930001 173 181 174 255
0.74236959 0.57916379 1.7780001 173 181 174 255
0.74223506 0.57529938 1.766 174 182 175 255
0.742037 0.57143593 1.7540001 175 183 176 255
0.74220121 0.56789917 1.743 177 182 178 255
0.74102181 0.56338596 1.7290001 174 181 177 255
0.74235582 0.56082869 1.7210001 168 175 172 255
0.74451679 0.55892438 1.715 177 184 181 255
0.74533695 0.55604351 1.7060001 178 185 182 255
0.74303252 0.55088198 1.6900001 180 187 184 255
0.74196988 0.54669905 1.677 179 186 183 255
0.74439991 0.54512525 1.6720001 179 186 182 255
0.74635756 0.54322666 1.6660001 182 189 185 255
0.74512976 0.5390467 1.6530001 180 185 181 255
0.74473995 0.53551978 1.6420001 183 188 184 255
0.74337983 0.53134131 1.6290001 185 190 186 255
0.7414915 0.52683753 1.6150001 183 188 184 255
0.74137634 0.52363932 1.605 185 190 186 255
0.7421385 0.52109468 1.5970001 183 188 184 255
0.745197 0.52018291 1.5940001 184 189 185 255
0.74542075 0.51731437 1.585 183 188 184 255
0.74559802 0.51444685 1.5760001 183 188 184 255
0.74334913 0.50994802 1.562 185 190 186 255
0.7429406 0.50675583 1.552 185 190 186 255
0.74103534 0.50258482 1.539 187 192 188 255
0.74051416 0.49939433 1.529 186 191 187 255
0.73896664 0.49555141 1.5170001 185 190 186 255
0.73735577 0.49170914 1.5050001 187 192 189 255
0.74784583 0.63226074 1.9590001 166 173 169 255
0.74899065 0.62873852 1.9480001 167 174 170 255
0.74620491 0.62198961 1.927 165 172 168 255
0.7444759 0.61620981 1.909 169 176 172 255
0.74029398 0.60849392 1.8850001 165 173 166 255
0.7407279 0.60465258 1.8730001 169 177 170 255
0.742293 0.60178071 1.8640001 169 175 168 255
0.74608898 0.59668595 1.848 171 177 170 255
0.74589217 0.59252572 1.835 174 180 173 255
0.7460354 0.58868939 1.8230001 174 180 173 255
0.74323124 0.58259338 1.8040001 173 181 174 255
0.74322808 0.57875878 1.7920001 174 182 175 255
0.74232632 0.57427919 1.7780001 175 183 176 255
0.74387163 0.57173842 1.7700001 174 182 175 255
0.74144357 0.55544764 1.7190001 175 182 179 255
0.74316353 0.55323529 1.7120001 176 183 180 255
0.74397397 0.55037773 1.7030001 178 185 182 255
0.74166018 0.54525876 1.687 179 186 183 255
0.74279994 0.54272634 1.6790001 178 185 181 255
0.74478894 0.54084164 1.6730001 180 187 183 255
0.74674779 0.53895819 1.6670001 179 186 182 255
0.74507076 0.53448921 1.6530001 180 186 179 255
0.74377263 0.53034437 1.6400001 182 188 181 255
0.74331826 0.52684712 1.6290001 182 187 183 255
0.74188787 0.52270389 1.6160001 183 188 184 255
0.74269789 0.52017879 1.608 183 188 184 255
0.74300224 0.51733136 1.5990001 183 188 184 255
0.74466234 0.51545566 1.5930001 182 187 183 255
0.74488193 0.51261044 1.5840001 185 190 186 255
0.74552798 0.51008981 1.5760001 185 190 186 255
0.74422961 0.50627559 1.5640001 184 189 185 255
0.74191064 0.50181448 1.5500001 184 189 185 255
0.74096149 0.49832541 1.539 184 189 185 255
0.74043894 0.49516097 1.529 185 190 186 255
0.73986417 0.49199745 1.5190001 183 188 185 255
0.7377677 0.48786291 1.506 185 190 187 255
0.74627119 0.62116396 1.9410001 167 174 170 255
0.74462688 0.61543143 1.9230001 167 174 170 255
0.74327576 0.61001974 1.9060001 168 175 171 255
0.74026275 0.60332853 1.8850001 165 172 168 255
0.74030006 0.59919882 1.8720001 167 173 166 255
0.74225926 0.59667039 1.8640001 171 177 170 255
0.74443787 0.59033644 1.8440001 174 180 173 255
0.74382252 0.58589041 1.83 174 180 173 255
0.74558765 0.58336639 1.8220001 174 180 173 255
0.74277955 0.57732117 1.8030001 176 182 175 255
0.74318725 0.57383847 1.7920001 174 179 175 255
0.74311924 0.57003647 1.7800001 176 181 177 255
0.74508905 0.56783682 1.7730001 176 181 177 255
0.74448484 0.56371647 1.7600001 179 184 180 255
0.74225795 0.55136079 1.7210001 177 184 181 255
0.74354798 0.54884595 1.7130001 179 186 183 255
0.74348617 0.54537088 1.702 178 185 182 255
0.74339855 0.535272 1.6700001 179 185 178 255
0.74400389 0.53244197 1.6610001 180 186 179 255
0.74321038 0.52865112 1.649 180 186 179 255
0.7414465 0.52421993 1.6350001 181 187 180 255
0.74143308 0.52107197 1.6250001 182 187 183 255
0.74136752 0.51792508 1.6150001 182 187 183 255
0.74309701 0.51606208 1.6090001 183 188 184 255
0.7438674 0.51355875 1.6010001 182 187 183 255
0.74366188 0.51041496 1.5910001 182 187 183 255
0.74340421 0.50727206 1.5810001 184 189 185 255
0.7426213 0.50380921 1.5700001 184 189 185 255
0.74035341 0.49938446 1.5560001 184 189 185 255
0.73992527 0.49624416 1.5460001 184 189 185 255
0.7399264 0.49342582 1.5370001 184 189 186 255
0.7413336 0.49157161 1.531 182 187 184 255
0.74027616 0.48811316 1.5200001 185 190 187 255
0.73867106 0.48433426 1.508 188 193 190 255
0.73897338 0.48184106 1.5000001 187 192 189 255
0.74624437 0.61585027 1.9410001 167 174 170 255
0.74343735 0.60921389 1.9200001 169 176 172 255
0.74402672 0.60543412 1.9080001 167 174 170 255
0.74062532 0.59848195 1.886 168 176 169 255
0.73987347 0.59375197 1.8710001 170 176 169 255
0.7410323 0.59060955 1.8610001 171 177 170 255
0.74157721 0.5830583 1.8370001 172 180 173 255
0.73972207 0.57769698 1.8200001 175 180 176 255
0.74473196 0.57773298 1.8200001 174 179 175 255
0.74274129 0.57237351 1.8030001 174 179 175 255
0.74480653 0.57018965 1.7960001 175 180 176 255
0.74291563 0.55416161 1.7450001 177 182 178 255
0.74306577 0.54381746 1.7120001 178 185 182 255
0.74305338 0.52723169 1.659 181 187 180 255
0.74180239 0.52315468 1.646 180 185 181 255
0.74002898 0.5187605 1.6320001 182 187 183 255
0.7409184 0.51627439 1.6240001 181 186 182 255
0.74268478 0.51442534 1.618 183 188 184 255
0.74442118 0.51257759 1.6120001 180 185 181 255
0.74334008 0.50882286 1.6 183 188 184 255
0.74266309 0.50538713 1.5890001 179 186 182 255
0.74239844 0.50227022 1.5790001 181 188 184 255
0.7420817 0.49915436 1.5690001 182 189 185 255
0.74028552 0.49508485 1.5560001 186 191 187 255
0.739856 0.49197069 1.5460001 183 188 184 255
0.73889297 0.48853913 1.5350001 182 187 183 255
0.74029309 0.48669997 1.529 184 189 186 255
0.7387417 0.48295188 1.5170001 186 191 188 255
0.73908609 0.48047817 1.5090001 186 191 188 255
0.73889703 0.47768697 1.5000001 186 191 188 255
0.74393874 0.56463188 1.794 177 183 176 255
0.7454263 0.5584147 1.774 178 184 177 255
0.74457532 0.55062753 1.7490001 179 184 180 255
0.74088007 0.51489478 1.6340001 182 187 183 255
0.74223 0.51274455 1.6270001 182 187 183 255
0.74400324 0.51091069 1.6210001 184 189 185 255
0.74389946 0.50781727 1.6110001 182 187 183 255
0.74374348 0.50472474 1.6010001 184 189 185 255
0.74306786 0.5013178 1.59 183 190 186 255
0.74280483 0.49822721 1.58 182 189 185 255
0.74107063 0.49419132 1.567 184 191 187 255
0.73974335 0.4904716 1.5550001 184 189 185 255
0.7402668 0.48801437 1.5470001 183 188 184 255
0.73930526 0.48461175 1.536 184 189 185 255
0.73973846 0.4821566 1.5280001 186 191 188 255
0.73866993 0.47875574 1.5170001 186 191 188 255
0.7399922 0.47693381 1.511 186 191 188 255
0.74079251 0.47479752 1.5040001 187 192 189 255
0.74337929 0.50306422 1.6100001 182 187 183 255
0.7427547 0.49968523 1.5990001 182 189 185 255
0.74347413 0.49724481 1.5910001 183 188 184 255
0.7427423 0.49386773 1.58 183 188 184 255
0.74195284 0.49049154 1.5690001 185 190 186 255
0.74015421 0.48649091 1.5560001 184 189 185 255
0.74020046 0.48374161 1.5470001 185 190 186 255
0.73827517 0.47974244 1.534 184 189 185 255
0.73870128 0.47730777 1.526 185 190 186 255
0.73811275 0.47424853 1.516 183 190 187 255
0.74089986 0.47338033 1.5130001 183 190 187 255
0.74170417 0.47126186 1.506 186 191 188 255
0.74346405 0.46977061 1.501 187 192 188 255
0.7420547 0.50074011 1.6170001 184 189 185 255
0.7414754 0.49738914 1.6060001 183 188 184 255
0.74269634 0.49527797 1.5990001 183 188 184 255
0.7429471 0.49254838 1.59 183 188 184 255
0.74268132 0.48951 1.58 183 188 184 255
0.74141777 0.48585287 1.5680001 184 189 185 255
0.74009073 0.48219648 1.5560001 183 188 184 255
0.73965728 0.4791607 1.5460001 182 187 183 255
0.73917156 0.47612581 1.536 184 189 185 255
0.73960197 0.47371191 1.5280001 184 189 185 255
0.74145186 0.47222921 1.5230001 183 188 184 255
0.74376726 0.47105792 1.5190001 185 190 187 255
0.74458706 0.46895763 1.5120001 185 190 186 255
0.74388582 0.4659279 1.5020001 185 190 186 255
0.73933887 0.57690918 1.8830001 168 176 169 255
0.74372816 0.49450028 1.6110001 183 189 182 255
0.74263942 0.49087226 1.5990001 181 188 184 255
0.74195445 0.48755205 1.5880001 183 188 184 255
0.74215186 0.48484683 1.5790001 183 188 184 255
0.74230254 0.48214263 1.5700001 184 189 185 255
0.7414555 0.47882512 1.559 182 187 183 255
0.74055076 0.47550848 1.5480001 183 188 184 255
0.74006933 0.47249982 1.5380001 183 188 184 255
0.74050385 0.47010657 1.5300001 184 189 185 255
0.74187112 0.46832904 1.524 182 189 185 255
0.74320859 0.46655273 1.5180001 184 191 187 255
0.74353164 0.4641628 1.5100001 183 190 186 255
0.74470055 0.49366155 1.623 181 187 180 255
0.74258387 0.48646811 1.5990001 181 188 184 255
0.74096334 0.48256832 1.5860001 182 189 185 255
0.74256366 0.48079935 1.58 182 189 185 255
0.7427159 0.47811866 1.5710001 183 188 184 255
0.7432971 0.4757432 1.5630001 182 187 183 255
0.74144548 0.47184676 1.5500001 183 188 184 255
0.74193072 0.46947333 1.5420001 183 188 184 255
0.74140716 0.46649194 1.5320001 184 189 185 255
0.74229169 0.464425 1.5250001 183 190 186 255
0.74265134 0.46205467 1.5170001 183 190 186 255
0.7419855 0.45907617 1.5070001 184 191 187 255
0.74345839 0.48266843 1.6010001 181 188 184 255
0.74137509 0.47850171 1.5870001 180 187 183 255
0.74250686 0.47644642 1.58 181 188 184 255
0.74265778 0.47378913 1.5710001 181 188 184 255
0.74323756 0.47143438 1.5630001 180 187 183 255
0.74234146 0.46817574 1.552 182 189 185 255
0.74186867 0.46521962 1.5420001 179 186 182 255
0.740376 0.46166092 1.5300001 182 190 183 255
0.73881996 0.45810291 1.5180001 183 191 184 255
0.73964816 0.45605472 1.511 181 189 182 255
0.74044108 0.45400769 1.5040001 182 189 185 255
0.74310756 0.48089856 1.6100001 179 186 182 255
0.74201244 0.47736567 1.598 178 185 181 255
0.74085385 0.47383353 1.5860001 180 187 183 255
0.74198157 0.47179613 1.5790001 179 186 182 255
0.7430737 0.46975994 1.572 182 189 185 255
0.74413043 0.4677248 1.5650001 181 188 184 255
0.74228215 0.46389735 1.552 182 189 185 255
0.74084586 0.46036956 1.5400001 180 187 183 255
0.73983026 0.45714149 1.529 180 188 181 255
0.73924357 0.45421314 1.5190001 183 191 184 255
0.74007326 0.45218295 1.5120001 182 190 183 255
0.74086756 0.45015389 1.5050001 184 191 187 255
0.74259573 0.47617403 1.6090001 178 185 181 255
0.74149656 0.47267279 1.5970001 183 188 184 255
0.74033397 0.46917236 1.585 178 185 181 255
0.74098766 0.46685687 1.577 181 188 184 255
0.74301821 0.46543065 1.572 182 190 183 255
0.74407357 0.46341348 1.5650001 181 189 182 255
0.74270236 0.45991671 1.5530001 181 188 184 255
0.74078673 0.45612448 1.5400001 182 189 185 255
0.74025375 0.45322159 1.5300001 182 189 185 255
0.73966855 0.45031953 1.5200001 182 189 185 255
0.7414785 0.44889989 1.5150001 182 189 185 255
0.74178749 0.44659248 1.5070001 184 191 187 255
0.74174875 0.47404712 1.6170001 177 184 180 255
0.74116206 0.47086987 1.6060001 180 187 183 255
0.74051774 0.46769354 1.595 178 185 181 255
0.73981553 0.46451807 1.5840001 179 186 182 255
0.74093491 0.46251658 1.577 180 188 181 255
0.74201888 0.46051621 1.5700001 181 189 182 255
0.74401808 0.45910364 1.5650001 181 189 182 255
0.74216747 0.45534518 1.552 182 189 185 255
0.74072891 0.45188084 1.5400001 181 188 184 255
0.73777574 0.44753683 1.5250001 181 188 184 255
0.73863512 0.44554138 1.5180001 176 181 177 255
0.73994845 0.44384047 1.5120001 184 189 185 255
0.74221653 0.44272795 1.508 183 190 186 255
0.7421608 0.46989354 1.618 178 185 181 255
0.7418232 0.4587588 1.5790001 180 187 183 255
0.74149352 0.45590478 1.5690001 182 188 181 255
0.74158698 0.4533422 1.5600001 182 190 183 255
0.74259031 0.45136189 1.5530001 183 188 184 255
0.74115342 0.44792935 1.5410001 180 187 183 255
0.73965311 0.44449747 1.529 181 188 184 255
0.73954928 0.44193861 1.5200001 180 185 181 255
0.74086678 0.44025305 1.5140001 184 189 185 255
0.74166262 0.43827781 1.5070001 182 189 185 255
0.74242306 0.43630368 1.5000001 184 189 185 255
0.74082017 0.46741772 1.6250001 177 185 178 255
0.74073946 0.46458524 1.6150001 176 183 179 255
0.74152929 0.46232915 1.6070001 179 186 182 255
0.74318212 0.45527911 1.582 180 187 183 255
0.74191451 0.45187581 1.5700001 181 188 184 255
0.74058354 0.44847327 1.5580001 180 187 183 255
0.74158001 0.44651094 1.5510001 182 187 183 255
0.74109811 0.44368586 1.5410001 180 187 183 255
0.74056423 0.4408617 1.531 180 187 183 255
0.74046457 0.43832639 1.5220001 182 189 185 255
0.73982912 0.43550396 1.5120001 182 189 185 255
0.74110997 0.43383467 1.506 183 190 186 255
0.73940969 0.46210083 1.6220001 179 186 182 255
0.7393195 0.45929465 1.6120001 177 185 178 255
0.74148387 0.45791408 1.6070001 176 182 175 255
0.74176711 0.45539477 1.598 181 187 180 255
0.74387145 0.45401651 1.5930001 179 187 180 255
0.74313301 0.45092922 1.582 179 186 182 255
0.74375439 0.44869795 1.5740001 182 189 185 255
0.74195814 0.44504222 1.5610001 179 186 182 255
0.74343956 0.44338304 1.5550001 175 182 178 255
0.74200588 0.44001406 1.5430001 178 185 181 255
0.74292731 0.43807182 1.536 180 187 183 255
0.74186754 0.43498969 1.5250001 180 187 183 255
0.74026078 0.43162316 1.5130001 182 189 185 255
0.73908269 0.42854249 1.5020001 183 190 186 255
0.7405169 0.4529359 1.605 170 176 169 255
0.74125755 0.45072234 1.5970001 178 184 177 255
0.74242389 0.44879204 1.59 177 185 178 255
0.74120629 0.44545144 1.5780001 181 189 182 255
0.74181521 0.44324082 1.5700001 179 186 182 255
0.7409572 0.44018418 1.559 177 184 180 255
0.74243188 0.43854031 1.5530001 176 183 179 255
0.74195319 0.43576786 1.5430001 179 186 182 255
0.74190593 0.43327865 1.534 180 187 183 255
0.74083942 0.43022555 1.5230001 181 188 184 255
0.73873657 0.42660812 1.5100001 180 187 183 255
0.73853308 0.42412159 1.501 183 190 187 255
0.74139661 0.44908771 1.6070001 175 183 176 255
0.74074918 0.44605657 1.5960001 179 185 178 255
0.74051082 0.44330579 1.5860001 181 187 180 255
0.74022025 0.44055596 1.5760001 178 186 179 255
0.74129492 0.43864572 1.5690001 178 186 179 255
0.74138343 0.43617725 1.5600001 180 187 183 255
0.74285948 0.43454865 1.554 179 186 182 255
0.74142081 0.43124321 1.5420001 178 185 181 255
0.74088603 0.42849788 1.5320001 180 187 183 255
0.73981261 0.42547363 1.521 180 187 183 255
0.73965997 0.42300975 1.5120001 180 187 184 255
0.73896873 0.42026702 1.5020001 182 189 186 255
0.7408933 0.4443996 1.6060001 176 184 177 255
0.74117029 0.44195104 1.5970001 180 185 181 255
0.74046665 0.43894985 1.5860001 178 186 179 255
0.7411142 0.43677986 1.5780001 178 186 179 255
0.73983091 0.4335036 1.5660001 180 188 181 255
0.74086034 0.43161237 1.559 178 186 179 255
0.74089837 0.4291684 1.5500001 179 187 180 255
0.7404089 0.42644846 1.5400001 178 185 181 255
0.73986739 0.42372939 1.5300001 179 186 182 255
0.74024642 0.42156509 1.5220001 179 186 182 255
0.74107361 0.41967884 1.5150001 181 188 184 255
0.73940563 0.4164083 1.503 182 189 186 255
0.74098873 0.44269207 1.6160001 179 186 182 255
0.73992997 0.43944424 1.6040001 178 185 181 255
0.74066418 0.43729317 1.5960001 177 184 180 255
0.74089044 0.43486914 1.5870001 178 185 181 255
0.7420091 0.43299407 1.58 176 184 177 255
0.74025792 0.42947558 1.567 179 187 180 255
0.73986334 0.42678016 1.557 179 187 180 255
0.74132848 0.4251821 1.5510001 179 186 182 255
0.74084073 0.42248854 1.5410001 181 188 184 255
0.7398172 0.41952154 1.5300001 179 186 182 255
0.74019498 0.4173781 1.5220001 180 187 183 255
0.74150997 0.41578412 1.516 179 186 182 255
0.73935175 0.41227108 1.503 180 187 183 255
0.73911613 0.43717453 1.6120001 175 182 178 255
0.73896778 0.4345009 1.6020001 178 185 181 255
0.74062335 0.43291312 1.5960001 178 185 181 255
0.7408483 0.43051267 1.5870001 175 182 178 255
0.74055701 0.42784181 1.577 178 186 179 255
0.73879653 0.42435792 1.5640001 179 187 180 255
0.73791724 0.4214173 1.5530001 177 185 178 255
0.73936999 0.41983452 1.5470001 177 184 180 255
0.73983133 0.41770998 1.539 179 186 182 255
0.73976815 0.41531488 1.5300001 182 189 185 255
0.7391721 0.4126493 1.5200001 179 187 180 255
0.73999119 0.41079909 1.5130001 180 188 181 255
0.7383154 0.40759209 1.501 180 188 181 255
0.73846799 0.42983812 1.6010001 176 183 179 255
0.74011952 0.42826572 1.595 176 183 179 255
0.74127424 0.42642596 1.5880001 177 185 178 255
0.74051499 0.42351288 1.577 178 186 179 255
0.73969811 0.42060071 1.5660001 180 187 183 255
0.73882329 0.41768932 1.5550001 177 184 180 255
0.73932451 0.41558462 1.5470001 178 185 181 255
0.73978466 0.41348094 1.539 178 185 181 255
0.73972028 0.41110948 1.5300001 181 188 184 255
0.73863679 0.40820146 1.5190001 180 188 181 255
0.73847377 0.40583175 1.5100001 180 188 181 255
0.73875594 0.4037317 1.5020001 179 187 180 255
0.7405448 0.4241564 1.5960001 176 184 177 255
0.7412343 0.42206901 1.5880001 179 187 180 255
0.74141324 0.41971678 1.5790001 177 185 178 255
0.74060065 0.41683373 1.5680001 178 185 181 255
0.73925519 0.41368565 1.5560001 178 185 181 255
0.73784649 0.41053826 1.544 176 183 179 255
0.73781639 0.40818939 1.5350001 179 186 182 255
0.73870671 0.40637335 1.5280001 178 185 181 255
0.73956144 0.40455827 1.521 180 188 181 255
0.73842472 0.4016802 1.5100001 180 187 183 255
0.73968935 0.4001331 1.5040001 180 187 183 255
0.74004322 0.41951659 1.595 177 185 178 255
0.7411955 0.41771314 1.5880001 177 185 178 255
0.74184269 0.41564757 1.58 179 187 180 255
0.74055958 0.41253057 1.5680001 177 184 180 255
0.73921317 0.40941441 1.5560001 178 185 181 255
0.73780328 0.40629888 1.544 175 182 178 255
0.73873341 0.40450001 1.5370001 177 184 180 255
0.73962796 0.40270215 1.5300001 177 185 178 255
0.74097329 0.40116847 1.524 178 186 179 255
0.73935485 0.39805633 1.5120001 179 187 180 255
0.74013203 0.39626133 1.5050001 180 187 183 255
0.74139845 0.41592446 1.598 176 184 177 255
0.74162447 0.41361862 1.5890001 176 184 177 255
0.74180371 0.41131368 1.58 178 186 179 255
0.74099189 0.40848899 1.5690001 178 186 179 255
0.73917204 0.40514427 1.5560001 176 183 179 255
0.73823905 0.40232104 1.5450001 177 184 180 255
0.73820937 0.40001944 1.536 179 186 182 255
0.73910004 0.3982397 1.529 176 184 177 255
0.73995519 0.39646089 1.5220001 177 185 178 255
0.739308 0.39390159 1.5120001 178 186 179 255
0.74008399 0.39212471 1.5050001 180 187 183 255
0.73997092 0.41077158 1.595 176 184 177 255
0.74065423 0.40874687 1.5870001 177 185 178 255
0.7417658 0.40698072 1.58 176 184 177 255
0.74236959 0.40495795 1.572 175 183 176 255
0.74055707 0.40164798 1.559 177 185 178 255
0.73915356 0.39859635 1.5470001 177 185 178 255
0.73864776 0.39606082 1.5370001 178 186 179 255
0.74002337 0.39455694 1.531 178 186 179 255
0.74039674 0.39253864 1.5230001 179 187 180 255
0.73975128 0.39000574 1.5130001 180 188 181 255
0.7395454 0.38773137 1.5040001 181 188 184 255
0.74493223 0.41649306 1.6350001 175 183 176 255
0.74219835 0.40290365 1.5810001 178 186 179 255
0.74374825 0.40141156 1.575 177 185 178 255
0.741943 0.39813626 1.562 177 185 178 255
0.74006897 0.39486167 1.549 176 184 177 255
0.73908722 0.39209771 1.5380001 177 184 180 255
0.74046433 0.39060929 1.5320001 179 186 182 255
0.7408393 0.38861182 1.524 179 186 182 255
0.74068439 0.38636041 1.5150001 180 187 183 255
0.73999131 0.38385472 1.5050001 180 187 183 255
0.73943871 0.40177828 1.5940001 176 183 179 255
0.7410503 0.4002997 1.5880001 175 183 176 255
0.74263173 0.39882201 1.582 178 186 179 255
0.74371111 0.39709336 1.575 175 182 178 255
0.74237978 0.39410484 1.5630001 177 184 180 255
0.74002981 0.39061275 1.549 179 186 182 255
0.740008 0.38838229 1.5400001 178 185 181 255
0.74187285 0.38716161 1.5350001 179 186 182 255
0.74274123 0.38543752 1.5280001 179 186 182 255
0.74259621 0.38320976 1.5190001 180 187 183 255
0.74092984 0.38022599 1.5070001 181 188 185 255
0.74304926 0.40654305 1.631 176 183 179 255
0.74079758 0.39815971 1.5970001 175 182 178 255
0.74241632 0.39669663 1.5910001 175 182 178 255
0.74212742 0.39423716 1.5810001 177 184 180 255
0.74320281 0.39252666 1.5740001 177 184 180 255
0.74139279 0.38932067 1.5610001 176 183 180 255
0.74094725 0.38686371 1.5510001 177 184 180 255
0.74141026 0.38490638 1.5430001 177 184 180 255
0.74328232 0.38369846 1.5380001 180 187 183 255
0.74318564 0.3814936 1.529 179 186 182 255
0.74206477 0.37879053 1.5180001 180 187 183 255
0.73990291 0.37558907 1.5050001 181 188 185 255
0.74142319 0.39646718 1.608 175 182 178 255
0.74030179 0.39353928 1.5960001 176 183 179 255
0.74145007 0.39184511 1.5890001 175 182 178 255
0.741624 0.38965866 1.58 176 183 179 255
0.74222326 0.38771972 1.572 175 182 179 255
0.74088168 0.38479504 1.5600001 177 184 181 255
0.74043226 0.38236448 1.5500001 176 183 179 255
0.7404111 0.38018146 1.5410001 178 185 181 255
0.74227625 0.37898615 1.536 178 185 181 255
0.74168694 0.37655815 1.526 177 184 180 255
0.74153429 0.37437776 1.5170001 179 186 182 255
0.73936862 0.3712109 1.5040001 182 189 185 255
0.74208134 0.39712775 1.6290001 176 183 179 255
0.74245238 0.39496168 1.6200001 175 182 178 255
0.74139327 0.39206493 1.608 176 183 179 255
0.74119848 0.38965669 1.598 175 182 178 255
0.74048495 0.38700545 1.5870001 175 182 178 255
0.74018276 0.38459873 1.577 176 183 179 255
0.74030054 0.38243684 1.5680001 176 183 179 255
0.73989677 0.38003191 1.5580001 176 183 180 255
0.74087375 0.37835959 1.5510001 175 182 178 255
0.74181509 0.37668818 1.544 177 184 180 255
0.74272102 0.37501776 1.5370001 179 186 182 255
0.74116147 0.37212822 1.5250001 177 185 178 255
0.74002731 0.36948335 1.5140001 179 186 182 255
0.73883551 0.36683923 1.503 180 187 183 255
0.74114329 0.39218852 1.6270001 174 181 177 255
0.74196595 0.39028722 1.6190001 174 181 177 255
0.74136412 0.38766351 1.608 177 184 180 255
0.74116844 0.38528177 1.598 177 185 178 255
0.73952055 0.38217744 1.585 174 182 175 255
0.74015057 0.38027957 1.577 176 183 179 255
0.73979521 0.37790024 1.567 177 184 180 255
0.7408123 0.37624532 1.5600001 176 183 179 255
0.74131608 0.37435007 1.552 177 184 180 255
0.74081784 0.37197328 1.5420001 179 187 180 255
0.74075073 0.36983857 1.5330001 178 186 179 255
0.73966503 0.36722207 1.5220001 178 186 179 255
0.73949909 0.365089 1.5130001 180 188 181 255
0.73879498 0.36271533 1.503 182 190 183 255
0.74020594 0.38726091 1.6250001 174 181 177 255
0.74148041 0.38561895 1.618 174 181 177 255
0.74179691 0.38350123 1.6090001 175 182 178 255
0.74113917 0.38090762 1.598 173 181 174 255
0.73995697 0.37807643 1.5860001 175 183 176 255
0.74011934 0.37596118 1.577 175 183 176 255
0.73976302 0.37360835 1.567 175 182 178 255
0.74077892 0.37197167 1.5600001 175 182 178 255
0.74032646 0.36962056 1.5500001 179 187 180 255
0.74078244 0.36774716 1.5420001 177 185 178 255
0.73974788 0.36515909 1.531 179 187 180 255
0.74059945 0.36352599 1.524 178 186 179 255
0.73946047 0.3609395 1.5130001 179 187 180 255
0.73875535 0.35859233 1.503 181 188 184 255
0.74130845 0.37886298 1.608 175 182 178 255
0.7411108 0.37653428 1.598 172 180 173 255
0.73992765 0.37373513 1.5860001 174 182 175 255
0.73961973 0.37140796 1.5760001 175 183 176 255
0.74067581 0.36978871 1.5690001 176 183 179 255
0.74169618 0.36817035 1.562 176 184 177 255
0.74124819 0.36584574 1.552 177 185 178 255
0.73978716 0.3630504 1.5400001 174 182 175 255
0.73874605 0.36049154 1.529 177 185 178 255
0.74056286 0.35934821 1.524 179 187 180 255
0.73991162 0.35702679 1.5140001 180 188 181 255
0.73920834 0.35470611 1.5040001 179 186 182 255
0.73989892 0.37376523 1.605 173 180 176 255
0.74061942 0.37192881 1.5970001 173 181 174 255
0.7398991 0.36939454 1.5860001 176 184 177 255
0.73865163 0.36662808 1.5740001 177 185 178 255
0.74064529 0.365493 1.5690001 176 183 179 255
0.74166459 0.36389291 1.562 176 184 177 255
0.7416932 0.36182782 1.5530001 177 185 178 255
0.74071437 0.35929748 1.5420001 177 185 178 255
0.73919469 0.3565349 1.5300001 177 185 178 255
0.74052715 0.35517129 1.524 178 186 179 255
0.73987496 0.35287634 1.5140001 180 187 183 255
0.73917067 0.35058218 1.5040001 181 188 184 255
0.7386542 0.37096113 1.6120001 175 182 178 255
0.73849028 0.36868465 1.6020001 176 183 179 255
0.74012899 0.36732954 1.5960001 174 182 175 255
0.73987144 0.3650547 1.5860001 175 183 176 255
0.73909229 0.36255044 1.575 176 183 179 255
0.74014354 0.36096776 1.5680001 176 183 179 255
0.7421087 0.3598465 1.5630001 177 184 180 255
0.7435717 0.35849592 1.557 175 182 178 255
0.74212271 0.35576472 1.5450001 176 183 180 255
0.74012721 0.35280386 1.5320001 178 185 182 255
0.73903483 0.35030431 1.521 178 185 182 255
0.7398392 0.34872678 1.5140001 180 187 184 255
0.74011678 0.3469198 1.506 182 189 186 255
0.74102002 0.36994082 1.6270001 173 182 177 255
0.73908848 0.36678058 1.613 175 182 178 255
0.73754346 0.36384848 1.6 175 182 178 255
0.73871189 0.36228156 1.5930001 176 183 179 255
0.73844504 0.36003324 1.5830001 175 183 176 255
0.73906451 0.35824057 1.575 175 182 178 255
0.73964268 0.3564488 1.567 178 185 181 255
0.74160397 0.35534036 1.562 177 184 180 255
0.74258566 0.35377786 1.5550001 177 184 180 255
0.74257112 0.35176119 1.5460001 175 182 178 255
0.74106055 0.34906262 1.534 179 186 183 255
0.7409445 0.34704754 1.5250001 176 183 180 255
0.74078166 0.3450332 1.516 181 188 185 255
0.74008095 0.34279209 1.506 180 187 184 255
0.74008685 0.36504406 1.6250001 173 182 177 255
0.73952347 0.36259529 1.6140001 175 184 179 255
0.73844129 0.35992265 1.6020001 173 181 178 255
0.73868674 0.35792473 1.5930001 175 182 178 255
0.73935193 0.35615239 1.585 176 183 179 255
0.73997593 0.35438091 1.577 177 184 180 255
0.74008662 0.35238549 1.5680001 175 183 176 255
0.74110013 0.35084045 1.5610001 178 186 179 255
0.74160045 0.34907147 1.5530001 175 182 178 255
0.74254 0.34752813 1.5460001 177 184 180 255
0.74199468 0.34531125 1.536 176 183 180 255
0.74188316 0.34332001 1.5270001 177 184 181 255
0.74172491 0.34132949 1.5180001 180 187 184 255
0.74152017 0.33933979 1.5090001 180 187 184 255
0.74126887 0.3373509 1.5000001 180 187 184 255
0.74057162 0.36302277 1.636 172 181 176 255
0.74052066 0.36082453 1.626 175 184 179 255
0.73995918 0.35840517 1.6150001 174 183 178 255
0.73887879 0.35576454 1.603 174 182 179 255
0.73819882 0.35334671 1.5920001 175 182 178 255
0.73886019 0.35159543 1.5840001 176 183 179 255
0.73948038 0.34984502 1.5760001 175 182 178 255
0.74100333 0.34853944 1.5700001 177 184 180 255
0.74107194 0.34656876 1.5610001 177 185 178 255
0.74109375 0.34459883 1.552 177 184 180 255
0.74154919 0.34285176 1.544 179 186 182 255
0.74148053 0.34088346 1.5350001 178 185 182 255
0.74233681 0.33936015 1.5280001 178 185 182 255
0.74022597 0.336505 1.5150001 180 187 184 255
0.74050331 0.33476117 1.5070001 181 188 185 255
0.73964638 0.35811427 1.6340001 172 181 176 255
0.74186605 0.3570385 1.6290001 173 182 177 255
0.74222827 0.35508692 1.6200001 173 182 177 255
0.74116075 0.35247847 1.608 175 182 179 255
0.74002993 0.3498708 1.5960001 175 182 178 255
0.74070138 0.34814072 1.5880001 177 184 180 255
0.7403934 0.34597301 1.5780001 175 182 178 255
0.74097693 0.3442446 1.5700001 177 184 180 255
0.74009502 0.34185916 1.559 178 185 181 255
0.7401104 0.33991307 1.5500001 179 186 182 255
0.73959881 0.33774841 1.5400001 177 184 181 255
0.73951799 0.33580387 1.531 174 181 178 255
0.73987645 0.33407947 1.5230001 179 186 183 255
0.73921657 0.33191711 1.5130001 180 187 184 255
0.73997861 0.33041364 1.506 180 187 184 255
0.74159956 0.34829977 1.6090001 175 182 178 255
0.74093431 0.34594068 1.598 176 183 179 255
0.7406776 0.34379879 1.5880001 176 183 179 255
0.74130696 0.3420907 1.58 178 185 181 255
0.74189502 0.34038341 1.572 176 183 179 255
0.74149245 0.3382439 1.562 178 185 182 255
0.74103773 0.33610514 1.552 178 185 182 255
0.74101096 0.33418372 1.5430001 177 184 181 255
0.73852253 0.33118004 1.529 180 187 184 255
0.73887438 0.32947665 1.521 181 188 185 255
0.73820806 0.32734087 1.511 181 188 185 255
0.73994625 0.32628903 1.506 178 185 182 255
0.74111736 0.3436887 1.608 175 182 178 255
0.74183935 0.34200019 1.6 176 183 179 255
0.74252003 0.34031248 1.5920001 175 182 178 255
0.74409783 0.33905318 1.5860001 176 183 179 255
0.74422961 0.33715335 1.577 175 182 179 255
0.74241602 0.33439913 1.5640001 178 185 182 255
0.74101084 0.33185926 1.552 177 184 181 255
0.74050295 0.32974786 1.5420001 178 185 182 255
0.73945987 0.3274233 1.531 180 187 184 255
0.73933059 0.32552719 1.5220001 180 187 184 255
0.74062026 0.32427359 1.516 180 187 184 255
0.74138868 0.32280689 1.5090001 180 187 184 255
0.73925322 0.33845067 1.6040001 173 180 176 255
0.74089056 0.33720529 1.598 174 181 177 255
0.74156475 0.33553874 1.59 175 182 178 255
0.74360526 0.33450615 1.585 175 184 179 255
0.74373341 0.33263022 1.5760001 177 184 181 255
0.74286538 0.33033288 1.5650001 177 184 181 255
0.74050742 0.32740301 1.5510001 177 184 183 255
0.74143636 0.32595146 1.544 179 186 185 255
0.73943198 0.32323402 1.531 180 187 184 255
0.7402733 0.32178408 1.524 181 188 185 255
0.74059039 0.32012376 1.516 179 186 182 255
0.74184918 0.3188867 1.5100001 180 187 183 255
0.73923326 0.33406812 1.6040001 175 182 178 255
0.74133337 0.33304679 1.5990001 173 180 176 255
0.74154305 0.33119312 1.59 176 183 179 255
0.74264425 0.32975686 1.5830001 176 184 181 255
0.74182212 0.32748812 1.572 177 185 182 255
0.74094224 0.32522011 1.5610001 175 183 180 255
0.7400046 0.32295281 1.5500001 177 184 181 255
0.74044967 0.3213113 1.5420001 179 186 185 255
0.73988783 0.3192538 1.5320001 180 187 184 255
0.7397595 0.31740546 1.5230001 180 187 184 255
0.74104995 0.31618312 1.5170001 179 186 183 255
0.74083656 0.3143363 1.508 180 187 183 255
0.73967487 0.32989162 1.605 174 181 178 255
0.74131316 0.32867774 1.5990001 175 182 178 255
0.74012291 0.32623139 1.5870001 175 182 178 255
0.74168408 0.32501909 1.5810001 178 185 182 255
0.73991185 0.32236853 1.5680001 177 184 181 255
0.74091852 0.32095224 1.5610001 177 184 181 255
0.74093485 0.31912553 1.552 175 183 180 255
0.74234492 0.31791651 1.5460001 175 182 179 255
0.74082732 0.31547439 1.534 177 184 181 255
0.74021786 0.31344426 1.524 180 187 184 255
0.74004465 0.31162053 1.5150001 179 186 182 255
0.74031621 0.31000328 1.5070001 180 187 183 255
0.73919547 0.3253046 1.6040001 175 182 179 255
0.73990279 0.32370079 1.5960001 176 183 180 255
0.74010253 0.321895 1.5870001 177 184 181 255
0.7416628 0.32069847 1.5810001 177 184 181 255
0.74130529 0.31869134 1.5710001 176 183 180 255
0.74184471 0.31709063 1.5630001 175 183 180 255
0.74186569 0.31528789 1.554 177 185 182 255
0.74135971 0.31328297 1.544 179 186 183 255
0.74128449 0.31148168 1.5350001 179 186 183 255
0.74019128 0.30927527 1.524 180 187 183 255
0.74001718 0.30747545 1.5150001 180 187 183 255
0.73979652 0.30567631 1.506 179 186 182 255
0.73980385 0.32310706 1.6150001 172 179 176 255
0.73895681 0.31894085 1.5940001 175 182 179 255
0.73868376 0.31695884 1.5840001 177 184 181 255
0.74164212 0.31637836 1.5810001 176 184 181 255
0.74175566 0.31459805 1.572 176 184 183 255
0.74182236 0.31281844 1.5630001 175 183 180 255
0.74136508 0.31083947 1.5530001 177 185 182 255
0.74133563 0.30906132 1.544 176 184 181 255
0.74077654 0.30708376 1.534 179 186 183 255
0.74016541 0.30510691 1.524 179 186 183 255
0.73999047 0.30333096 1.5150001 178 185 182 255
0.74075127 0.30195618 1.508 179 186 182 255
0.73860496 0.32202068 1.6320001 172 179 176 255
0.73944581 0.32045713 1.6240001 173 180 179 255
0.7388711 0.31830239 1.613 175 182 181 255
0.73847497 0.31438965 1.5930001 177 184 181 255
0.73959738 0.31302646 1.5860001 173 181 178 255
0.74162209 0.31205881 1.5810001 175 183 180 255
0.74126297 0.31010503 1.5710001 177 185 182 255
0.73942769 0.30755973 1.5580001 175 183 182 255
0.73943299 0.30580473 1.549 179 187 186 255
0.73843139 0.30365562 1.5380001 180 188 187 255
0.73978657 0.30249444 1.5320001 179 187 184 255
0.7396546 0.30074164 1.5230001 181 188 185 255
0.74045277 0.29938453 1.516 180 187 184 255
0.74072433 0.2978307 1.508 182 189 185 255
0.74079669 0.31660742 1.6270001 173 180 179 255
0.74068737 0.31467673 1.6170001 174 181 178 255
0.739604 0.31235752 1.605 175 182 179 255
0.73984808 0.31062287 1.5960001 176 183 180 255
0.73957884 0.3086943 1.5860001 176 183 180 255
0.7406646 0.3073504 1.5790001 175 183 180 255
0.73935539 0.30503395 1.567 177 185 182 255
0.73845756 0.30291289 1.5560001 173 181 178 255
0.73988861 0.30176589 1.5500001 179 187 186 255
0.74032921 0.30023029 1.5420001 179 187 186 255
0.74169439 0.29908484 1.536 181 189 188 255
0.74157274 0.29735607 1.5270001 179 186 185 255
0.74140435 0.29562798 1.5180001 180 187 184 255
0.74168056 0.2940954 1.5100001 181 188 185 255
0.74050939 0.30835891 1.6070001 174 181 178 255
0.74075806 0.30664825 1.598 174 181 178 255
0.73909467 0.30417073 1.585 175 182 179 255
0.73876959 0.30226958 1.575 175 183 180 255
0.73886412 0.3005611 1.5660001 177 185 182 255
0.73938638 0.29904523 1.5580001 177 185 182 255
0.74129939 0.29810596 1.5530001 176 184 181 255
0.74030715 0.29601571 1.5420001 177 185 184 255
0.74215436 0.29507801 1.5370001 179 186 185 255
0.74203461 0.29337317 1.5280001 178 185 184 255
