ply
format ascii 1.0
comment PCL generated
element vertex 963
property float x
property float y
property float z
property uchar red
property uchar green
property uchar blue
property uchar alpha
element camera 0
property float view_px
property float view_py
property float view_pz
property float x_axisx
property float x_axisy
property float x_axisz
property float y_axisx
property float y_axisy
property float y_axisz
property float z_axisx
property float z_axisy
property float z_axisz
property float focal
property float scalex
property float scaley
property float centerx
property float centery
property int viewportx
property int viewporty
property float k1
property float k2
end_header
-0.73715371 -0.20401925 1.7570001 237 243 235 255
-0.72612178 -0.20227975 1.7420001 228 235 224 255
-0.71724355 -0.20112124 1.7320001 217 226 214 255
-0.71006668 -0.20042764 1.7260001 204 213 201 255
-0.70414972 -0.20008278 1.723 207 214 202 255
-0.69784445 -0.19962221 1.7190001 177 187 172 255
-0.69277173 -0.19951038 1.7180001 161 171 156 255
-0.68730509 -0.19928281 1.7160001 215 226 207 255
-0.68224818 -0.19917174 1.715 130 141 122 255
-0.67680269 -0.19894491 1.7130001 138 149 128 255
-0.67215377 -0.19895072 1.7130001 142 153 132 255
-0.6678955 -0.19907303 1.7140001 181 191 168 255
-0.66285866 -0.19896339 1.7130001 140 150 127 255
-0.65744394 -0.19873792 1.7110001 185 193 167 255
-0.65280384 -0.19874512 1.7110001 175 184 155 255
-0.64854336 -0.1988688 1.7120001 170 179 150 255
-0.64465421 -0.19910894 1.7140001 149 158 129 255
-0.64000803 -0.19911711 1.7140001 141 150 121 255
-0.63573325 -0.19924176 1.715 136 147 118 255
-0.63108557 -0.19925053 1.715 133 144 115 255
-0.62680364 -0.19937579 1.7160001 132 143 114 255
-0.62215424 -0.19938515 1.7160001 135 144 115 255
-0.61786509 -0.19951099 1.7170001 143 150 121 255
-0.61321372 -0.19952089 1.7170001 150 157 128 255
-0.60927165 -0.19976351 1.7190001 144 151 122 255
-0.60461551 -0.19977394 1.7190001 142 149 120 255
-0.60135573 -0.20024951 1.723 142 149 118 255
-0.59738189 -0.20049295 1.725 139 144 113 255
-0.59339744 -0.20073664 1.7270001 136 141 110 255
-0.5890615 -0.20086436 1.728 135 140 109 255
-0.58370554 -0.20064355 1.7260001 133 138 107 255
-0.57903159 -0.20065548 1.7260001 132 139 110 255
-0.57402486 -0.20055133 1.725 131 140 111 255
-0.56968361 -0.2006799 1.7260001 135 144 115 255
-0.56533706 -0.20080872 1.7270001 131 140 109 255
-0.5603357 -0.20070516 1.7260001 131 140 111 255
-0.5556615 -0.20071806 1.7260001 134 143 112 255
-0.55098736 -0.20073114 1.7260001 140 149 120 255
-0.54631305 -0.20074441 1.7260001 144 152 126 255
-0.54163855 -0.20075783 1.7260001 141 149 124 255
-0.5369637 -0.20077141 1.7260001 142 152 127 255
-0.53228879 -0.20078515 1.7260001 141 151 128 255
-0.52700222 -0.20056635 1.7240001 156 164 139 255
-0.5220291 -0.20046401 1.723 158 166 140 255
-0.51766181 -0.2005945 1.7240001 119 129 103 255
-0.51328856 -0.20072512 1.725 168 178 152 255
-0.50831991 -0.20062317 1.7240001 165 175 149 255
-0.50335628 -0.20052126 1.723 147 156 127 255
-0.49839765 -0.20041952 1.7220001 112 121 92 255
-0.49401739 -0.20055059 1.723 132 141 110 255
-0.48934743 -0.2005654 1.723 133 142 111 255
-0.48467684 -0.2005803 1.723 155 164 135 255
-0.48000586 -0.20059529 1.723 120 129 100 255
-0.47561017 -0.20072678 1.7240001 138 147 118 255
-0.47093534 -0.20074193 1.7240001 129 138 109 255
-0.46598953 -0.20064066 1.723 138 147 118 255
-0.46131632 -0.20065594 1.723 127 134 105 255
-0.45637754 -0.2005548 1.7220001 124 132 106 255
-0.4519681 -0.20068662 1.723 144 153 124 255
-0.44729298 -0.20070203 1.723 154 165 136 255
-0.44287428 -0.20083399 1.7240001 123 134 105 255
-0.43844938 -0.20096597 1.725 120 131 100 255
-0.43351549 -0.20086499 1.7240001 149 158 127 255
-0.42858633 -0.200764 1.723 128 137 106 255
-0.42390794 -0.20077953 1.723 119 126 95 255
-0.41922888 -0.2007951 1.723 127 134 103 255
-0.41478962 -0.20092718 1.7240001 119 126 95 255
-0.41034427 -0.20105931 1.725 116 125 94 255
-0.40589273 -0.20119146 1.7260001 140 150 117 255
-0.40097004 -0.20109043 1.725 128 137 106 255
-0.39605212 -0.20098941 1.7240001 129 140 109 255
-0.3913658 -0.20100489 1.7240001 136 147 116 255
-0.3864544 -0.20090377 1.723 138 149 118 255
-0.38176924 -0.2009192 1.723 120 129 100 255
-0.3770833 -0.2009346 1.723 132 143 114 255
-0.37239656 -0.20094995 1.723 130 141 112 255
-0.36728218 -0.20073199 1.7210001 164 174 148 255
-0.36154574 -0.20016398 1.7160001 156 166 140 255
-0.35604373 -0.1997125 1.7120001 108 119 90 255
-0.35097313 -0.19949418 1.71 108 119 88 255
-0.34631768 -0.19950913 1.71 130 141 110 255
-0.34186122 -0.19964068 1.7110001 124 135 104 255
-0.33720133 -0.19965547 1.7110001 146 157 128 255
-0.33195758 -0.19932008 1.7080001 143 154 125 255
-0.32692099 -0.19910127 1.7060001 110 121 92 255
-0.32189444 -0.19888233 1.7040001 109 120 89 255
-0.31762269 -0.19913016 1.7060001 123 134 103 255
-0.3131558 -0.1992612 1.7070001 121 132 103 255
-0.30814037 -0.19904192 1.705 164 175 146 255
-0.30331302 -0.19893923 1.7040001 122 132 107 255
-0.29813972 -0.1986029 1.7010001 123 133 108 255
-0.29349965 -0.1986167 1.7010001 115 125 100 255
-0.28851911 -0.19839683 1.6990001 116 126 101 255
-0.28338155 -0.19806002 1.6960001 121 131 106 255
-0.27858827 -0.19795661 1.6950001 132 142 116 255
-0.27379963 -0.19785307 1.6940001 147 157 131 255
-0.26917458 -0.19786616 1.6940001 177 188 159 255
-0.26470482 -0.1979959 1.6950001 175 186 157 255
-0.26053572 -0.19835916 1.6980001 70 81 50 255
-0.25589728 -0.19837184 1.6980001 72 83 52 255
-0.25111008 -0.19826752 1.697 82 91 60 255
-0.24632762 -0.19816305 1.6960001 90 101 70 255
-0.24183482 -0.19829208 1.697 93 104 75 255
-0.23733577 -0.19842096 1.6980001 93 104 75 255
-0.23269346 -0.19843282 1.6980001 90 101 72 255
-0.2277818 -0.19821076 1.6960001 86 97 68 255
-0.22301188 -0.19810538 1.6950001 103 114 85 255
-0.21811788 -0.19788292 1.6930001 90 98 72 255
-0.21348622 -0.19789402 1.6930001 101 111 86 255
-0.20885392 -0.19790494 1.6930001 100 109 88 255
-0.20422088 -0.19791566 1.6930001 111 120 99 255
-0.19970505 -0.19804312 1.6940001 86 95 76 255
-0.19495273 -0.19793655 1.6930001 71 80 61 255
-0.19031762 -0.1979467 1.6930001 65 73 56 255
-0.18513349 -0.197372 1.6880001 134 142 127 255
-0.12839261 -0.19560228 1.6720001 161 167 159 255
-0.12439933 -0.19654515 1.6800001 166 174 166 255
-0.12000515 -0.1969029 1.6830001 171 180 169 255
-0.11490847 -0.19609046 1.6760001 177 173 162 255
-0.10971809 -0.19504368 1.6670001 66 57 46 255
-0.10489207 -0.19458166 1.6630001 86 71 56 255
-0.10008758 -0.19411935 1.659 96 74 58 255
-0.095362253 -0.19377379 1.6560001 95 71 55 255
-0.090598166 -0.19331096 1.6520001 95 71 53 255
-0.085907787 -0.19296487 1.649 94 68 49 255
-0.081085481 -0.19226745 1.6430001 91 65 46 255
-0.076482207 -0.19203782 1.641 84 61 41 255
-0.071977362 -0.19204204 1.641 75 52 32 255
-0.067595571 -0.19239706 1.6440001 71 50 30 255
-0.063158669 -0.19263484 1.646 68 49 29 255
-0.058674909 -0.19275533 1.6470001 64 47 28 255
-0.054284059 -0.19322668 1.651 57 41 25 255
-0.049931291 -0.19393186 1.6570001 51 37 20 255
0.013923374 -0.1959361 1.674 162 168 161 255
0.018255657 -0.19312607 1.6500001 170 171 165 255
0.022676997 -0.19218853 1.6420001 76 60 50 255
0.027170204 -0.19207007 1.641 88 61 47 255
0.031812236 -0.19288769 1.6480001 87 58 43 255
0.03658079 -0.19417322 1.659 91 67 51 255
0.041360028 -0.19522437 1.6680001 79 60 48 255
0.046078354 -0.19580705 1.6730001 70 54 44 255
0.72514695 -0.20460786 1.7620001 148 156 149 255
0.72248042 -0.20251454 1.7440001 152 160 153 255
0.72221911 -0.20111841 1.7320001 151 158 154 255
0.72105467 -0.19949052 1.7180001 152 159 155 255
0.71939313 -0.19774698 1.7030001 153 161 154 255
0.71977711 -0.19658449 1.6930001 155 162 158 255
0.72310334 -0.19623525 1.6900001 157 164 160 255
0.72641492 -0.19588649 1.687 162 169 165 255
0.72797853 -0.19507371 1.6800001 160 167 163 255
0.7286337 -0.19402918 1.6710001 160 167 164 255
0.72924149 -0.19298509 1.6620001 160 167 164 255
0.72891915 -0.19170924 1.651 156 163 160 255
0.72898287 -0.19054998 1.641 156 163 159 255
0.72899395 -0.18939117 1.631 154 161 157 255
0.72850281 -0.1881167 1.6200001 157 164 160 255
0.73021561 -0.1874233 1.6140001 161 168 164 255
0.73144269 -0.18661425 1.6070001 164 171 168 255
0.73263365 -0.18580568 1.6 167 174 171 255
0.73240656 -0.18464917 1.59 171 178 175 255
0.7330538 -0.18372539 1.582 170 178 175 255
0.73412567 -0.18291824 1.575 172 181 176 255
0.7351616 -0.18211156 1.5680001 175 183 180 255
0.73474687 -0.1809569 1.5580001 175 183 180 255
0.73570275 -0.18015116 1.5510001 176 183 180 255
0.73519158 -0.17899743 1.5410001 178 185 182 255
0.73702717 -0.17842494 1.536 178 185 182 255
0.73594254 -0.17715596 1.5250001 181 188 187 255
0.73674154 -0.1763521 1.5180001 182 189 188 255
0.73604035 -0.17520016 1.508 182 188 190 255
-0.74050802 -0.20975699 1.7650001 236 242 235 255
-0.72611934 -0.20702581 1.7420001 226 232 224 255
-0.71806884 -0.20607768 1.7340001 207 216 205 255
-0.71129757 -0.20548655 1.7290001 209 218 206 255
-0.70578074 -0.20525232 1.7270001 197 204 192 255
-0.70027602 -0.20501851 1.725 158 167 155 255
-0.69438022 -0.20466627 1.7220001 206 216 201 255
-0.68850178 -0.20431438 1.7190001 178 189 170 255
-0.68264073 -0.20396288 1.7160001 149 160 141 255
-0.67679703 -0.20361173 1.7130001 155 166 145 255
-0.67293251 -0.20385528 1.715 174 185 164 255
-0.66866845 -0.20398034 1.7160001 180 190 167 255
-0.66478676 -0.20422465 1.7180001 173 183 160 255
-0.65935814 -0.20399381 1.7160001 161 169 143 255
-0.65470415 -0.20400107 1.7160001 143 152 123 255
-0.64967203 -0.20388976 1.715 137 146 117 255
-0.64577454 -0.20413546 1.7170001 139 148 119 255
-0.64111996 -0.20414372 1.7170001 136 145 116 255
-0.63646603 -0.20415227 1.7170001 136 146 120 255
-0.63070858 -0.2038044 1.7140001 134 144 119 255
-0.62642908 -0.20393249 1.715 150 160 134 255
-0.62178206 -0.20394194 1.715 142 152 126 255
-0.61821508 -0.20430844 1.7180001 135 143 117 255
-0.61391789 -0.2044374 1.7190001 145 152 123 255
-0.6103245 -0.20480452 1.7220001 145 152 123 255
-0.60566002 -0.20481513 1.7220001 141 148 117 255
-0.60204285 -0.20518284 1.725 130 137 106 255
-0.59806335 -0.20543185 1.7270001 132 139 108 255
-0.59372962 -0.2055622 1.728 131 138 107 255
-0.58904976 -0.20557384 1.728 134 141 110 255
-0.58369368 -0.20534776 1.7260001 135 142 111 255
-0.57868397 -0.20524085 1.725 137 144 113 255
-0.57401258 -0.20525314 1.725 141 150 121 255
-0.56967115 -0.20538466 1.7260001 140 149 120 255
-0.56565166 -0.20563535 1.728 132 141 112 255
-0.56064743 -0.20552927 1.7270001 124 134 108 255
-0.55564845 -0.20542334 1.7260001 136 146 120 255
-0.55065489 -0.20531762 1.725 142 152 127 255
-0.54566658 -0.20521204 1.7240001 142 152 129 255
-0.54131103 -0.20534466 1.725 147 157 134 255
-0.53663886 -0.20535848 1.725 145 155 132 255
-0.53165811 -0.20525336 1.7240001 145 155 132 255
-0.5266825 -0.20514838 1.723 141 151 128 255
-0.52171195 -0.20504352 1.7220001 160 170 145 255
-0.51734716 -0.20517696 1.723 138 148 125 255
-0.51297659 -0.20531055 1.7240001 128 140 115 255
-0.50801045 -0.20520605 1.723 171 181 155 255
-0.50304949 -0.2051017 1.7220001 149 160 131 255
-0.49809346 -0.20499742 1.7210001 117 128 99 255
-0.49400258 -0.20525061 1.723 127 136 105 255
-0.48933238 -0.20526566 1.723 135 144 113 255
-0.48466176 -0.20528081 1.723 155 164 135 255
-0.4797121 -0.2051769 1.7220001 124 133 104 255
-0.47531903 -0.20531136 1.723 131 140 111 255
-0.47092003 -0.20544593 1.7240001 129 138 109 255
-0.46570373 -0.20522305 1.7220001 139 148 119 255
-0.46076539 -0.20511937 1.7210001 124 132 106 255
-0.45583203 -0.20501573 1.72 142 150 125 255
-0.45169026 -0.20526975 1.7220001 150 158 132 255
-0.4467583 -0.20516622 1.7210001 156 166 140 255
-0.4423449 -0.20530114 1.7220001 133 143 117 255
-0.43741709 -0.20519765 1.7210001 125 136 105 255
-0.43274549 -0.20521341 1.7210001 135 144 113 255
-0.42757577 -0.2049907 1.7190001 124 131 100 255
-0.42290819 -0.20500648 1.7190001 125 132 101 255
-0.41823995 -0.20502226 1.7190001 130 137 106 255
-0.41405219 -0.20527661 1.7210001 121 130 99 255
-0.40961498 -0.20541173 1.7220001 156 165 134 255
-0.40517151 -0.20554683 1.723 118 127 96 255
-0.40002459 -0.20532402 1.7210001 144 155 124 255
-0.39511752 -0.20522049 1.72 134 145 114 255
-0.39044213 -0.20523623 1.72 137 148 117 255
-0.38554171 -0.20513263 1.7190001 130 141 110 255
-0.38086742 -0.20514831 1.7190001 117 126 97 255
-0.37619242 -0.20516394 1.7190001 133 144 115 255
-0.37151662 -0.20517954 1.7190001 140 151 122 255
-0.36619973 -0.20483696 1.7160001 168 178 152 255
-0.36047703 -0.20425554 1.7110001 146 157 128 255
-0.35540465 -0.20403212 1.7090001 113 124 95 255
-0.35034233 -0.20380862 1.7070001 116 127 98 255
-0.34569511 -0.2038238 1.7070001 136 147 118 255
-0.34084728 -0.20371951 1.7060001 129 142 113 255
-0.33620107 -0.20373452 1.7060001 151 164 137 255
-0.33097106 -0.20339118 1.7030001 126 139 112 255
-0.32594821 -0.20316711 1.7010001 105 118 89 255
-0.32112429 -0.20306237 1.7 119 130 101 255
-0.31667736 -0.20319645 1.7010001 138 149 120 255
-0.31222415 -0.20333044 1.702 154 165 136 255
-0.30722249 -0.2031059 1.7 161 172 143 255
-0.30240893 -0.20300074 1.6990001 116 126 100 255
-0.29742467 -0.2027759 1.697 126 136 111 255
-0.29262307 -0.20267041 1.6960001 126 136 111 255
-0.28782612 -0.20256479 1.6950001 126 136 111 255
-0.28269964 -0.20222001 1.692 130 140 115 255
-0.27791744 -0.20211409 1.6910001 130 140 115 255
-0.27313983 -0.20200799 1.6900001 120 130 104 255
-0.26852587 -0.20202132 1.6900001 142 155 128 255
-0.26375487 -0.20191492 1.6890001 145 155 129 255
-0.25914201 -0.20192795 1.6890001 166 177 148 255
-0.25467899 -0.20206033 1.6900001 146 157 126 255
-0.25020978 -0.20219259 1.6910001 75 86 55 255
-0.24558908 -0.20220515 1.6910001 83 94 63 255
-0.2408251 -0.20209792 1.6900001 85 96 67 255
-0.2360658 -0.20199053 1.6890001 132 143 114 255
-0.2311742 -0.20176335 1.687 118 129 100 255
-0.2262928 -0.20153596 1.6850001 99 110 81 255
-0.22155318 -0.20142801 1.6840001 82 93 64 255
-0.21681827 -0.20131983 1.6830001 90 99 70 255
-0.21234031 -0.20145071 1.6840001 85 96 67 255
-0.20773278 -0.20146176 1.6840001 99 107 81 255
-0.20312457 -0.20147264 1.6840001 110 118 92 255
-0.19851567 -0.20148332 1.6840001 112 120 95 255
-0.19390607 -0.2014938 1.6840001 92 100 75 255
-0.18929581 -0.20150408 1.6840001 71 77 59 255
-0.18457521 -0.20139447 1.6830001 117 126 107 255
-0.17985946 -0.20128466 1.682 109 118 99 255
-0.17514856 -0.20117465 1.6810001 109 119 102 255
-0.17034103 -0.20094469 1.6790001 110 120 103 255
-0.16544515 -0.20059484 1.6760001 110 120 103 255
-0.16066107 -0.20036438 1.674 110 120 103 255
-0.15588738 -0.20013373 1.6720001 112 122 107 255
-0.1512146 -0.20002252 1.6710001 115 125 110 255
-0.14654671 -0.19991106 1.6700001 107 117 102 255
-0.14188378 -0.19979937 1.669 110 120 105 255
-0.13722579 -0.19968747 1.6680001 109 118 106 255
-0.13249326 -0.19945556 1.6660001 104 113 101 255
-0.12792474 -0.19946286 1.6660001 131 136 124 255
-0.12335578 -0.19946992 1.6660001 3 4 0 255
-0.11878634 -0.19947676 1.6660001 29 25 11 255
-0.11407933 -0.19924386 1.664 69 58 43 255
-0.10925122 -0.19877124 1.6600001 96 69 55 255
-0.10450774 -0.1984181 1.6570001 96 74 58 255
-0.099780291 -0.19806466 1.654 93 71 55 255
-0.095068939 -0.19771098 1.651 93 66 51 255
-0.090373673 -0.19735701 1.6480001 96 70 52 255
-0.085694522 -0.1970028 1.6450001 94 68 49 255
-0.081080854 -0.19676806 1.6430001 94 68 49 255
-0.076384641 -0.19629353 1.6390001 85 60 38 255
-0.071929395 -0.19641759 1.6400001 74 51 29 255
-0.067427248 -0.19642159 1.6400001 67 46 26 255
-0.063001573 -0.1966649 1.6420001 60 41 21 255
-0.05856467 -0.19690795 1.6440001 56 39 20 255
-0.054248065 -0.19762987 1.6500001 55 39 23 255
-0.049988687 -0.19871087 1.659 64 50 33 255
0.0092191203 -0.19824716 1.6550001 170 173 169 255
0.013673062 -0.19692886 1.6440001 60 51 46 255
0.018110778 -0.19608942 1.6370001 81 55 46 255
0.022606639 -0.19608822 1.6370001 83 54 40 255
0.027168635 -0.19656591 1.641 80 53 38 255
0.031849008 -0.19764225 1.6500001 76 56 40 255
0.036622781 -0.19895786 1.6610001 75 57 41 255
0.041382439 -0.19991384 1.669 67 54 41 255
0.72454882 -0.20786022 1.7490001 151 159 152 255
0.72388464 -0.20631261 1.7360001 150 157 153 255
0.72273153 -0.20464666 1.7220001 153 160 156 255
0.719814 -0.2025058 1.7040001 152 159 155 255
0.72020119 -0.20131615 1.6940001 154 163 158 255
0.72139126 -0.20036466 1.6860001 157 166 161 255
0.72426176 -0.19988899 1.682 160 169 164 255
0.72581232 -0.19905727 1.6750001 159 167 164 255
0.72689033 -0.19810718 1.6670001 161 168 165 255
0.72792643 -0.19715758 1.659 161 168 165 255
0.72671342 -0.19561423 1.646 162 170 167 255
0.72765243 -0.19466558 1.6380001 162 170 167 255
0.72944361 -0.19395505 1.6320001 163 172 167 255
0.73030472 -0.19300735 1.6240001 165 174 169 255
0.73067176 -0.19194128 1.6150001 166 173 169 255
0.73008138 -0.19063796 1.6040001 166 173 170 255
0.7326383 -0.19016708 1.6 168 175 172 255
0.73333305 -0.18922129 1.5920001 168 175 172 255
0.73398632 -0.18827596 1.5840001 168 176 173 255
0.73226744 -0.18673678 1.5710001 169 177 174 255
0.73376179 -0.18603015 1.5650001 166 174 173 255
0.73333925 -0.1848485 1.5550001 175 183 182 255
0.73523611 -0.18426171 1.5500001 177 184 183 255
0.73472261 -0.183081 1.5400001 180 187 186 255
0.73703587 -0.18261409 1.536 179 186 185 255
0.73595178 -0.18131544 1.5250001 182 189 188 255
0.7362659 -0.18037394 1.5170001 182 188 190 255
0.73458648 -0.17895728 1.5050001 184 190 192 255
-0.72986835 -0.21286595 1.751 230 236 229 255
-0.72055072 -0.2115313 1.7400001 216 222 214 255
-0.71417403 -0.21104802 1.7360001 177 186 175 255
-0.70863777 -0.21080832 1.7340001 165 174 162 255
-0.7023018 -0.21032591 1.7300001 209 219 204 255
-0.69639194 -0.20996544 1.7270001 206 216 199 255
-0.69009894 -0.2094838 1.723 188 199 180 255
-0.68462455 -0.20924571 1.7210001 181 192 173 255
-0.67916197 -0.20900801 1.7190001 173 185 162 255
-0.67488843 -0.20913544 1.72 154 166 143 255
-0.67022067 -0.20914164 1.72 135 145 122 255
-0.66632783 -0.20939143 1.7220001 143 153 130 255
-0.66127223 -0.20927681 1.7210001 137 147 122 255
-0.65660429 -0.2092841 1.7210001 141 149 124 255
-0.65117961 -0.20904855 1.7190001 144 152 127 255
-0.64689475 -0.20917816 1.72 148 156 131 255
-0.64148486 -0.20894323 1.7180001 152 162 137 255
-0.6364572 -0.20883025 1.7170001 160 170 145 255
-0.63106751 -0.20859593 1.715 150 160 135 255
-0.62678498 -0.20872682 1.7160001 142 152 126 255
-0.62286007 -0.20897965 1.7180001 142 151 122 255
-0.61928463 -0.20935448 1.7210001 142 149 118 255
-0.61533612 -0.20960791 1.723 143 148 117 255
-0.61137718 -0.2098617 1.725 142 147 116 255
-0.60705602 -0.20999411 1.7260001 145 152 120 255
-0.6027298 -0.2101268 1.7270001 138 145 114 255
-0.59839827 -0.21025975 1.728 135 144 113 255
-0.59406161 -0.21039297 1.7290001 130 139 108 255
-0.58937883 -0.21040475 1.7290001 131 140 111 255
-0.5840199 -0.21017341 1.7270001 133 141 115 255
-0.57934266 -0.21018563 1.7270001 142 150 124 255
-0.57466561 -0.21019812 1.7270001 138 148 122 255
-0.57031852 -0.2103325 1.728 137 147 121 255
-0.56563878 -0.21034542 1.728 139 149 124 255
-0.56095886 -0.21035852 1.728 133 143 118 255
-0.55563521 -0.21012834 1.7260001 148 158 135 255
-0.55064142 -0.21002005 1.725 143 153 130 255
-0.54596937 -0.21003368 1.725 140 152 129 255
-0.54161114 -0.2101693 1.7260001 147 159 136 255
-0.53662497 -0.21006152 1.725 150 160 137 255
-0.53164399 -0.20995389 1.7240001 151 161 138 255
-0.52666825 -0.20984639 1.723 145 155 132 255
-0.52200049 -0.20986083 1.723 149 156 134 255
-0.51733261 -0.2098754 1.723 154 164 141 255
-0.51266432 -0.20989013 1.723 138 148 125 255
-0.5077008 -0.20978315 1.7220001 175 185 162 255
-0.50274247 -0.2096763 1.7210001 147 157 132 255
-0.49807847 -0.20969136 1.7210001 137 147 122 255
-0.49370074 -0.20982838 1.7220001 119 127 101 255
-0.48931718 -0.20996551 1.723 126 134 108 255
-0.48436522 -0.20985906 1.7220001 150 159 130 255
-0.47969669 -0.20987451 1.7220001 154 163 134 255
-0.47502768 -0.20989008 1.7220001 123 132 103 255
-0.4706313 -0.21002759 1.723 128 137 108 255
-0.46568814 -0.20992142 1.7220001 140 149 120 255
-0.46074975 -0.20981528 1.7210001 130 138 112 255
-0.4560813 -0.2098311 1.7210001 138 148 123 255
-0.4514122 -0.20984696 1.7210001 158 168 143 255
-0.44622329 -0.20961902 1.7190001 155 165 140 255
-0.44155842 -0.20963496 1.7190001 134 144 118 255
-0.43663874 -0.20952897 1.7180001 129 140 109 255
-0.43222669 -0.20966695 1.7190001 130 139 108 255
-0.42755985 -0.20968299 1.7190001 118 127 96 255
-0.4228923 -0.20969903 1.7190001 121 130 99 255
-0.41822404 -0.2097151 1.7190001 137 146 117 255
-0.41355509 -0.20973116 1.7190001 126 137 108 255
-0.40936112 -0.20999125 1.7210001 170 181 152 255
-0.40468529 -0.21000732 1.7210001 127 138 107 255
-0.39954382 -0.20977932 1.7190001 140 149 118 255
-0.39441252 -0.20955129 1.7170001 126 135 104 255
-0.3897453 -0.20956726 1.7170001 140 149 118 255
-0.38462877 -0.2093391 1.715 138 147 116 255
-0.3797439 -0.20923294 1.7140001 117 126 95 255
-0.37486365 -0.20912673 1.7130001 137 146 117 255
-0.37020418 -0.20914252 1.7130001 143 153 127 255
-0.36533055 -0.20903619 1.7120001 172 180 154 255
-0.36004016 -0.20868555 1.7090001 144 152 126 255
-0.35518125 -0.20857905 1.7080001 113 123 97 255
-0.34991652 -0.20822822 1.705 119 128 99 255
-0.3450723 -0.20812151 1.7040001 139 148 119 255
-0.34003291 -0.20789257 1.702 136 146 120 255
-0.33520067 -0.20778567 1.7010001 151 164 137 255
-0.33037305 -0.20767866 1.7 142 152 126 255
-0.32555008 -0.20757155 1.6990001 106 119 92 255
-0.32073173 -0.20746434 1.6980001 130 140 114 255
-0.31610417 -0.20747916 1.6980001 127 137 111 255
-0.31129235 -0.20737173 1.697 158 168 142 255
-0.30648518 -0.20726416 1.6960001 154 164 138 255
-0.30168262 -0.20715645 1.6950001 121 131 106 255
-0.29688472 -0.20704862 1.6940001 131 141 116 255
-0.29226395 -0.20706286 1.6940001 122 132 109 255
-0.28713301 -0.20671028 1.6910001 135 145 122 255
-0.28235173 -0.20660199 1.6900001 138 150 127 255
-0.27741078 -0.20637131 1.6880001 123 133 110 255
-0.27296478 -0.20650724 1.6890001 129 139 114 255
-0.26803583 -0.20627621 1.687 152 162 136 255
-0.26311707 -0.20604503 1.6850001 131 141 115 255
-0.25836185 -0.20593594 1.6840001 131 142 113 255
-0.25376198 -0.20594899 1.6840001 162 173 144 255
-0.24916133 -0.20596185 1.6840001 166 176 150 255
-0.24455993 -0.20597458 1.6840001 113 123 97 255
-0.23981525 -0.20586479 1.6830001 122 134 109 255
-0.23493552 -0.20563251 1.6810001 145 157 132 255
-0.23034003 -0.20564468 1.6810001 105 118 91 255
-0.22547522 -0.205412 1.6790001 116 129 102 255
-0.22075219 -0.20530148 1.6780001 116 129 102 255
-0.21577626 -0.20494601 1.6750001 146 155 126 255
-0.21132034 -0.20507979 1.6760001 129 138 107 255
-0.20673491 -0.205091 1.6760001 118 127 96 255
-0.2021488 -0.20510203 1.6760001 116 125 94 255
-0.19756198 -0.20511286 1.6760001 119 128 97 255
-0.19320476 -0.20536825 1.6780001 108 117 86 255
-0.18849872 -0.20525627 1.677 97 107 82 255
-0.18390717 -0.20526648 1.677 130 140 117 255
-0.17931499 -0.20527647 1.677 138 147 126 255
-0.17451382 -0.20504145 1.6750001 127 136 115 255
-0.16982439 -0.20492859 1.674 130 139 118 255
-0.16494246 -0.20457067 1.6710001 128 140 117 255
-0.16026828 -0.20445731 1.6700001 124 136 113 255
-0.15550579 -0.20422131 1.6680001 125 137 114 255
-0.15084419 -0.20410749 1.6670001 137 148 127 255
-0.14609975 -0.20387098 1.6650001 125 136 117 255
-0.14128074 -0.20351177 1.6620001 128 139 118 255
-0.13655993 -0.20327479 1.6600001 135 146 127 255
-0.13192908 -0.20315997 1.659 135 144 125 255
-0.12745681 -0.20328985 1.6600001 160 162 145 255
-0.12290453 -0.20329702 1.6600001 14 12 0 255
-0.11835179 -0.20330396 1.6600001 62 50 33 255
-0.11366149 -0.20306568 1.6580001 71 56 37 255
-0.10885011 -0.2025822 1.654 95 69 51 255
-0.10424947 -0.20246588 1.6530001 95 69 51 255
-0.09953326 -0.20210434 1.6500001 94 67 52 255
-0.094890721 -0.20186502 1.6480001 97 70 55 255
-0.090203948 -0.20150295 1.6450001 97 71 52 255
-0.085585386 -0.20126307 1.6430001 97 71 52 255
-0.08092811 -0.20090045 1.6400001 96 70 51 255
-0.076333605 -0.20066005 1.6380001 92 66 47 255
-0.071837492 -0.20066439 1.6380001 84 58 39 255
-0.067341089 -0.20066848 1.6380001 85 61 43 255
-0.062844433 -0.20067233 1.6380001 77 55 37 255
-0.058383141 -0.20079839 1.6390001 73 53 35 255
-0.053981885 -0.20116927 1.6420001 74 56 40 255
-0.049594067 -0.20166236 1.646 70 55 40 255
-0.045129325 -0.20191023 1.6480001 120 106 96 255
-0.0044063721 -0.202291 1.651 170 161 156 255
0.00012739273 -0.20155598 1.6450001 137 122 116 255
0.0046394961 -0.20131078 1.6430001 69 52 46 255
0.0091294544 -0.20082027 1.6390001 77 49 40 255
0.013622358 -0.20069708 1.6380001 83 55 44 255
0.018098649 -0.20045106 1.636 82 58 42 255
0.022646736 -0.20093997 1.6400001 80 56 40 255
0.027249813 -0.20167363 1.646 80 56 38 255
0.031962946 -0.20289712 1.6560001 65 47 31 255
0.036642674 -0.20363019 1.6620001 61 46 31 255
0.72371745 -0.21238212 1.7470001 152 160 153 255
0.72346526 -0.21092075 1.7350001 150 158 151 255
0.7231493 -0.20945987 1.723 150 157 153 255
0.72150224 -0.20763476 1.7080001 152 159 155 255
0.72062534 -0.20605327 1.6950001 151 160 155 255
0.72096288 -0.20483696 1.6850001 157 166 161 255
0.72253942 -0.20398585 1.6780001 159 168 163 255
0.7249462 -0.20337835 1.6730001 159 167 164 255
0.72732729 -0.20277128 1.6680001 161 168 165 255
0.72748917 -0.20155691 1.6580001 162 169 166 255
0.72671533 -0.20009986 1.646 161 169 166 255
0.72809905 -0.19925115 1.6390001 164 173 168 255
0.73034048 -0.19864604 1.6340001 165 174 169 255
0.73255664 -0.19804147 1.6290001 168 177 172 255
0.73112804 -0.19646478 1.6160001 168 175 171 255
0.73145133 -0.19537486 1.6070001 166 173 170 255
0.73264319 -0.19452856 1.6 168 175 172 255
0.73472029 -0.19392596 1.595 171 179 176 255
0.73491895 -0.19283752 1.5860001 171 179 178 255
0.73320603 -0.1912632 1.5730001 173 181 180 255
0.73329985 -0.19017571 1.5640001 172 180 179 255
0.73334676 -0.18908869 1.5550001 175 183 182 255
0.73476976 -0.18836696 1.549 176 183 182 255
0.73425412 -0.18715931 1.539 179 186 185 255
0.73560542 -0.18643858 1.5330001 179 186 185 255
0.73403102 -0.18498862 1.521 180 187 186 255
0.73482001 -0.18414725 1.5140001 182 188 190 255
0.73362082 -0.18281983 1.503 182 188 190 255
-0.72634548 -0.21801193 1.7540001 224 230 223 255
-0.71746194 -0.21677193 1.7440001 208 216 208 255
-0.7106775 -0.21615385 1.7390001 211 220 209 255
-0.70473343 -0.21578477 1.7360001 186 196 181 255
-0.69921011 -0.21554042 1.7340001 178 188 171 255
-0.69369876 -0.21529649 1.7320001 151 162 143 255
-0.68740386 -0.21480432 1.728 150 161 140 255
-0.6815269 -0.21443687 1.725 148 160 137 255
-0.67605948 -0.2141941 1.723 170 182 159 255
-0.67099357 -0.21407601 1.7220001 130 140 117 255
-0.66632104 -0.21408263 1.7220001 149 159 136 255
-0.66126508 -0.21396528 1.7210001 150 160 137 255
-0.65659684 -0.21397264 1.7210001 150 159 138 255
-0.65155047 -0.213856 1.72 155 164 143 255
-0.64688647 -0.21386403 1.72 162 172 149 255
-0.64184976 -0.21374808 1.7190001 165 175 152 255
-0.63718975 -0.2137568 1.7190001 159 169 144 255
-0.63253033 -0.21376584 1.7190001 154 164 138 255
-0.62823653 -0.21389954 1.72 144 153 124 255
-0.62430054 -0.21415794 1.7220001 139 146 117 255
-0.62035406 -0.21441664 1.7240001 139 144 113 255
-0.61604005 -0.2145513 1.725 134 139 108 255
-0.61172104 -0.21468627 1.7260001 133 138 107 255
-0.60704511 -0.21469714 1.7260001 142 149 118 255
-0.60271865 -0.21483268 1.7270001 144 151 120 255
-0.59838688 -0.21496847 1.728 137 146 117 255
-0.59404987 -0.21510455 1.7290001 135 146 117 255
-0.58902597 -0.21499205 1.728 125 135 109 255
-0.58366942 -0.21475539 1.7260001 136 146 120 255
-0.5786593 -0.21464334 1.725 144 152 126 255
-0.5743202 -0.21478041 1.7260001 145 154 125 255
-0.57030559 -0.21504213 1.728 136 144 118 255
-0.56595302 -0.21517965 1.7290001 140 150 124 255
-0.56127024 -0.21519293 1.7290001 149 159 134 255
-0.55562168 -0.21483302 1.7260001 153 163 138 255
-0.55062771 -0.21472219 1.725 140 150 127 255
-0.54595554 -0.21473603 1.725 143 153 130 255
-0.54159707 -0.21487455 1.7260001 147 157 134 255
-0.53661072 -0.21476422 1.725 143 153 130 255
-0.53162962 -0.21465407 1.7240001 154 164 141 255
-0.52695948 -0.2146686 1.7240001 137 147 124 255
-0.52228892 -0.21468326 1.7240001 135 145 122 255
-0.51731783 -0.2145735 1.723 145 152 130 255
-0.51264936 -0.21458845 1.723 145 155 132 255
-0.50768584 -0.21447898 1.7220001 180 190 167 255
-0.50272733 -0.2143696 1.7210001 141 151 128 255
-0.49777377 -0.2142603 1.72 150 160 135 255
-0.4933987 -0.21440029 1.7210001 120 128 102 255
-0.48901781 -0.21454041 1.7220001 121 129 103 255
-0.48434964 -0.21455601 1.7220001 137 145 119 255
-0.47940251 -0.21444713 1.7210001 151 159 133 255
-0.47446027 -0.2143383 1.72 130 138 112 255
-0.46979612 -0.21435417 1.72 131 140 111 255
-0.4651314 -0.21437009 1.72 147 156 127 255
-0.46046612 -0.21438611 1.72 134 142 116 255
-0.45553532 -0.21427751 1.7190001 132 142 116 255
-0.45113388 -0.21441828 1.72 164 174 149 255
-0.44568813 -0.21406044 1.7170001 142 152 127 255
-0.44102862 -0.21407662 1.7170001 137 147 121 255
-0.43611431 -0.21396816 1.7160001 129 138 109 255
-0.43170765 -0.21410909 1.7170001 131 140 109 255
-0.42729497 -0.21425007 1.7180001 127 136 105 255
-0.4226301 -0.21426637 1.7180001 123 132 103 255
-0.4184511 -0.21453212 1.72 140 150 125 255
-0.41377944 -0.21454848 1.72 146 158 133 255
-0.40886921 -0.21444008 1.7190001 154 167 140 255
-0.40372854 -0.21420689 1.7170001 149 159 133 255
-0.39813316 -0.21372411 1.7130001 126 137 108 255
-0.39347759 -0.21374036 1.7130001 131 142 111 255
-0.3885943 -0.21363181 1.7120001 132 143 112 255
-0.38393995 -0.21364799 1.7120001 132 141 110 255
-0.37906322 -0.21353933 1.7110001 118 127 98 255
-0.37419122 -0.21343061 1.71 128 137 108 255
-0.36932388 -0.21332185 1.7090001 136 144 118 255
-0.36446115 -0.21321301 1.7080001 166 174 148 255
-0.35960308 -0.21310408 1.7070001 143 151 125 255
-0.35454169 -0.21287023 1.705 111 121 95 255
-0.34928522 -0.21251142 1.702 139 147 121 255
-0.34424677 -0.21227735 1.7 146 156 130 255
-0.33921841 -0.2120432 1.6980001 150 160 135 255
-0.33420008 -0.21180891 1.6960001 152 164 139 255
-0.32958055 -0.21182428 1.6960001 143 155 130 255
-0.32476857 -0.21171466 1.6950001 110 122 97 255
-0.32033896 -0.21185476 1.6960001 122 134 109 255
-0.31571695 -0.21186985 1.6960001 134 144 119 255
-0.31072727 -0.21163496 1.6940001 167 177 152 255
-0.305567 -0.211275 1.6910001 133 143 117 255
-0.30060023 -0.21103981 1.6890001 117 127 102 255
-0.29581875 -0.21092942 1.6880001 141 151 126 255
-0.29121453 -0.21094388 1.6880001 123 133 108 255
-0.28643963 -0.21083321 1.687 145 155 130 255
-0.28150243 -0.21059744 1.6850001 133 143 120 255
-0.27657524 -0.21036147 1.6830001 121 131 108 255
-0.27198139 -0.21037534 1.6830001 124 134 111 255
-0.26738676 -0.21038905 1.6830001 149 161 136 255
-0.26263523 -0.2102776 1.682 142 152 127 255
-0.25804177 -0.21029101 1.682 123 133 107 255
-0.25329685 -0.21017924 1.6810001 146 156 130 255
-0.2485566 -0.21006727 1.6800001 142 152 126 255
-0.24367587 -0.20983011 1.6780001 160 170 144 255
-0.23894779 -0.20971777 1.677 165 178 151 255
-0.23422439 -0.20960526 1.6760001 154 167 140 255
-0.22950573 -0.20949255 1.6750001 128 141 114 255
-0.22452323 -0.20912947 1.6720001 98 111 84 255
-0.21968798 -0.20889129 1.6700001 140 151 122 255
-0.21486296 -0.20865285 1.6680001 137 146 117 255
-0.21055242 -0.20891459 1.6700001 133 142 113 255
-0.20586026 -0.20880085 1.669 131 140 109 255
-0.2012935 -0.20881203 1.669 137 146 115 255
-0.19672604 -0.208823 1.669 139 150 121 255
-0.19238819 -0.209084 1.6710001 133 143 117 255
-0.18770155 -0.20896947 1.6700001 110 120 95 255
-0.18323904 -0.20910494 1.6710001 138 148 125 255
-0.17855658 -0.20898995 1.6700001 145 155 132 255
-0.17387897 -0.2088747 1.669 133 143 120 255
-0.16900334 -0.20850894 1.6660001 134 144 119 255
-0.16424222 -0.20826805 1.664 143 153 128 255
-0.15958749 -0.20815212 1.6630001 142 152 127 255
-0.15493762 -0.20803593 1.6620001 145 157 132 255
-0.15020223 -0.20779432 1.6600001 142 154 129 255
-0.14556496 -0.20767763 1.659 150 161 140 255
-0.14067765 -0.20718515 1.6550001 146 158 135 255
-0.13597627 -0.20694278 1.6530001 145 156 137 255
-0.13128535 -0.20670015 1.651 148 157 138 255
-0.12698878 -0.20708323 1.654 127 127 109 255
-0.12260127 -0.20734093 1.6560001 23 21 3 255
-0.11805975 -0.20734797 1.6560001 64 46 30 255
-0.11324358 -0.2068539 1.6520001 78 58 40 255
-0.10871214 -0.20686042 1.6520001 87 61 42 255
-0.10405418 -0.20661625 1.6500001 93 67 49 255
-0.099406786 -0.20637181 1.6480001 96 69 54 255
-0.094712421 -0.20600189 1.6450001 101 75 57 255
-0.090034135 -0.20563166 1.6420001 104 78 60 255
-0.085371979 -0.20526116 1.6390001 101 75 57 255
-0.080824651 -0.20514089 1.6380001 99 73 55 255
-0.076189294 -0.20476985 1.6350001 99 73 55 255
-0.071657822 -0.204649 1.6340001 97 71 53 255
-0.067049332 -0.20427746 1.631 94 67 52 255
-0.062533781 -0.20415607 1.6300001 87 63 45 255
-0.058094714 -0.20428494 1.631 82 60 42 255
-0.053682808 -0.20453881 1.6330001 85 63 47 255
-0.0492597 -0.20479241 1.6350001 88 70 55 255
-0.044770658 -0.20479523 1.6350001 73 58 45 255
-0.040330704 -0.20504831 1.6370001 71 57 48 255
-0.035945293 -0.20567693 1.6420001 82 70 63 255
-0.031436551 -0.20567895 1.6420001 85 75 68 255
-0.026960481 -0.20593123 1.6440001 79 70 65 255
-0.022405051 -0.20555694 1.641 124 114 107 255
-0.01786601 -0.20518236 1.6380001 72 60 53 255
-0.013318891 -0.20443171 1.6320001 59 47 40 255
-0.0088317497 -0.20430712 1.631 70 54 45 255
-0.004352733 -0.20430751 1.631 82 58 50 255
0.00012622353 -0.20418239 1.6300001 82 54 45 255
0.0046053338 -0.2043075 1.631 79 58 46 255
0.0090954881 -0.20455761 1.6330001 72 49 35 255
0.013613224 -0.20505799 1.6370001 76 52 36 255
0.018163938 -0.20568335 1.6420001 79 52 37 255
0.022755845 -0.2064337 1.6480001 81 57 41 255
0.027364062 -0.2070585 1.6530001 71 49 33 255
0.031999629 -0.20768301 1.6580001 66 51 38 255
0.72262907 -0.21539915 1.733 151 159 152 255
0.72272789 -0.21402997 1.7220001 152 160 153 255
0.72319067 -0.21278556 1.7120001 152 159 155 255
0.72360063 -0.21154162 1.702 154 163 158 255
0.72224617 -0.20980103 1.6880001 158 167 162 255
0.72340077 -0.20880669 1.6800001 160 168 165 255
0.7249468 -0.20793711 1.6730001 163 171 168 255
0.72776443 -0.20744087 1.669 160 168 165 255
0.72792947 -0.20619939 1.659 164 171 168 255
0.72715896 -0.20470987 1.6470001 162 170 167 255
0.7285459 -0.20384225 1.6400001 164 173 168 255
0.73123753 -0.20334803 1.636 164 172 169 255
0.73301005 -0.20260575 1.6300001 165 174 169 255
0.73203701 -0.20111813 1.618 170 177 173 255
0.73145598 -0.19975536 1.6070001 169 176 173 255
0.73264837 -0.19889021 1.6 172 179 176 255
0.73426539 -0.19814993 1.5940001 171 179 176 255
0.73492515 -0.19716154 1.5860001 175 183 182 255
0.73367894 -0.19567637 1.5740001 175 183 182 255
0.73236936 -0.19419165 1.562 177 185 184 255
0.73193967 -0.19295606 1.552 178 186 185 255
0.73335505 -0.19221829 1.5460001 178 185 184 255
0.73330873 -0.191108 1.5370001 176 183 182 255
0.73417521 -0.19024687 1.5300001 177 184 183 255
0.7321105 -0.18864018 1.5170001 178 185 184 255
0.73240364 -0.18765567 1.5090001 182 189 188 255
-0.72321826 -0.22330157 1.7580001 217 225 217 255
-0.71476054 -0.22216173 1.7490001 207 216 205 255
-0.70716518 -0.22127636 1.7420001 183 193 178 255
-0.70162505 -0.22102651 1.7400001 163 173 158 255
-0.69569647 -0.22065006 1.7370001 170 181 162 255
-0.69018328 -0.22040105 1.7350001 169 180 161 255
-0.68428677 -0.22002542 1.7320001 150 161 140 255
-0.67801523 -0.21952312 1.728 164 175 156 255
-0.6721561 -0.21914825 1.725 164 175 156 255
-0.66670108 -0.21890078 1.723 160 171 152 255
-0.66202635 -0.21890779 1.723 172 183 164 255
-0.65697074 -0.21878812 1.7220001 181 190 171 255
-0.6523003 -0.21879587 1.7220001 178 187 166 255
-0.64800656 -0.21893103 1.723 166 176 153 255
-0.64333469 -0.21893945 1.723 160 170 147 255
-0.63866353 -0.21894826 1.723 139 149 124 255
-0.63399285 -0.21895735 1.723 152 160 134 255
-0.62968796 -0.21909389 1.7240001 137 144 115 255
-0.62574077 -0.21935782 1.7260001 136 143 114 255
-0.62106353 -0.21936791 1.7260001 144 149 118 255
-0.61638671 -0.21937829 1.7260001 145 149 121 255
-0.61171025 -0.21938899 1.7260001 135 142 113 255
-0.60703409 -0.21939996 1.7260001 141 148 119 255
-0.60270733 -0.21953835 1.7270001 141 148 119 255
-0.5983752 -0.21967699 1.728 147 155 130 255
-0.59403801 -0.21981592 1.7290001 148 156 131 255
-0.58901381 -0.21970084 1.728 139 147 122 255
-0.58399528 -0.219586 1.7270001 162 170 145 255
-0.57931763 -0.21959853 1.7270001 128 136 110 255
-0.57497281 -0.21973848 1.728 124 133 104 255
-0.57062268 -0.21987866 1.7290001 147 156 125 255
-0.56593978 -0.21989191 1.7290001 150 159 130 255
-0.56125677 -0.21990535 1.7290001 153 162 133 255
-0.55592996 -0.21966462 1.7270001 152 162 136 255
-0.55125231 -0.21967846 1.7270001 154 164 139 255
-0.54625803 -0.21956527 1.7260001 150 160 135 255
-0.54158282 -0.2195795 1.7260001 150 160 135 255
-0.53690743 -0.21959388 1.7260001 151 161 136 255
-0.53223181 -0.21960844 1.7260001 144 152 127 255
-0.527556 -0.21962318 1.7260001 152 160 135 255
-0.52287996 -0.21963806 1.7260001 141 149 124 255
-0.51820356 -0.21965308 1.7260001 144 152 127 255
-0.51322931 -0.21954095 1.725 133 143 120 255
-0.50826025 -0.219429 1.7240001 170 180 157 255
-0.50300413 -0.21918985 1.7220001 152 162 139 255
-0.49746898 -0.21882348 1.7190001 143 153 130 255
-0.49252307 -0.21871179 1.7180001 143 153 127 255
-0.48815018 -0.21885483 1.7190001 121 129 103 255
-0.48377129 -0.21899796 1.72 123 131 105 255
-0.47910807 -0.21901387 1.72 151 159 133 255
-0.47416851 -0.21890256 1.7190001 140 148 122 255
-0.46950695 -0.21891867 1.7190001 139 147 121 255
-0.46511531 -0.21906215 1.72 143 151 125 255
-0.46018225 -0.21895105 1.7190001 136 144 118 255
-0.45525411 -0.21883997 1.7180001 131 141 115 255
-0.45059302 -0.2188563 1.7180001 166 178 153 255
-0.44541228 -0.21861792 1.7160001 146 158 133 255
-0.44049859 -0.21850692 1.715 132 142 117 255
-0.43609795 -0.21865077 1.7160001 126 136 110 255
-0.43143985 -0.2186673 1.7160001 131 139 113 255
-0.42727852 -0.21893866 1.7180001 126 135 106 255
-0.42261362 -0.21895522 1.7180001 129 140 111 255
-0.41843462 -0.21922672 1.72 142 152 126 255
-0.41352242 -0.21911587 1.7190001 169 181 156 255
-0.4081392 -0.21874999 1.7160001 152 165 138 255
-0.40300673 -0.21851161 1.7140001 149 159 133 255
-0.39741951 -0.21801814 1.71 136 147 118 255
-0.39254245 -0.21790712 1.7090001 134 143 112 255
-0.3874431 -0.2176685 1.7070001 131 140 109 255
-0.38280237 -0.21768494 1.7070001 134 143 112 255
-0.3781608 -0.21770127 1.7070001 127 136 105 255
-0.37308094 -0.21746252 1.705 128 137 108 255
-0.36844331 -0.21747877 1.705 131 141 115 255
-0.3633782 -0.21723987 1.7030001 169 177 151 255
-0.35853377 -0.21712844 1.702 137 147 121 255
-0.35369405 -0.21701689 1.7010001 114 124 98 255
-0.34865379 -0.21677773 1.6990001 147 157 131 255
-0.34362358 -0.21653841 1.697 154 164 138 255
-0.33880323 -0.21642663 1.6960001 150 160 135 255
-0.33379045 -0.2161871 1.6940001 144 156 133 255
-0.32917643 -0.21620271 1.6940001 149 161 138 255
-0.32437 -0.21609059 1.6930001 115 127 104 255
-0.31994596 -0.21623366 1.6940001 127 138 117 255
-0.31514335 -0.21612132 1.6930001 126 138 115 255
-0.31016198 -0.2158812 1.6910001 162 171 150 255
-0.30500999 -0.21551324 1.6880001 129 138 117 255
-0.30005157 -0.21527281 1.6860001 118 128 105 255
-0.2952784 -0.21515989 1.6850001 146 156 133 255
-0.29085499 -0.21530226 1.6860001 136 146 123 255
-0.28608572 -0.21518913 1.6850001 152 162 139 255
-0.28115404 -0.21494807 1.6830001 127 137 114 255
-0.27623251 -0.21470687 1.6810001 130 139 118 255
-0.27164429 -0.21472098 1.6810001 131 140 119 255
-0.26673758 -0.21447942 1.6790001 140 152 129 255
-0.26215324 -0.21449319 1.6790001 160 170 147 255
-0.2574147 -0.214379 1.6780001 119 131 108 255
-0.25283155 -0.21439245 1.6780001 146 156 133 255
-0.24795178 -0.21415022 1.6760001 142 152 129 255
-0.2432273 -0.21403551 1.6750001 146 156 133 255
-0.23850761 -0.21392062 1.674 149 161 136 255
-0.23407207 -0.21406117 1.6750001 155 167 142 255
-0.22935633 -0.2139459 1.674 184 197 170 255
-0.22424252 -0.21344705 1.6700001 88 101 74 255
-0.21941295 -0.21320355 1.6680001 140 150 124 255
-0.21472238 -0.21308765 1.6670001 134 143 114 255
-0.21016265 -0.21309942 1.6670001 128 137 108 255
-0.20560224 -0.21311097 1.6670001 130 138 112 255
-0.20092055 -0.21299449 1.6660001 154 162 136 255
-0.19647935 -0.21313342 1.6670001 152 162 136 255
-0.19180182 -0.21301652 1.6660001 134 146 123 255
-0.18724144 -0.21302725 1.6660001 129 139 116 255
-0.1825708 -0.21290988 1.6650001 147 158 137 255
-0.17790498 -0.21279226 1.664 148 159 138 255
-0.17324403 -0.21267445 1.6630001 148 159 138 255
-0.16848651 -0.21242848 1.6610001 136 146 121 255
-0.16364065 -0.21205437 1.6580001 152 164 139 255
-0.15900256 -0.2119358 1.6570001 151 163 138 255
-0.15455581 -0.21207282 1.6580001 150 162 137 255
-0.14992209 -0.21195377 1.6570001 149 159 134 255
-0.14520554 -0.21170655 1.6550001 148 160 137 255
-0.14041446 -0.21133116 1.6520001 161 171 148 255
-0.13563929 -0.21095552 1.649 153 164 143 255
-0.13103911 -0.21083546 1.6480001 156 165 146 255
-0.12667423 -0.21109894 1.6500001 93 102 83 255
-0.12237196 -0.21149018 1.6530001 27 25 5 255
-0.11798148 -0.21175322 1.6550001 64 52 35 255
-0.11323687 -0.21137626 1.6520001 72 57 38 255
-0.10863988 -0.21125494 1.651 90 67 47 255
-0.10398494 -0.2110054 1.649 87 64 44 255
-0.099400863 -0.21088354 1.6480001 93 69 51 255
-0.094706751 -0.21050549 1.6450001 100 76 58 255
-0.090083577 -0.21025513 1.6430001 108 81 66 255
-0.08541894 -0.20987652 1.6400001 110 83 68 255
-0.08072111 -0.20936964 1.636 104 77 62 255
-0.076091513 -0.2089905 1.6330001 103 76 61 255
-0.071434237 -0.20848304 1.6290001 100 73 58 255
-0.066880852 -0.20823127 1.6270001 96 69 54 255
-0.062338196 -0.20797925 1.6250001 93 66 51 255
-0.057948731 -0.20823888 1.6270001 94 67 52 255
-0.053449448 -0.2081143 1.626 97 70 55 255
-0.049015697 -0.20824543 1.6270001 97 73 57 255
-0.044576269 -0.2083763 1.628 98 74 58 255
-0.040131174 -0.2085069 1.6290001 88 65 51 255
-0.035680424 -0.20863721 1.6300001 88 65 51 255
-0.031185759 -0.20851126 1.6290001 85 64 50 255
-0.02672926 -0.20864107 1.6300001 87 66 54 255
-0.022226201 -0.20838654 1.628 91 68 54 255
-0.017744949 -0.20825978 1.6270001 87 64 50 255
-0.013260954 -0.20800473 1.6250001 88 63 51 255
-0.0087987231 -0.20800543 1.6250001 88 61 46 255
-0.0043337871 -0.2078778 1.6240001 88 61 46 255
0.00012575122 -0.20787792 1.6240001 82 58 42 255
0.0045937593 -0.20826179 1.6270001 74 52 36 255
0.0091060726 -0.20928544 1.6350001 71 51 35 255
0.013678917 -0.21056473 1.6450001 75 55 39 255
0.018262379 -0.21133175 1.651 74 54 38 255
0.0228373 -0.21171451 1.654 75 50 36 255
0.027412053 -0.21196899 1.6560001 84 56 45 255
0.72230643 -0.21859464 1.7210001 153 160 156 255
0.72487921 -0.21795815 1.7160001 155 162 158 255
0.72359985 -0.21617904 1.702 156 163 159 255
0.72481328 -0.21516256 1.6940001 157 166 161 255
0.72426218 -0.21363847 1.682 160 168 165 255
0.72624749 -0.21287699 1.6760001 161 169 166 255
0.72863787 -0.21224304 1.6710001 163 171 168 255
0.73012519 -0.21135554 1.664 162 169 166 255
0.72981024 -0.20996051 1.6530001 164 171 168 255
0.72988147 -0.20869297 1.6430001 164 172 169 255
0.73168784 -0.20793402 1.6370001 164 172 169 255
0.73346353 -0.20717558 1.631 167 174 171 255
0.73385125 -0.20603661 1.6220001 169 176 173 255
0.73464704 -0.20502515 1.6140001 169 176 173 255
0.73494339 -0.20388716 1.605 171 179 178 255
0.73611397 -0.20300378 1.598 172 180 179 255
0.73493171 -0.20148571 1.5860001 173 181 180 255
0.73415208 -0.20009513 1.575 176 184 183 255
0.73284578 -0.19857801 1.5630001 177 185 184 255
0.73289096 -0.19744253 1.554 177 184 181 255
0.73383796 -0.19656166 1.5470001 176 183 180 255
0.7347492 -0.19568129 1.5400001 178 185 182 255
0.73418504 -0.19442028 1.5300001 178 185 184 255
0.73356855 -0.19315968 1.5200001 180 187 186 255
0.73338521 -0.19202667 1.511 182 189 188 255
0.73315513 -0.19089417 1.5020001 184 191 190 255
-0.71325034 -0.22796825 1.7570001 205 214 203 255
-0.7048465 -0.22680469 1.748 184 193 181 255
-0.69849527 -0.2262903 1.7440001 177 187 170 255
-0.69057578 -0.22525728 1.7360001 171 182 163 255
-0.68428111 -0.22474368 1.7320001 184 195 176 255
-0.67800927 -0.22423048 1.728 167 178 159 255
-0.67253935 -0.22397718 1.7260001 178 189 170 255
-0.66746819 -0.22385405 1.725 176 187 168 255
-0.66278756 -0.22386105 1.725 186 195 176 255
-0.65772623 -0.2237387 1.7240001 168 177 156 255
-0.65342873 -0.22387625 1.725 155 164 143 255
-0.64875042 -0.22388437 1.725 150 160 137 255
-0.64481956 -0.22415246 1.7270001 145 155 130 255
-0.63976657 -0.22403152 1.7260001 135 145 120 255
-0.63545537 -0.22417052 1.7270001 157 165 139 255
-0.63113928 -0.22430982 1.728 134 142 116 255
-0.62645584 -0.22431968 1.728 139 148 119 255
-0.62177283 -0.22432987 1.728 149 155 129 255
-0.6163761 -0.22408073 1.7260001 153 159 133 255
-0.61134493 -0.22396164 1.725 151 159 133 255
-0.60702288 -0.22410254 1.7260001 146 154 128 255
-0.60269582 -0.22424376 1.7270001 141 149 123 255
-0.59836346 -0.22438523 1.728 139 147 121 255
-0.59368241 -0.22439715 1.728 148 156 131 255
-0.5890016 -0.22440934 1.728 160 168 143 255
-0.58398277 -0.22429191 1.7270001 167 175 150 255
-0.57896948 -0.22417471 1.7260001 158 168 142 255
-0.57429439 -0.2241876 1.7260001 132 141 112 255
-0.56961936 -0.22420076 1.7260001 146 155 124 255
-0.56527168 -0.22434402 1.7270001 149 158 127 255
-0.56091857 -0.22448754 1.728 138 147 118 255
-0.55591613 -0.22437143 1.7270001 149 157 131 255
-0.55059993 -0.22412558 1.725 157 167 142 255
-0.54561085 -0.22400984 1.7240001 158 168 145 255
-0.5412547 -0.22415417 1.725 157 167 144 255
-0.53689289 -0.22429867 1.7260001 156 166 141 255
-0.53221703 -0.22431341 1.7260001 147 157 132 255
-0.52723545 -0.22419836 1.725 136 144 118 255
-0.522259 -0.22408345 1.7240001 151 159 133 255
-0.51758796 -0.22409865 1.7240001 144 152 127 255
-0.51291651 -0.22411402 1.7240001 132 142 117 255
-0.50824475 -0.22412951 1.7240001 128 138 115 255
-0.50298852 -0.2238851 1.7220001 175 185 162 255
-0.4974533 -0.22351079 1.7190001 127 137 114 255
-0.49193391 -0.22313651 1.7160001 160 170 144 255
-0.48756638 -0.22328247 1.7170001 121 129 103 255
-0.48319283 -0.22342855 1.7180001 128 136 110 255
-0.47853494 -0.22344469 1.7180001 142 150 125 255
-0.47332487 -0.22320077 1.7160001 145 153 128 255
-0.46921754 -0.22347718 1.7180001 136 146 121 255
-0.46428782 -0.22336352 1.7170001 157 167 142 255
-0.45963052 -0.22337997 1.7170001 139 149 123 255
-0.45470774 -0.22326638 1.7160001 140 150 124 255
-0.45005202 -0.22328293 1.7160001 159 171 146 255
-0.44487664 -0.22303933 1.7140001 148 160 137 255
-0.44022524 -0.22305597 1.7140001 129 141 116 255
-0.43557313 -0.22307263 1.7140001 131 141 116 255
-0.43092036 -0.22308935 1.7140001 141 151 125 255
-0.42626706 -0.22310612 1.7140001 124 132 106 255
-0.421859 -0.22325303 1.715 128 138 112 255
-0.41744485 -0.22340004 1.7160001 149 159 134 255
