ply
format ascii 1.0
comment PCL generated
element vertex 996
property float x
property float y
property float z
property uchar red
property uchar green
property uchar blue
property uchar alpha
element camera 0
property float view_px
property float view_py
property float view_pz
property float x_axisx
property float x_axisy
property float x_axisz
property float y_axisx
property float y_axisy
property float y_axisz
property float z_axisx
property float z_axisy
property float z_axisz
property float focal
property float scalex
property float scaley
property float centerx
property float centery
property int viewportx
property int viewporty
property float k1
property float k2
end_header
-0.435321 -0.20565128 1.8510001 99 106 66 255
-0.42982611 -0.20544513 1.8490001 101 108 68 255
-0.42526031 -0.20568341 1.8510001 102 111 71 255
-0.42000172 -0.20558831 1.8500001 124 133 93 255
-0.41497204 -0.2056043 1.8500001 127 134 95 255
-0.40994143 -0.20562026 1.8500001 117 124 84 255
-0.40512887 -0.20574731 1.8510001 114 121 81 255
-0.40009385 -0.20576321 1.8510001 127 130 99 255
-0.39484453 -0.20566785 1.8500001 115 118 87 255
-0.38981038 -0.20568359 1.8500001 111 119 76 255
-0.38477546 -0.20569929 1.8500001 104 112 69 255
-0.38056067 -0.20615973 1.8540001 98 103 61 255
-0.37531045 -0.20606409 1.853 98 106 63 255
-0.37046447 -0.20619081 1.8540001 103 109 64 255
-0.36561203 -0.20631747 1.8550001 106 112 67 255
-0.36114204 -0.20666651 1.858 106 112 67 255
-0.35646313 -0.20690425 1.8600001 95 101 56 255
-0.35139459 -0.20691946 1.8600001 99 105 60 255
-0.34669748 -0.20715708 1.8620001 95 100 58 255
-0.34217203 -0.20750587 1.8650001 95 100 58 255
-0.33708706 -0.20752078 1.8650001 94 97 55 255
-0.33200121 -0.20753559 1.8650001 95 98 56 255
-0.32708964 -0.20766154 1.8660001 97 101 56 255
-0.32268947 -0.2081213 1.8700001 97 100 58 255
-0.31775704 -0.20824705 1.8710001 96 99 59 255
-0.3129853 -0.20848402 1.8730001 95 100 60 255
-0.30787301 -0.20849824 1.8730001 89 93 55 255
-0.30292138 -0.20862359 1.8740001 84 90 55 255
-0.29780456 -0.20863754 1.8740001 89 94 62 255
-0.29253066 -0.20853996 1.8730001 83 88 56 255
-0.28756818 -0.20866491 1.8740001 81 86 55 255
-0.28290084 -0.20901243 1.8770001 83 88 57 255
-0.27836415 -0.20947117 1.881 78 83 52 255
-0.27336898 -0.20959571 1.8820001 75 80 49 255
-0.26822501 -0.20960872 1.8820001 78 83 52 255
-0.26335964 -0.20984429 1.8840001 72 79 48 255
-0.25820848 -0.20985696 1.8840001 72 78 52 255
-0.25319076 -0.20998082 1.8850001 75 81 55 255
-0.24803513 -0.20999308 1.8850001 71 77 51 255
-0.24326521 -0.21033941 1.8880001 66 72 46 255
-0.23822583 -0.21046272 1.8890001 62 68 42 255
-0.23281004 -0.21025158 1.8870001 66 73 42 255
-0.22752506 -0.21015166 1.886 77 84 53 255
-0.22248054 -0.21027437 1.8870001 72 79 48 255
-0.21777529 -0.21073121 1.891 71 76 44 255
-0.21293494 -0.21107644 1.8940001 70 75 44 255
-0.20785804 -0.21119857 1.8950001 68 73 42 255
-0.20234713 -0.21087468 1.8920001 75 79 51 255
-0.19685192 -0.21055052 1.8890001 71 77 51 255
-0.19127095 -0.21011463 1.8850001 54 61 39 255
-0.18580996 -0.20978993 1.8820001 71 78 56 255
-0.18007675 -0.20913056 1.876 72 79 58 255
-0.17446902 -0.20858237 1.8710001 68 75 53 255
-0.16906907 -0.20825687 1.868 83 90 68 255
-0.1632461 -0.20737365 1.8600001 85 92 70 255
-0.15729636 -0.20626713 1.8500001 86 93 72 255
-0.15181223 -0.20571774 1.845 79 83 65 255
-0.14730948 -0.20650618 1.8520001 77 81 63 255
-0.14330533 -0.20807496 1.8660001 89 93 75 255
-0.1391498 -0.20953207 1.8790001 88 93 72 255
-0.13463718 -0.21054301 1.8880001 86 91 69 255
-0.13000609 -0.2114422 1.8960001 83 88 66 255
-0.12506728 -0.21189509 1.9000001 82 88 63 255
-0.12004297 -0.21223624 1.9030001 85 91 65 255
-0.11476038 -0.21213101 1.9020001 85 91 66 255
-0.10948283 -0.21202552 1.9010001 92 92 72 255
-0.1039361 -0.21136205 1.8950001 26 24 6 255
-0.098421894 -0.21069831 1.8890001 50 41 28 255
-0.092940256 -0.21003425 1.8830001 54 42 32 255
-0.087817453 -0.21015066 1.8840001 60 44 34 255
-0.082732692 -0.21037838 1.886 70 55 42 255
-0.077883355 -0.21127516 1.8940001 64 51 36 255
-0.072797887 -0.21161391 1.8970001 64 51 36 255
-0.067588761 -0.21161772 1.8970001 56 45 30 255
-0.061820358 -0.20972483 1.8800001 51 44 31 255
-0.055903982 -0.20693915 1.8550001 102 98 88 255
-0.050261647 -0.20471089 1.835 97 94 87 255
-0.044901475 -0.20326322 1.8220001 83 87 80 255
-0.039634421 -0.2019268 1.8100001 82 86 79 255
-0.03441399 -0.20047851 1.7970001 101 107 100 255
-0.029297635 -0.19925305 1.7860001 105 111 104 255
-0.024323532 -0.19869672 1.7810001 87 93 86 255
-0.019409532 -0.19847478 1.779 73 79 71 255
-0.014514604 -0.19836417 1.7780001 70 76 68 255
-0.0096251098 -0.19825326 1.7770001 69 75 67 255
-0.0047384021 -0.1980305 1.7750001 72 76 68 255
0.00013725934 -0.19769594 1.7720001 76 80 72 255
0.0049992632 -0.19747268 1.7700001 77 81 73 255
0.0098614004 -0.19747226 1.7700001 83 87 79 255
0.014690226 -0.19702533 1.766 80 86 78 255
0.019497018 -0.19657812 1.7620001 84 90 82 255
0.024295563 -0.19624221 1.7590001 87 93 85 255
0.029127205 -0.19624074 1.7590001 83 89 81 255
0.03392012 -0.19601588 1.7570001 86 92 85 255
0.038657811 -0.19556767 1.7530001 86 92 85 255
0.043447763 -0.19545384 1.7520001 89 95 88 255
0.048204504 -0.1952282 1.7500001 88 96 89 255
0.052980356 -0.19511388 1.7490001 86 94 87 255
0.057684425 -0.19477619 1.7460001 83 91 84 255
0.062443357 -0.19466135 1.7450001 86 94 87 255
0.067119487 -0.19432317 1.7420001 85 93 86 255
0.071902692 -0.19431938 1.7420001 80 88 81 255
0.076597571 -0.19409223 1.7400001 76 84 77 255
0.11625611 -0.19650447 1.7620001 72 78 71 255
0.12143414 -0.19705573 1.7670001 64 70 63 255
0.12635326 -0.19716065 1.7680001 67 73 66 255
0.1312774 -0.19726531 1.7690001 77 83 76 255
0.13620651 -0.19736971 1.7700001 84 90 83 255
0.14090149 -0.19713938 1.7680001 87 93 86 255
0.14566742 -0.19702032 1.7670001 81 87 80 255
0.15025696 -0.19667804 1.7640001 94 102 95 255
0.15447779 -0.19588961 1.7570001 105 111 104 255
0.15856899 -0.1949895 1.7490001 86 92 84 255
0.16308276 -0.19464667 1.7460001 85 91 83 255
0.16796409 -0.19474955 1.7470001 61 68 57 255
0.17265248 -0.19462928 1.7460001 75 81 73 255
0.17723317 -0.19439732 1.7440001 82 88 81 255
0.18148914 -0.19383079 1.7390001 99 105 98 255
0.1861455 -0.19370992 1.738 91 97 90 255
0.19046615 -0.1932545 1.7340001 84 90 83 255
0.1949894 -0.19302182 1.7320001 84 90 83 255
0.19961633 -0.1929004 1.7310001 77 83 75 255
0.204119 -0.19266735 1.7290001 65 71 63 255
0.20873082 -0.19254556 1.728 80 86 79 255
0.21333647 -0.19242363 1.7270001 100 106 99 255
0.21806218 -0.19241291 1.7270001 96 100 93 255
0.22278713 -0.19240201 1.7270001 74 78 71 255
0.22711608 -0.1920567 1.7240001 72 76 69 255
0.23142794 -0.19171128 1.7210001 82 86 79 255
0.23558536 -0.19125433 1.7170001 75 81 74 255
0.24055982 -0.19146557 1.7190001 100 106 99 255
0.2454017 -0.19156522 1.72 76 84 77 255
0.25039372 -0.19177608 1.7220001 75 83 76 255
0.25480327 -0.19154127 1.72 89 97 90 255
0.25920108 -0.19130635 1.7180001 64 72 64 255
0.26358721 -0.19107135 1.7160001 79 85 77 255
0.26796153 -0.19083619 1.7140001 81 87 79 255
0.27280137 -0.1909349 1.715 71 77 70 255
0.27732223 -0.19081084 1.7140001 92 98 91 255
0.2816723 -0.19057532 1.7120001 77 83 76 255
0.28617781 -0.19045101 1.7110001 79 85 78 255
0.29050714 -0.19021532 1.7090001 62 68 60 255
0.29551548 -0.19042465 1.7110001 100 104 96 255
0.29983217 -0.19018874 1.7090001 66 70 62 255
0.30449343 -0.19017528 1.7090001 75 79 71 255
0.30861115 -0.18982789 1.7060001 78 83 72 255
0.31326252 -0.18981422 1.7060001 93 98 87 255
0.31772673 -0.18968923 1.705 78 84 76 255
0.32218465 -0.18956414 1.7040001 74 80 72 255
0.32682806 -0.18955021 1.7040001 78 84 76 255
0.33205423 -0.18986988 1.7070001 88 94 86 255
0.33670413 -0.18985575 1.7070001 70 76 68 255
0.34135321 -0.18984155 1.7070001 72 78 70 255
0.34519064 -0.18938243 1.7030001 79 85 78 255
0.34962174 -0.18925692 1.702 74 80 73 255
0.35425466 -0.18924253 1.702 77 83 75 255
0.35888678 -0.18922809 1.702 81 87 79 255
0.36394528 -0.18943593 1.7040001 76 82 74 255
0.36858124 -0.18942137 1.7040001 81 87 79 255
0.37321636 -0.18940677 1.7040001 78 82 74 255
0.37762889 -0.18928094 1.7030001 78 82 74 255
0.38181078 -0.18904398 1.7010001 75 79 71 255
0.38620815 -0.18891814 1.7 81 86 75 255
0.39059934 -0.18879232 1.6990001 84 89 78 255
0.39544952 -0.1888887 1.7 79 84 73 255
0.39983374 -0.18876283 1.6990001 78 83 71 255
0.40444979 -0.18874806 1.6990001 77 82 70 255
0.40858358 -0.18851112 1.697 77 82 70 255
0.4134362 -0.18860742 1.6980001 78 83 72 255
0.41804737 -0.18859267 1.6980001 77 82 71 255
0.42315564 -0.18880004 1.7 70 75 64 255
0.42802247 -0.18889631 1.7010001 73 78 67 255
0.43314829 -0.18910365 1.7030001 69 74 63 255
0.43777028 -0.1890889 1.7030001 75 78 66 255
0.44265136 -0.1891852 1.7040001 72 75 63 255
0.44806218 -0.18950358 1.7070001 73 76 64 255
0.45348868 -0.1898219 1.71 71 74 62 255
0.45812708 -0.18980725 1.71 72 75 63 255
0.46222365 -0.18957067 1.7080001 71 76 65 255
0.46603549 -0.1892232 1.705 70 75 64 255
0.47038248 -0.18909778 1.7040001 72 77 65 255
0.4744449 -0.18886147 1.702 72 77 66 255
0.47962177 -0.18906914 1.7040001 73 78 67 255
0.48452476 -0.18916586 1.705 73 78 67 255
0.48971963 -0.18937361 1.7070001 71 76 65 255
0.49434558 -0.18935955 1.7070001 72 76 68 255
0.49897122 -0.18934557 1.7070001 72 76 68 255
0.50359648 -0.18933171 1.7070001 69 75 67 255
0.50822121 -0.18931796 1.7070001 68 74 67 255
0.5122447 -0.1890825 1.705 70 76 68 255
0.51565081 -0.18862545 1.7010001 74 80 72 255
0.51934075 -0.18827945 1.6980001 76 83 72 255
0.52332276 -0.1880445 1.6960001 81 88 77 255
0.52791607 -0.18803145 1.6960001 80 87 76 255
0.53219533 -0.1879077 1.6950001 78 85 74 255
0.5367856 -0.18789497 1.6950001 76 83 72 255
0.541695 -0.18799321 1.6960001 76 83 72 255
0.54693186 -0.18820246 1.6980001 77 84 73 255
0.5521794 -0.18841185 1.7 77 84 73 255
0.55612767 -0.18817808 1.6980001 79 86 75 255
0.56006497 -0.18794452 1.6960001 77 84 73 255
0.56432426 -0.18782198 1.6950001 85 90 79 255
0.56992084 -0.18814285 1.6980001 80 85 74 255
0.57519531 -0.18835311 1.7 75 80 69 255
0.58082175 -0.18867432 1.7030001 74 79 68 255
0.58405817 -0.1882202 1.6990001 67 74 62 255
0.58796597 -0.18798792 1.697 57 64 52 255
0.5925616 -0.18797743 1.697 70 75 64 255
0.59821302 -0.18829946 1.7 78 83 72 255
0.60352635 -0.18851092 1.702 39 44 33 255
0.60706437 -0.18816888 1.6990001 50 55 44 255
0.61166638 -0.18815933 1.6990001 66 71 60 255
0.61735696 -0.18848228 1.702 75 82 70 255
0.62452602 -0.1892484 1.7090001 57 64 52 255
0.62989265 -0.18946105 1.7110001 53 60 48 255
0.63452899 -0.18945251 1.7110001 56 63 51 255
0.63841867 -0.18922281 1.7090001 66 73 61 255
0.64305079 -0.18921489 1.7090001 67 72 60 255
0.64692545 -0.18898582 1.7070001 74 77 65 255
0.65155333 -0.18897846 1.7070001 16 19 7 255
0.65387547 -0.18830721 1.7010001 20 23 11 255
0.65848863 -0.18830052 1.7010001 19 22 10 255
0.66427201 -0.18862626 1.7040001 19 22 8 255
0.67203534 -0.18950577 1.7120001 21 24 10 255
0.67430925 -0.18883589 1.7060001 20 23 9 255
0.67655158 -0.18816639 1.7 19 24 10 255
0.68156731 -0.1882721 1.7010001 22 25 11 255
0.68578267 -0.18815678 1.7 22 26 9 255
0.68958753 -0.18793117 1.6980001 23 27 10 255
0.69256502 -0.18748458 1.6940001 24 28 10 255
0.70046061 -0.18836644 1.702 28 30 12 255
0.7096439 -0.18958072 1.7130001 23 27 9 255
0.71138245 -0.18880329 1.7060001 26 30 13 255
0.71308434 -0.18802626 1.6990001 23 29 12 255
0.71601689 -0.18758167 1.6950001 23 29 12 255
0.72360581 -0.18835485 1.702 17 25 8 255
0.73080665 -0.18901779 1.7080001 15 25 10 255
0.73502749 -0.18890648 1.7070001 100 109 97 255
0.73621142 -0.18802094 1.6990001 118 126 118 255
0.73866159 -0.18746787 1.6940001 138 146 138 255
0.74064749 -0.18680458 1.6880001 147 155 148 255
0.7417196 -0.18592039 1.6800001 155 163 156 255
0.74141729 -0.18470466 1.669 158 166 159 255
0.74329174 -0.18404272 1.6630001 161 169 162 255
0.74558526 -0.18349195 1.6580001 164 171 167 255
0.74740094 -0.18283091 1.6520001 164 171 167 255
0.74645513 -0.18150632 1.6400001 167 174 170 255
0.74590379 -0.18029283 1.6290001 170 177 173 255
0.74575514 -0.17919049 1.6190001 170 177 173 255
0.74694425 -0.17842063 1.6120001 173 181 174 255
0.74809718 -0.17765121 1.605 173 181 174 255
0.74874556 -0.1767716 1.5970001 174 182 175 255
0.75029576 -0.17611383 1.5910001 174 181 177 255
0.7503925 -0.17512442 1.582 178 185 181 255
0.75091952 -0.17424618 1.5740001 177 184 180 255
0.75140536 -0.17336839 1.5660001 182 187 183 255
0.75329775 -0.17282321 1.5610001 182 189 185 255
0.75273865 -0.17172492 1.5510001 184 191 187 255
0.75261551 -0.17073777 1.5420001 185 192 188 255
0.75391835 -0.17008328 1.536 186 194 187 255
0.75667185 -0.16976149 1.5330001 186 193 189 255
0.75792271 -0.16910799 1.5270001 188 195 191 255
0.75864458 -0.16834421 1.5200001 190 197 193 255
0.75832719 -0.1673594 1.511 193 198 195 255
0.75745875 -0.16626427 1.501 193 198 195 255
-0.72402412 -0.20640756 1.8200001 184 189 178 255
-0.71631843 -0.20561941 1.8130001 227 232 220 255
-0.70786703 -0.20460477 1.8040001 219 227 212 255
-0.70102412 -0.20404413 1.7990001 211 219 204 255
-0.69420922 -0.20348379 1.794 215 223 206 255
-0.68742239 -0.20292377 1.789 219 227 210 255
-0.67951888 -0.20202377 1.7810001 221 230 211 255
-0.67279589 -0.20146435 1.7760001 170 179 160 255
-0.66647691 -0.20101862 1.7720001 178 187 168 255
-0.66167384 -0.20102698 1.7720001 179 186 164 255
-0.65538871 -0.20058182 1.7680001 143 150 128 255
-0.65059769 -0.20059079 1.7680001 175 183 157 255
-0.64507651 -0.20037308 1.766 188 196 170 255
-0.6406545 -0.20049606 1.7670001 167 176 147 255
-0.63514793 -0.20027894 1.7650001 136 145 116 255
-0.6303668 -0.200289 1.7650001 130 137 108 255
-0.62523168 -0.20018582 1.7640001 134 141 112 255
-0.62045389 -0.2001964 1.7640001 132 139 108 255
-0.61567652 -0.20020725 1.7640001 133 138 107 255
-0.61228454 -0.20067234 1.7680001 130 135 103 255
-0.60852736 -0.2010242 1.771 133 137 102 255
-0.60441345 -0.20126285 1.7730001 130 134 99 255
-0.60062683 -0.20161523 1.7760001 132 136 101 255
-0.59648865 -0.20185436 1.7780001 134 138 102 255
-0.59267241 -0.20220728 1.7810001 132 136 100 255
-0.58784968 -0.20221978 1.7810001 135 139 103 255
-0.58433646 -0.20268673 1.7850001 134 138 102 255
-0.58080143 -0.20315391 1.789 137 139 103 255
-0.5772447 -0.20362134 1.7930001 136 138 102 255
-0.57238925 -0.20363471 1.7930001 135 137 101 255
-0.56753355 -0.20364825 1.7930001 138 140 104 255
-0.56299162 -0.20377555 1.794 139 141 105 255
-0.5587551 -0.20401666 1.7960001 142 144 106 255
-0.55450743 -0.20425791 1.7980001 136 138 100 255
-0.54994303 -0.20438573 1.7990001 131 133 95 255
-0.5459789 -0.20474097 1.802 131 133 95 255
-0.54169798 -0.20498277 1.8040001 134 136 98 255
-0.53859597 -0.20567925 1.8100001 133 137 101 255
-0.5348714 -0.20614868 1.8140001 132 136 100 255
-0.53200126 -0.20695925 1.8210001 134 138 100 255
-0.52793485 -0.20731539 1.8240001 125 129 91 255
-0.52356499 -0.20755802 1.8260001 114 118 80 255
-0.51889998 -0.20768714 1.8270001 93 99 63 255
-0.51451015 -0.20793003 1.8290001 98 104 68 255
-0.50983047 -0.20805934 1.83 98 106 70 255
-0.50486887 -0.20807508 1.83 98 106 70 255
-0.50045305 -0.20831826 1.8320001 104 112 76 255
-0.4957554 -0.20844787 1.8330001 112 119 80 255
-0.49131933 -0.20869128 1.835 113 120 81 255
-0.48660687 -0.20882103 1.8360001 102 109 70 255
-0.48215055 -0.20906462 1.8380001 103 110 70 255
-0.47742313 -0.20919451 1.8390001 103 110 70 255
-0.47268957 -0.20932446 1.84 106 113 73 255
-0.46769574 -0.20934071 1.84 109 116 76 255
-0.46270114 -0.20935696 1.84 118 125 86 255
-0.45770586 -0.20937325 1.84 116 121 81 255
-0.45270976 -0.20938954 1.84 106 110 72 255
-0.44819966 -0.20963348 1.8420001 110 115 75 255
-0.444159 -0.21010508 1.8460001 111 116 76 255
-0.43938226 -0.21023527 1.8470001 112 117 75 255
-0.43459919 -0.21036544 1.848 106 113 73 255
-0.42957747 -0.21038181 1.848 107 115 72 255
-0.42478463 -0.210512 1.8490001 105 114 74 255
-0.41975856 -0.21052834 1.8490001 131 140 101 255
-0.41473156 -0.21054462 1.8490001 127 134 95 255
-0.40948215 -0.21044698 1.848 112 119 80 255
-0.4046751 -0.21057709 1.8490001 109 117 81 255
-0.39921325 -0.21036547 1.8470001 124 130 94 255
-0.39418828 -0.21038155 1.8470001 126 133 94 255
-0.38937312 -0.21051152 1.848 113 120 80 255
-0.38455167 -0.21064143 1.8490001 117 124 84 255
-0.38013434 -0.21099915 1.8520001 119 127 82 255
-0.37509224 -0.21101502 1.8520001 110 118 73 255
-0.37024897 -0.21114478 1.853 107 115 70 255
-0.36539942 -0.21127447 1.8540001 119 125 80 255
-0.3609322 -0.21163198 1.8570001 112 118 73 255
-0.35606444 -0.21176153 1.858 99 107 62 255
-0.35119033 -0.211891 1.8590001 99 107 62 255
-0.34630987 -0.2120204 1.8600001 99 107 64 255
-0.34178996 -0.21237765 1.863 101 106 64 255
-0.33652985 -0.21227886 1.8620001 101 104 62 255
-0.33127427 -0.21217993 1.8610001 96 99 57 255
-0.32637376 -0.2123089 1.8620001 102 105 63 255
-0.32198456 -0.21277983 1.8660001 100 103 63 255
-0.31706315 -0.2129086 1.8670001 96 99 59 255
-0.3119683 -0.21292318 1.8670001 96 101 61 255
-0.30687252 -0.21293762 1.8670001 93 97 59 255
-0.30209908 -0.21318004 1.8690001 85 91 56 255
-0.29731387 -0.21342236 1.8710001 91 96 64 255
-0.29204834 -0.21332231 1.8700001 85 90 58 255
-0.28724763 -0.21356432 1.8720001 84 89 58 255
-0.28243515 -0.21380623 1.8740001 81 86 54 255
-0.27775887 -0.21416207 1.8770001 81 88 56 255
-0.27277482 -0.21428958 1.8780001 79 86 55 255
-0.2676419 -0.21430281 1.8780001 78 85 54 255
-0.26278767 -0.21454409 1.8800001 70 77 46 255
-0.25778463 -0.21467109 1.881 81 88 59 255
-0.25264099 -0.2146838 1.881 76 83 54 255
-0.24762809 -0.21481045 1.8820001 74 81 52 255
-0.24286656 -0.2151652 1.8850001 74 81 52 255
-0.23796168 -0.21540561 1.8870001 74 81 52 255
-0.23279832 -0.21541755 1.8870001 77 84 53 255
-0.22739294 -0.21520098 1.8850001 84 89 57 255
-0.22235136 -0.21532662 1.886 74 80 45 255
-0.21730357 -0.21545213 1.8870001 73 79 44 255
-0.21258678 -0.21591991 1.891 74 80 45 255
-0.20751831 -0.21604501 1.8920001 77 82 50 255
-0.20233668 -0.21605566 1.8920001 79 84 53 255
-0.19715433 -0.21606611 1.8920001 58 65 36 255
-0.19217418 -0.2163047 1.8940001 76 83 54 255
-0.18708369 -0.21642891 1.8950001 75 83 57 255
-0.18169907 -0.21621022 1.8930001 74 82 57 255
-0.17632474 -0.21599124 1.891 67 75 49 255
-0.17114174 -0.21600051 1.891 73 81 55 255
-0.16587034 -0.21589528 1.8900001 60 66 40 255
-0.16043375 -0.21556132 1.8870001 80 86 61 255
-0.15517758 -0.21545553 1.886 78 84 59 255
-0.150324 -0.21592073 1.8900001 82 88 63 255
-0.1455247 -0.21649994 1.8950001 84 89 67 255
-0.14069742 -0.21707894 1.9000001 86 92 67 255
-0.13569954 -0.21742921 1.9030001 91 95 69 255
-0.13068472 -0.21777922 1.9060001 85 91 65 255
-0.12565291 -0.21812901 1.909 82 86 58 255
-0.120478 -0.21824999 1.9100001 89 94 63 255
-0.11517648 -0.2181422 1.909 90 94 66 255
-0.10999518 -0.21826266 1.9100001 98 97 73 255
-0.10480794 -0.21838284 1.9110001 34 31 10 255
-0.099719018 -0.2187313 1.914 56 43 28 255
-0.094366454 -0.21850809 1.9120001 61 46 33 255
-0.089164324 -0.21862745 1.9130001 64 48 33 255
-0.083912492 -0.21863225 1.9130001 64 46 30 255
-0.07886593 -0.21920823 1.9180001 63 47 31 255
-0.07371483 -0.21955533 1.9210001 60 44 28 255
-0.068440095 -0.21955928 1.9210001 59 45 28 255
-0.062836267 -0.21842001 1.9110001 53 40 25 255
-0.056985758 -0.21613739 1.891 47 38 25 255
-0.051107924 -0.21328294 1.8660001 111 107 97 255
-0.045539696 -0.21122825 1.848 101 100 94 255
-0.040179633 -0.20974469 1.835 104 105 99 255
-0.034909971 -0.20837519 1.8230001 109 110 104 255
-0.029820908 -0.20780548 1.8180001 106 107 101 255
-0.02486844 -0.20814992 1.8210001 86 88 80 255
-0.019801205 -0.20746535 1.8150001 79 81 73 255
-0.014734196 -0.20632325 1.8050001 81 83 73 255
-0.009749148 -0.2057524 1.8000001 80 82 74 255
-0.0047941962 -0.20529561 1.7960001 95 95 87 255
0.0001388783 -0.20495281 1.7930001 89 91 83 255
0.0050554709 -0.20460972 1.7900001 92 92 84 255
0.0099667041 -0.204495 1.789 93 93 85 255
0.01484745 -0.20403707 1.7850001 90 92 84 255
0.019684032 -0.20335026 1.779 91 93 85 255
0.024446141 -0.20232029 1.7700001 90 94 86 255
0.029208381 -0.20163295 1.7640001 85 91 83 255
0.062225215 -0.19875753 1.7390001 72 80 73 255
0.13673787 -0.20301826 1.7770001 79 85 78 255
0.14177059 -0.20323925 1.779 90 98 91 255
0.14640157 -0.20288877 1.7760001 95 103 96 255
0.15076004 -0.20219536 1.7700001 98 106 99 255
0.15490918 -0.20127332 1.7620001 105 111 104 255
0.15901393 -0.20035115 1.7540001 94 100 93 255
0.1636346 -0.20011412 1.7520001 90 96 88 255
0.16853213 -0.20021953 1.7530001 64 70 62 255
0.17323676 -0.20009629 1.7520001 71 77 69 255
0.17763042 -0.19963022 1.748 80 86 79 255
0.18200152 -0.19916399 1.7440001 94 102 95 255
0.18635009 -0.19869758 1.7400001 101 107 100 255
0.19089569 -0.19845937 1.738 91 97 90 255
0.19531715 -0.19810683 1.7350001 86 92 85 255
0.2000674 -0.19809662 1.7350001 76 82 74 255
0.20446278 -0.1977437 1.7320001 67 73 65 255
0.20908265 -0.19761895 1.7310001 83 89 82 255
0.21369632 -0.19749403 1.7300001 100 106 99 255
0.21830375 -0.1973689 1.7290001 104 108 101 255
0.222905 -0.19724365 1.728 74 78 71 255
0.22723655 -0.19688989 1.725 73 77 70 255
0.23155096 -0.19653603 1.7220001 81 85 78 255
0.23584819 -0.19618203 1.7190001 87 93 86 255
0.24068798 -0.19628435 1.72 99 105 98 255
0.24553245 -0.1963865 1.7210001 67 73 66 255
0.25009081 -0.19626026 1.72 77 83 76 255
0.25493917 -0.19636208 1.7210001 94 100 93 255
0.2593396 -0.19612142 1.7190001 67 73 65 255
0.26388186 -0.19599475 1.7180001 78 84 76 255
0.26810521 -0.19563979 1.715 81 87 80 255
0.27278858 -0.19562691 1.715 79 85 78 255
0.27714753 -0.1953858 1.7130001 97 103 96 255
0.28182372 -0.19537266 1.7130001 74 80 73 255
0.28616464 -0.19513133 1.7110001 83 89 82 255
0.29083377 -0.19511792 1.7110001 61 67 59 255
0.29550207 -0.19510444 1.7110001 98 102 94 255
0.30016953 -0.19509082 1.7110001 73 77 69 255
0.30465791 -0.19496302 1.71 72 76 68 255
0.30877832 -0.19460718 1.7070001 80 85 74 255
0.31306508 -0.19436525 1.705 94 99 88 255
0.31789917 -0.19446522 1.7060001 78 84 76 255
0.32217064 -0.19422315 1.7040001 80 86 78 255
0.32681397 -0.19420893 1.7040001 77 83 75 255
0.33184549 -0.19442254 1.7060001 88 94 87 255
0.33668983 -0.1945221 1.7070001 72 78 71 255
0.34113887 -0.19439368 1.7060001 72 78 71 255
0.34517622 -0.1940373 1.7030001 79 85 78 255
0.34940183 -0.19379482 1.7010001 76 82 75 255
0.35424012 -0.19389409 1.702 86 92 85 255
0.35866135 -0.19376545 1.7010001 81 87 79 255
0.36350343 -0.19386457 1.702 77 83 75 255
0.3679176 -0.19373585 1.7010001 83 89 81 255
0.37254453 -0.19372098 1.7010001 87 91 83 255
0.37717059 -0.19370604 1.7010001 81 85 77 255
0.38157147 -0.19357722 1.7 78 82 74 255
0.38596615 -0.19344839 1.6990001 80 85 74 255
0.3905845 -0.19343339 1.6990001 81 86 75 255
0.39520201 -0.19341837 1.6990001 78 83 72 255
0.39958349 -0.19328949 1.6980001 81 86 75 255
0.40372074 -0.19304681 1.6960001 80 85 73 255
0.40856865 -0.19314557 1.697 79 84 72 255
0.41317782 -0.19313054 1.697 81 86 74 255
0.41827866 -0.19334309 1.6990001 80 85 74 255
0.4228918 -0.19332804 1.6990001 77 82 71 255
0.42725268 -0.19319923 1.6980001 79 84 73 255
0.43211609 -0.193298 1.6990001 75 80 69 255
0.43698427 -0.19339676 1.7 78 83 71 255
0.44185725 -0.19349556 1.7010001 78 81 69 255
0.4472599 -0.19382185 1.7040001 74 77 65 255
0.4521479 -0.19392066 1.705 75 78 66 255
0.45730856 -0.19413324 1.7070001 75 78 66 255
0.46193838 -0.1941184 1.7070001 69 74 63 255
0.46574757 -0.19376245 1.7040001 72 77 66 255
0.47009197 -0.19363406 1.7030001 74 79 68 255
0.47443044 -0.19350573 1.702 75 80 69 255
0.47960734 -0.19371857 1.7040001 74 78 70 255
0.48451042 -0.19381775 1.705 72 76 68 255
0.48941851 -0.19391704 1.7060001 71 76 65 255
0.49375227 -0.19378908 1.705 74 78 70 255
0.49837261 -0.19377486 1.705 74 78 70 255
0.50328749 -0.19387442 1.7060001 69 75 67 255
0.50820732 -0.19397405 1.7070001 69 75 67 255
0.51253152 -0.19384655 1.7060001 69 75 67 255
0.51563722 -0.19326469 1.7010001 73 79 71 255
0.51932734 -0.19291028 1.6980001 75 81 73 255
0.52269244 -0.19244245 1.6940001 82 88 80 255
0.52696925 -0.19231561 1.6930001 80 86 78 255
0.5318684 -0.19241609 1.6940001 81 88 77 255
0.53708947 -0.19263029 1.6960001 81 88 77 255
0.54200172 -0.19273105 1.697 80 87 76 255
0.54788566 -0.19317266 1.7010001 81 88 76 255
0.55281663 -0.19327372 1.702 78 85 73 255
0.55677044 -0.19303428 1.7 79 86 74 255
0.56005305 -0.19256799 1.6960001 79 84 72 255
0.56397963 -0.19232899 1.6940001 80 85 74 255
0.56890243 -0.19243082 1.6950001 85 89 81 255
0.57416886 -0.19264634 1.697 82 86 78 255
0.57978737 -0.19297557 1.7 77 81 73 255
0.58370352 -0.19273745 1.6980001 70 76 68 255
0.58726239 -0.19238605 1.6950001 66 73 62 255
0.59220195 -0.19248892 1.6960001 62 69 58 255
0.59785098 -0.192819 1.6990001 71 78 67 255
0.60316175 -0.19303577 1.7010001 30 37 25 255
0.60669726 -0.19268538 1.6980001 56 61 49 255
0.61129683 -0.19267572 1.6980001 72 77 65 255
0.61662233 -0.19289327 1.7 80 85 73 255
0.62305534 -0.19345142 1.705 53 58 46 255
0.62804323 -0.193556 1.7060001 56 61 49 255
0.63303715 -0.19366083 1.7070001 59 66 54 255
0.63728988 -0.19353905 1.7060001 68 75 63 255
0.64116156 -0.19330417 1.7040001 67 74 62 255
0.64502299 -0.19306956 1.702 72 77 65 255
0.64963752 -0.19306216 1.702 19 22 10 255
0.65233094 -0.19248794 1.697 20 23 11 255
0.6561594 -0.19225439 1.6950001 20 23 9 255
0.66075724 -0.19224799 1.6950001 20 23 9 255
0.66653377 -0.1925822 1.6980001 19 22 8 255
0.67074639 -0.19246307 1.697 20 23 9 255
0.67495459 -0.19234432 1.6960001 20 23 9 255
0.68076116 -0.19267955 1.6990001 22 25 11 255
0.68416464 -0.19233473 1.6960001 20 24 7 255
0.6867407 -0.19176345 1.6910001 22 26 9 255
0.68929064 -0.19119258 1.6860001 25 29 12 255
0.69510722 -0.19152932 1.6890001 26 30 13 255
0.70218414 -0.19220664 1.6950001 24 28 11 255
0.70929497 -0.19288433 1.7010001 21 25 8 255
0.7076261 -0.19118118 1.6860001 24 28 11 255
0.70841157 -0.1901588 1.677 26 30 13 255
0.7155267 -0.19083774 1.6830001 26 30 13 255
0.72567129 -0.19231087 1.6960001 25 30 16 255
0.73029053 -0.19231035 1.6960001 14 21 9 255
0.7331782 -0.19185668 1.692 112 121 110 255
0.73648185 -0.19151688 1.6890001 136 144 136 255
0.7402097 -0.19129093 1.687 149 157 150 255
0.74172109 -0.1904985 1.6800001 154 162 155 255
0.7427519 -0.18959312 1.6720001 161 169 162 255
0.74374115 -0.18868823 1.664 163 171 164 255
0.74513835 -0.18789719 1.6570001 164 171 167 255
0.74604696 -0.18699323 1.649 165 172 168 255
0.74509352 -0.18563613 1.6370001 168 175 171 255
0.74590808 -0.18473306 1.6290001 171 178 174 255
0.74622059 -0.1837171 1.6200001 169 176 172 255
0.74787623 -0.18304181 1.6140001 174 181 177 255
0.74903524 -0.18225358 1.6070001 172 179 175 255
0.74968958 -0.18135241 1.5990001 174 182 175 255
0.75030249 -0.18045172 1.5910001 175 183 176 255
0.74992543 -0.17932466 1.5810001 177 185 178 255
0.74997318 -0.17831145 1.572 181 186 182 255
0.75093377 -0.17752558 1.5650001 180 185 181 255
0.75185871 -0.17674018 1.5580001 178 185 181 255
0.75177729 -0.1757284 1.549 182 189 185 255
0.75164914 -0.17471704 1.5400001 185 192 188 255
0.75343776 -0.17415999 1.5350001 186 193 189 255
0.75618905 -0.17383038 1.5320001 186 193 189 255
0.75843048 -0.17338784 1.5280001 188 195 191 255
0.75765824 -0.17226495 1.5180001 192 197 194 255
0.75733596 -0.17125596 1.5090001 191 196 193 255
-0.71021497 -0.21021646 1.8100001 220 225 214 255
-0.70062786 -0.20882922 1.7980001 223 230 218 255
-0.69265443 -0.20790687 1.7900001 207 215 200 255
-0.68741506 -0.20779786 1.789 211 219 202 255
-0.68103731 -0.20734075 1.7850001 212 221 202 255
-0.67543972 -0.20711628 1.7830001 220 229 210 255
-0.66910136 -0.20665975 1.779 201 211 188 255
-0.66390568 -0.20655206 1.7780001 147 155 129 255
-0.65834534 -0.2063285 1.7760001 143 150 121 255
-0.65390033 -0.20645377 1.7770001 151 158 127 255
-0.64945042 -0.20657934 1.7780001 184 191 160 255
-0.644633 -0.20658904 1.7780001 179 186 157 255
-0.63945615 -0.20648283 1.7770001 178 185 156 255
-0.633928 -0.20626067 1.7750001 171 178 147 255
-0.62911993 -0.20627122 1.7750001 161 168 137 255
-0.62290514 -0.20581712 1.771 135 142 111 255
-0.61810851 -0.20582815 1.771 131 136 104 255
-0.61365843 -0.20595567 1.7720001 133 139 104 255
-0.61023384 -0.20643212 1.7760001 136 140 104 255
-0.6061061 -0.20667642 1.7780001 133 137 101 255
-0.60196751 -0.20692092 1.7800001 130 134 98 255
-0.59815371 -0.20728199 1.7830001 131 135 97 255
-0.59432375 -0.2076433 1.7860001 135 137 99 255
-0.58981723 -0.2077723 1.7870001 135 137 99 255
-0.58596027 -0.20813411 1.7900001 140 142 104 255
-0.5820868 -0.20849615 1.7930001 136 139 99 255
-0.57787514 -0.20874213 1.7950001 138 141 101 255
-0.57301408 -0.20875573 1.7950001 138 140 102 255
-0.56878591 -0.20900214 1.7970001 135 137 99 255
-0.56454676 -0.20924875 1.7990001 134 136 98 255
-0.56060755 -0.20961185 1.802 129 131 95 255
-0.5569604 -0.21009153 1.8060001 137 139 103 255
-0.55267984 -0.21033873 1.8080001 135 138 98 255
-0.54929703 -0.21093515 1.8130001 135 137 99 255
-0.54558671 -0.21141542 1.817 134 136 98 255
-0.54215175 -0.21201229 1.8220001 133 138 98 255
-0.53780484 -0.21226025 1.8240001 105 110 70 255
-0.53403091 -0.21274108 1.8280001 110 117 78 255
-0.52907717 -0.21275659 1.8280001 108 115 76 255
-0.52440965 -0.21288858 1.8290001 113 120 81 255
-0.51945239 -0.21290432 1.8290001 112 119 80 255
-0.51477575 -0.21303652 1.83 111 118 79 255
-0.51009327 -0.21316887 1.8310001 115 121 85 255
-0.50512892 -0.21318488 1.8310001 119 125 89 255
-0.50043708 -0.21331741 1.8320001 117 124 85 255
-0.49573928 -0.21345 1.8330001 121 127 91 255
-0.49103549 -0.21358271 1.8340001 126 132 96 255
-0.48606062 -0.21359901 1.8340001 116 122 86 255
-0.48108503 -0.21361536 1.8340001 105 111 75 255
-0.47610876 -0.21363176 1.8340001 104 110 74 255
-0.47164568 -0.21388119 1.8360001 107 113 77 255
-0.46717098 -0.2141307 1.8380001 106 112 77 255
-0.46218184 -0.21414724 1.8380001 122 130 95 255
-0.45694318 -0.21404728 1.8370001 126 132 97 255
-0.45195526 -0.21406385 1.8370001 111 118 86 255
-0.44745323 -0.21431352 1.8390001 116 124 89 255
-0.44318011 -0.21467975 1.8420001 110 118 82 255
-0.4386521 -0.21492951 1.8440001 109 115 79 255
-0.4338772 -0.21506269 1.845 109 117 81 255
-0.42863119 -0.21496277 1.8440001 109 117 81 255
-0.42384925 -0.21509597 1.845 113 122 83 255
-0.41906103 -0.21522914 1.8460001 123 132 93 255
-0.41426659 -0.21536233 1.8470001 136 143 104 255
-0.40924424 -0.21537887 1.8470001 114 121 82 255
-0.40422106 -0.21539538 1.8470001 113 120 81 255
-0.39898089 -0.2152952 1.8460001 133 140 101 255
-0.39395869 -0.21531159 1.8460001 127 134 95 255
-0.3891463 -0.21544456 1.8470001 110 117 78 255
-0.38432756 -0.2155775 1.848 114 121 82 255
-0.37950253 -0.21571039 1.8490001 115 119 81 255
-0.37467119 -0.21584322 1.8500001 116 120 82 255
-0.3696337 -0.21585931 1.8500001 107 111 73 255
-0.36459523 -0.2158753 1.8500001 128 133 93 255
-0.35994464 -0.21612459 1.8520001 115 122 82 255
-0.35528225 -0.21637383 1.8540001 111 119 76 255
-0.35079694 -0.21673973 1.8570001 105 113 70 255
-0.3461082 -0.21698885 1.8590001 104 109 67 255
-0.34104076 -0.21700443 1.8590001 104 109 67 255
-0.33579168 -0.21690315 1.858 104 107 67 255
-0.3307251 -0.21691848 1.858 102 105 65 255
-0.32618344 -0.21728395 1.8610001 110 113 73 255
-0.32145199 -0.21753258 1.863 102 105 65 255
-0.31670871 -0.21778111 1.8650001 99 101 63 255
-0.31145236 -0.21767917 1.8640001 101 105 67 255
-0.30636492 -0.21769388 1.8640001 98 102 64 255
-0.30127656 -0.21770845 1.8640001 97 101 65 255
-0.29650515 -0.21795645 1.8660001 94 100 65 255
-0.29156572 -0.21808752 1.8670001 93 99 64 255
-0.28677341 -0.21833526 1.8690001 94 100 65 255
-0.28196925 -0.21858287 1.8710001 87 93 58 255
-0.27715334 -0.21883033 1.8730001 88 95 63 255
-0.27218041 -0.21896082 1.8740001 81 86 54 255
-0.26705861 -0.21897428 1.8740001 85 92 61 255
-0.26193595 -0.21898755 1.8740001 82 89 58 255
-0.25708652 -0.21923438 1.876 84 91 60 255
-0.25209105 -0.21936415 1.8770001 83 88 57 255
-0.24722084 -0.21961063 1.8790001 84 91 60 255
-0.24221006 -0.21974005 1.8800001 82 89 58 255
-0.23719291 -0.21986926 1.881 84 91 60 255
-0.23204619 -0.21988139 1.881 86 93 62 255
-0.22689869 -0.21989331 1.881 84 91 59 255
-0.22186829 -0.22002193 1.8820001 80 86 51 255
-0.2169468 -0.22026725 1.8840001 84 90 55 255
-0.2120136 -0.22051238 1.886 81 88 57 255
-0.20706873 -0.22075732 1.8880001 68 75 44 255
-0.20211214 -0.22100201 1.8900001 70 77 46 255
-0.19693552 -0.22101265 1.8900001 84 91 60 255
-0.19206254 -0.22137389 1.8930001 86 95 64 255
-0.1868763 -0.22138405 1.8930001 88 97 66 255
-0.18159339 -0.22127701 1.8920001 82 91 60 255
-0.17631526 -0.22116971 1.891 85 94 63 255
-0.17131351 -0.22141308 1.8930001 82 91 60 255
-0.16638793 -0.22177316 1.8960001 80 87 56 255
-0.16127524 -0.22189909 1.8970001 89 96 65 255
-0.15623872 -0.22214171 1.899 92 99 68 255
-0.15127021 -0.2225011 1.9020001 95 100 69 255
-0.14613107 -0.22262628 1.9030001 93 98 67 255
-0.14105995 -0.22286817 1.9050001 97 102 71 255
-0.13576341 -0.22275884 1.904 92 97 65 255
-0.13067754 -0.22300026 1.9060001 89 94 63 255
-0.12558016 -0.22324137 1.9080001 93 98 67 255
-0.12040827 -0.22336522 1.909 95 100 68 255
-0.11523043 -0.22348882 1.9100001 93 98 67 255
-0.11004665 -0.22361214 1.9110001 104 104 78 255
-0.10496664 -0.22396924 1.914 33 27 10 255
-0.099921852 -0.22444306 1.9180001 54 40 21 255
-0.094706655 -0.22456558 1.9190001 58 40 24 255
-0.089485586 -0.22468777 1.9200001 64 42 24 255
-0.084170967 -0.22457567 1.9190001 69 46 26 255
-0.078943729 -0.22469729 1.9200001 57 36 16 255
-0.073787436 -0.22505273 1.9230001 54 34 16 255
-0.068543129 -0.22517382 1.9240001 57 37 21 255
-0.063260168 -0.22517757 1.9240001 56 40 24 255
-0.057675615 -0.2240106 1.914 54 40 23 255
-0.052145764 -0.22284336 1.904 51 38 23 255
-0.046572056 -0.2212076 1.8900001 43 32 19 255
-0.041118853 -0.21980563 1.8780001 89 85 71 255
-0.035884582 -0.21933964 1.8740001 112 108 94 255
-0.030901767 -0.220512 1.8840001 74 70 56 255
-0.025768306 -0.22086474 1.8870001 52 45 32 255
-0.020541904 -0.2203979 1.8830001 43 36 23 255
-0.015247601 -0.2186432 1.868 61 54 41 255
-0.010078964 -0.21782461 1.8610001 68 61 50 255
-0.0049567465 -0.21735685 1.8570001 77 70 59 255
0.0001432077 -0.21642061 1.8490001 105 97 88 255
0.0051992144 -0.21548408 1.8410001 100 90 81 255
0.010216824 -0.2146643 1.8340001 86 74 65 255
0.015204258 -0.21396129 1.8280001 101 91 82 255
0.020147607 -0.21314095 1.8210001 93 88 78 255
0.024941936 -0.21138398 1.8060001 95 91 81 255
0.15058154 -0.20680901 1.7680001 95 103 96 255
0.15498875 -0.20621583 1.7630001 107 113 106 255
0.15936801 -0.20562245 1.7580001 100 106 99 255
0.16427958 -0.20573062 1.7590001 95 101 94 255
0.16909993 -0.2057216 1.7590001 73 79 71 255
0.17382078 -0.20559543 1.7580001 65 71 63 255
0.17812908 -0.20500126 1.7530001 73 79 72 255
0.18251367 -0.20452386 1.7490001 79 85 78 255
0.18676862 -0.20392933 1.7440001 105 111 104 255
0.19121517 -0.20356852 1.7410001 97 103 96 255
0.19564465 -0.20320754 1.738 85 91 84 255
0.20017231 -0.20296331 1.7360001 84 90 83 255
0.20457025 -0.20260195 1.733 68 74 67 255
0.2089511 -0.20224047 1.7300001 90 96 89 255
0.2135618 -0.20211257 1.7290001 101 107 100 255
0.21829262 -0.20210142 1.7290001 102 106 99 255
0.22328064 -0.20232381 1.7310001 76 80 73 255
0.22762024 -0.20196164 1.728 74 78 71 255
0.23194268 -0.20159929 1.725 77 81 73 255
0.23624797 -0.20123684 1.7220001 99 105 97 255
0.24095583 -0.2012248 1.7220001 85 91 84 255
0.2453776 -0.20097889 1.72 68 74 67 255
0.25007847 -0.20096652 1.72 91 97 89 255
0.25492665 -0.20107082 1.7210001 97 103 95 255
0.25962865 -0.20105813 1.7210001 67 73 65 255
0.26402268 -0.20081164 1.7190001 80 86 78 255
0.26840496 -0.20056503 1.7170001 79 85 78 255
0.27293459 -0.20043509 1.7160001 92 98 91 255
0.27745789 -0.20030501 1.715 94 100 93 255
0.28213942 -0.20029163 1.715 74 80 73 255
0.28648567 -0.20004453 1.7130001 83 89 82 255
0.29082021 -0.19979733 1.7110001 66 72 65 255
0.29566106 -0.19990033 1.7120001 98 104 97 255
0.30033112 -0.19988644 1.7120001 73 79 71 255
0.30517843 -0.19998915 1.7130001 78 84 76 255
0.30912608 -0.19950807 1.7090001 85 89 81 255
0.31360182 -0.19937712 1.7080001 95 101 93 255
0.31807131 -0.19924609 1.7070001 80 86 78 255
0.32253444 -0.19911496 1.7060001 76 82 74 255
0.32699135 -0.19898376 1.705 78 84 77 255
0.33221999 -0.19931926 1.7080001 88 94 87 255
0.33706969 -0.19942127 1.7090001 76 82 75 255
0.34172407 -0.19940649 1.7090001 75 81 74 255
0.34536418 -0.19880828 1.7040001 79 85 78 255
0.34959245 -0.19856003 1.702 79 85 78 255
0.35443342 -0.19866174 1.7030001 83 89 81 255
0.35906813 -0.19864674 1.7030001 80 86 78 255
0.36370203 -0.19863164 1.7030001 79 85 77 255
0.36790258 -0.19838327 1.7010001 80 86 78 255
0.37252945 -0.19836812 1.7010001 87 93 85 255
0.37737721 -0.19846952 1.702 82 88 81 255
0.38200527 -0.19845429 1.702 75 79 72 255
0.38663244 -0.19843899 1.702 81 85 77 255
0.39125896 -0.1984237 1.702 81 85 77 255
0.39565206 -0.19829178 1.7010001 78 83 72 255
0.39956832 -0.19792676 1.6980001 82 87 76 255
0.4039436 -0.19779488 1.697 84 89 77 255
0.40903503 -0.19801268 1.6990001 81 86 75 255
0.41437995 -0.19834693 1.702 81 86 74 255
0.41924819 -0.19844811 1.7030001 80 87 76 255
0.42362329 -0.1983162 1.702 81 86 75 255
0.42774072 -0.19806786 1.7 81 88 77 255
0.43235525 -0.19805254 1.7 79 86 75 255
0.43722618 -0.19815376 1.7010001 77 82 71 255
0.44210193 -0.19825502 1.702 76 81 70 255
0.44671988 -0.19823979 1.702 77 82 71 255
0.45133731 -0.19822462 1.702 74 79 67 255
0.45648989 -0.1984424 1.7040001 76 79 67 255
0.46165276 -0.19866019 1.7060001 70 75 63 255
0.4662793 -0.19864516 1.7060001 73 78 67 255
0.47062919 -0.19851373 1.705 73 78 67 255
0.47497323 -0.19838242 1.7040001 71 76 65 255
0.48015568 -0.19860044 1.7060001 73 77 69 255
0.48478001 -0.19858569 1.7060001 74 79 68 255
0.4896909 -0.19868743 1.7070001 75 80 69 255
0.49373791 -0.19844009 1.705 71 77 69 255
0.49835834 -0.19842564 1.705 75 81 73 255
0.50297827 -0.19841129 1.705 71 78 67 255
0.50819337 -0.19862983 1.7070001 70 77 66 255
0.51251757 -0.19849934 1.7060001 68 74 66 255
0.51592666 -0.19801997 1.702 72 78 70 255
0.51931381 -0.19754079 1.6980001 76 82 74 255
0.52298754 -0.19717816 1.6950001 81 87 79 255
0.52757847 -0.19716467 1.6950001 81 87 79 255
0.53248322 -0.19726767 1.6960001 82 88 80 255
0.53802651 -0.1976034 1.6990001 80 87 76 255
0.5439052 -0.19805555 1.7030001 79 86 75 255
0.54916137 -0.19827524 1.705 83 88 76 255
0.55345374 -0.19814621 1.7040001 78 85 73 255
0.55675817 -0.19766857 1.7 77 82 70 255
0.5603711 -0.19730744 1.697 77 82 71 255
0.56396776 -0.19694655 1.6940001 80 85 74 255
0.56855512 -0.19693467 1.6940001 85 91 83 255
0.57348067 -0.19703922 1.6950001 82 88 80 255
0.57909399 -0.19737647 1.6980001 78 84 76 255
0.58334863 -0.19724897 1.697 75 81 73 255
0.58759797 -0.19712172 1.6960001 73 77 69 255
0.59219134 -0.19711094 1.6960001 70 76 68 255
0.5974887 -0.19733283 1.6980001 51 56 45 255
0.6024425 -0.19743873 1.6990001 37 42 31 255
0.60597289 -0.19708006 1.6960001 73 78 67 255
0.61092728 -0.19718647 1.697 77 82 70 255
0.61625034 -0.19740936 1.6990001 81 84 72 255
0.62231541 -0.19786486 1.7030001 61 66 54 255
0.62693006 -0.19785585 1.7030001 59 64 52 255
0.63191611 -0.19796334 1.7040001 62 67 55 255
0.63578737 -0.19772258 1.702 69 76 64 255
0.64002478 -0.19759834 1.7010001 70 75 64 255
0.64425749 -0.19747442 1.7 77 80 68 255
0.64963037 -0.19769929 1.702 17 20 8 255
0.6538617 -0.19757603 1.7010001 20 23 9 255
0.65653992 -0.19698849 1.6960001 20 23 9 255
0.65919185 -0.19640134 1.6910001 19 22 8 255
0.66378009 -0.19639526 1.6910001 21 24 10 255
0.66836935 -0.19638956 1.6910001 19 22 8 255
0.67335755 -0.19650035 1.692 19 22 8 255
0.67755085 -0.19637923 1.6910001 20 23 9 255
0.68214321 -0.19637464 1.6910001 21 24 10 255
0.68470603 -0.19578978 1.6860001 21 25 8 255
0.68846947 -0.19555372 1.6840001 23 27 10 255
0.69222313 -0.19531804 1.682 23 27 10 255
0.6988672 -0.19589566 1.687 25 29 12 255
0.70595664 -0.19658977 1.6930001 20 24 7 255
0.70678467 -0.19554253 1.6840001 24 28 11 255
0.70587546 -0.19403125 1.6710001 24 28 11 255
0.70999873 -0.19391382 1.6700001 26 30 13 255
0.71796888 -0.19484188 1.6780001 24 29 15 255
0.72426194 -0.19530591 1.682 22 30 15 255
0.72971189 -0.19553818 1.6840001 11 20 8 255
0.73473835 -0.19565479 1.6850001 129 138 127 255
0.73889458 -0.19553965 1.6840001 143 151 144 255
0.74083972 -0.19484439 1.6780001 154 162 155 255
0.74230981 -0.19403353 1.6710001 159 167 160 255
0.74329674 -0.19310701 1.6630001 162 169 165 255
0.74379236 -0.19206482 1.654 163 170 166 255
0.74469322 -0.19113924 1.646 166 173 169 255
0.74464232 -0.18998189 1.636 168 175 171 255
0.74545473 -0.18905728 1.628 171 178 174 255
0.74576491 -0.188017 1.6190001 172 179 175 255
0.74695498 -0.18720944 1.6120001 172 180 173 255
0.74904132 -0.18663469 1.6070001 174 181 177 255
0.74969608 -0.18571198 1.5990001 174 182 175 255
0.75078118 -0.1849059 1.5920001 176 184 177 255
0.75135601 -0.18398416 1.5840001 180 185 181 255
0.75141251 -0.18294674 1.575 179 184 180 255
0.75190204 -0.18202597 1.567 181 186 182 255
0.75138527 -0.18087332 1.557 183 188 184 255
0.75227225 -0.18006966 1.5500001 184 191 187 255
0.75263548 -0.17915031 1.5420001 184 191 187 255
0.75443017 -0.17858 1.5370001 185 192 188 255
0.75669396 -0.17812641 1.5330001 185 192 188 255
0.75794595 -0.17744096 1.5270001 187 194 191 255
0.75717145 -0.17629117 1.5170001 189 194 191 255
0.75634503 -0.17514181 1.5070001 191 196 193 255
-0.70490748 -0.21503522 1.8090001 225 232 220 255
-0.69535613 -0.21361564 1.7970001 221 226 214 255
-0.68971318 -0.21338513 1.7950001 209 217 202 255
-0.68408191 -0.21315497 1.7930001 204 212 195 255
-0.67959863 -0.21328175 1.794 210 219 198 255
-0.67323029 -0.21281449 1.7900001 215 225 202 255
-0.66725761 -0.2124664 1.7870001 208 217 188 255
-0.66056049 -0.2118808 1.7820001 139 146 115 255
-0.65573084 -0.21189 1.7820001 141 146 115 255
-0.65090185 -0.21189953 1.7820001 137 142 111 255
-0.64643586 -0.21202828 1.7830001 159 164 133 255
-0.64196491 -0.21215731 1.784 169 176 145 255
-0.6367746 -0.2120488 1.7830001 171 178 147 255
-0.63265342 -0.21229737 1.7850001 176 183 152 255
-0.62711489 -0.21207049 1.7830001 151 158 127 255
-0.62263447 -0.21220069 1.784 166 173 141 255
-0.61745626 -0.21209322 1.7830001 128 133 101 255
-0.61331445 -0.2123429 1.7850001 129 135 100 255
-0.60882115 -0.2124739 1.7860001 140 144 108 255
-0.60432249 -0.21260512 1.7870001 140 144 108 255
-0.60015404 -0.21285558 1.789 133 135 97 255
-0.59564203 -0.21298733 1.7900001 133 135 97 255
-0.59112459 -0.21311931 1.7910001 135 138 98 255
-0.58692908 -0.21337049 1.7930001 141 144 104 255
-0.58239806 -0.21350288 1.794 137 140 100 255
-0.5785054 -0.21387355 1.7970001 136 139 99 255
-0.57395798 -0.21400642 1.7980001 132 135 95 255
-0.57003802 -0.21437755 1.8010001 140 143 103 255
-0.56610155 -0.21474887 1.8040001 139 142 102 255
-0.5627709 -0.21535854 1.8090001 138 142 104 255
-0.5594129 -0.21596846 1.8140001 133 137 101 255
-0.55602759 -0.2165786 1.8190001 127 131 95 255
-0.55261475 -0.21718895 1.8240001 130 134 98 255
-0.54827392 -0.21744233 1.8260001 117 121 86 255
-0.54332668 -0.2174577 1.8260001 102 109 70 255
-0.53837901 -0.21747316 1.8260001 106 112 76 255
-0.53372324 -0.2176079 1.8270001 108 114 78 255
-0.5290615 -0.21774276 1.8280001 119 125 89 255
-0.52410722 -0.21775863 1.8280001 115 122 83 255
-0.51943642 -0.21789373 1.8290001 112 119 80 255
-0.51475972 -0.21802895 1.83 114 121 82 255
-0.50951999 -0.21792598 1.8290001 128 133 93 255
-0.50456095 -0.21794224 1.8290001 122 127 87 255
-0.50014764 -0.21819691 1.8310001 123 128 88 255
-0.49518207 -0.21821335 1.8310001 127 131 93 255
-0.49048358 -0.21834904 1.8320001 127 131 93 255
-0.48551413 -0.21836561 1.8320001 126 133 94 255
-0.48080617 -0.21850142 1.8330001 124 130 94 255
-0.47557306 -0.21839891 1.8320001 130 136 100 255
-0.4708584 -0.21853483 1.8330001 133 139 103 255
-0.46613771 -0.21867083 1.8340001 118 124 88 255
-0.46115932 -0.21868762 1.8340001 120 126 91 255
-0.45642903 -0.21882369 1.835 129 135 100 255
-0.45169249 -0.21895979 1.8360001 116 122 87 255
-0.44743645 -0.21933447 1.8390001 118 124 88 255
-0.44268218 -0.21947064 1.84 121 128 89 255
-0.4379217 -0.21960685 1.8410001 122 129 89 255
-0.43315494 -0.21974304 1.8420001 118 125 85 255
-0.42814952 -0.21975994 1.8420001 116 123 83 255
-0.42337304 -0.21989615 1.8430001 113 122 82 255
-0.41859031 -0.22003233 1.8440001 126 135 95 255
-0.41357702 -0.2200492 1.8440001 134 142 106 255
-0.40856284 -0.22006601 1.8440001 111 117 81 255
-0.40376672 -0.22020213 1.845 113 119 83 255
-0.39874819 -0.22021887 1.845 131 137 101 255
-0.39394215 -0.22035491 1.8460001 137 143 107 255
-0.38891912 -0.22037154 1.8460001 118 122 84 255
-0.38389525 -0.22038813 1.8460001 122 126 88 255
-0.37907574 -0.22052403 1.8470001 124 127 87 255
-0.37404737 -0.22054046 1.8470001 121 126 86 255
-0.36901814 -0.22055683 1.8470001 111 115 77 255
-0.36398792 -0.22057307 1.8470001 136 143 104 255
-0.35915121 -0.22070868 1.848 119 126 87 255
-0.35449982 -0.22096366 1.8500001 111 118 79 255
-0.34983659 -0.22121856 1.8520001 107 114 75 255
-0.34516156 -0.22147338 1.8540001 107 114 74 255
-0.34029132 -0.22160868 1.8550001 111 116 76 255
-0.33523396 -0.22162439 1.8550001 107 111 73 255
-0.33035371 -0.22175948 1.8560001 112 114 76 255
-0.32581761 -0.22213341 1.8590001 107 109 71 255
-0.32091919 -0.22226827 1.8600001 108 110 72 255
-0.3158446 -0.2222835 1.8600001 108 110 74 255
-0.31060204 -0.22217907 1.8590001 106 110 72 255
-0.30552837 -0.22219402 1.8590001 106 110 74 255
-0.30061546 -0.22232834 1.8600001 109 113 77 255
-0.29601401 -0.22270161 1.863 102 108 72 255
-0.29108295 -0.22283565 1.8640001 97 101 66 255
-0.28629896 -0.22308911 1.8660001 104 108 73 255
-0.28135246 -0.22322287 1.8670001 96 102 67 255
-0.27654764 -0.22347602 1.8690001 101 107 72 255
-0.27144057 -0.2234899 1.8690001 100 105 73 255
-0.26647511 -0.22362316 1.8700001 98 103 71 255
-0.26150331 -0.22375622 1.8710001 100 105 73 255
-0.25666231 -0.22400875 1.8730001 99 104 72 255
-0.25167522 -0.22414148 1.8740001 96 101 69 255
-0.24681339 -0.22439365 1.876 96 101 69 255
-0.24181099 -0.22452603 1.8770001 95 102 70 255
-0.23680231 -0.22465821 1.8780001 98 105 73 255
-0.23178734 -0.22479017 1.8790001 94 101 69 255
-0.22676614 -0.22492196 1.8800001 86 93 61 255
-0.22162081 -0.22493388 1.8800001 91 96 64 255
-0.21670499 -0.22518487 1.8820001 91 96 64 255
-0.21166509 -0.22531602 1.8830001 69 76 45 255
-0.20672864 -0.2255666 1.8850001 94 99 68 255
-0.20178051 -0.22581698 1.8870001 96 101 70 255
-0.19671653 -0.22594748 1.8880001 91 98 67 255
-0.19174778 -0.22619741 1.8900001 91 98 67 255
-0.18657 -0.22620778 1.8900001 89 96 65 255
-0.18139154 -0.22621787 1.8900001 89 96 65 255
-0.17630564 -0.2263474 1.891 87 96 65 255
-0.17130415 -0.22659643 1.8930001 87 96 65 255
-0.16629103 -0.22684519 1.8950001 89 96 65 255
-0.16126634 -0.22709373 1.8970001 105 112 80 255
-0.15614781 -0.22722231 1.8980001 100 107 75 255
-0.15110275 -0.22747031 1.9000001 104 110 75 255
-0.14589256 -0.22747865 1.9000001 99 104 72 255
