ply
format ascii 1.0
comment PCL generated
element vertex 971
property float x
property float y
property float z
property uchar red
property uchar green
property uchar blue
property uchar alpha
element camera 0
property float view_px
property float view_py
property float view_pz
property float x_axisx
property float x_axisy
property float x_axisz
property float y_axisx
property float y_axisy
property float y_axisz
property float z_axisx
property float z_axisy
property float z_axisz
property float focal
property float scalex
property float scaley
property float centerx
property float centery
property int viewportx
property int viewporty
property float k1
property float k2
end_header
0.072368227 -0.34517628 0.71700001 67 56 33 255
0.074634351 -0.34662399 0.72000003 64 54 29 255
0.07670413 -0.34710896 0.72100002 68 58 31 255
0.078779429 -0.34759411 0.72200006 56 46 19 255
0.08097212 -0.34856087 0.72400004 49 39 14 255
0.083175778 -0.34952781 0.72600001 52 42 17 255
0.085390434 -0.35049489 0.72800004 48 37 14 255
0.087616093 -0.35146219 0.73000002 52 41 18 255
0.090098247 -0.35339254 0.73400003 48 37 16 255
0.092602327 -0.35532317 0.73800004 56 42 22 255
0.095128313 -0.357254 0.74200004 67 56 35 255
0.097414367 -0.3582221 0.74400002 59 47 28 255
0.099845126 -0.35967195 0.74700004 48 36 19 255
0.10188318 -0.35967746 0.74700004 44 34 17 255
0.1041996 -0.36064625 0.74900001 42 32 15 255
0.10666889 -0.36209676 0.75200003 42 32 15 255
0.10929928 -0.36402905 0.75600004 50 40 23 255
0.11195163 -0.36596164 0.76000005 51 41 24 255
0.11432587 -0.36693141 0.76200002 42 32 15 255
0.11640567 -0.36693832 0.76200002 42 32 13 255
0.11879659 -0.3679086 0.76400006 37 29 12 255
0.12104037 -0.36839762 0.76500005 37 29 12 255
0.12377266 -0.37033162 0.76900005 38 30 13 255
0.12619956 -0.37130272 0.77100003 39 34 14 255
0.12913683 -0.37371901 0.77600002 41 37 20 255
0.13176331 -0.37517244 0.77900004 44 42 24 255
0.13509384 -0.37855262 0.78600001 37 35 17 255
0.1381136 -0.38097 0.79100001 33 30 14 255
0.14045155 -0.38146126 0.79200006 29 26 12 255
0.14189485 -0.37954459 0.78800005 22 19 5 255
0.14368209 -0.37859136 0.78600001 27 24 10 255
0.14564419 -0.37812015 0.78500003 28 24 13 255
0.14741279 -0.37716752 0.78300005 26 23 9 255
0.14917073 -0.37621513 0.78100002 28 25 11 255
0.15091799 -0.37526304 0.77900004 30 27 11 255
0.15245809 -0.37382948 0.77600002 29 26 10 255
0.15378286 -0.37191439 0.77200001 33 31 13 255
0.15569186 -0.37144485 0.77100003 29 27 9 255
0.15759569 -0.37097567 0.77000004 32 30 12 255
0.15949433 -0.37050679 0.76900005 29 26 10 255
0.16117766 -0.3695564 0.76700002 30 27 13 255
0.16263749 -0.36812451 0.76400006 31 28 14 255
0.16472811 -0.36813846 0.76400006 32 29 15 255
0.16660064 -0.36767089 0.76300001 30 26 10 255
0.168247 -0.36672181 0.76100004 31 27 10 255
0.16988276 -0.36577308 0.75900006 32 30 12 255
0.17173447 -0.36530659 0.75800002 37 35 17 255
0.17358109 -0.36484045 0.75700003 37 35 17 255
0.17542264 -0.36437476 0.75600004 35 33 13 255
0.17678951 -0.36294538 0.75300002 34 32 12 255
0.17885292 -0.36296242 0.75300002 36 34 14 255
0.18067652 -0.3624979 0.75200003 34 32 12 255
0.18273804 -0.36251584 0.75200003 42 40 20 255
0.18430851 -0.36157006 0.75000006 39 37 17 255
0.18611695 -0.36110672 0.74900001 40 38 20 255
0.18766916 -0.36016175 0.74700004 33 31 13 255
0.18895686 -0.35873494 0.74400002 34 32 14 255
0.19048533 -0.35779071 0.74200004 40 38 18 255
0.19252226 -0.35781127 0.74200004 40 38 18 255
0.19455966 -0.3578324 0.74200004 39 38 16 255
0.19633268 -0.35737178 0.74100006 39 38 14 255
0.19810069 -0.35691157 0.74000001 42 40 16 255
0.19986384 -0.3564519 0.73900002 45 42 21 255
0.20216841 -0.35695744 0.74000001 45 40 19 255
0.20503098 -0.35842845 0.74300003 44 38 21 255
0.20735325 -0.35893536 0.74400002 51 45 28 255
0.20996311 -0.35992539 0.74600005 51 45 28 255
0.21258458 -0.36091614 0.74800003 52 46 29 255
0.21521774 -0.36190766 0.75000006 52 47 27 255
0.21815227 -0.36338252 0.75300002 55 53 29 255
0.22110407 -0.36485821 0.75600004 50 49 27 255
0.22643486 -0.37019601 0.76700002 56 54 34 255
-0.34416592 -0.39192182 0.80200005 58 58 56 255
-0.33549348 -0.38451126 0.78700006 88 91 67 255
-0.33156639 -0.38247848 0.78300005 86 86 66 255
-0.32682282 -0.37947106 0.77700001 61 59 48 255
-0.32336873 -0.37793115 0.77400005 57 57 39 255
-0.31993356 -0.37639308 0.77100003 56 54 34 255
-0.31569311 -0.37388077 0.76600003 51 48 27 255
-0.3123014 -0.37234667 0.76300001 47 42 21 255
-0.30933493 -0.37130231 0.76100004 42 36 19 255
-0.30759254 -0.37172303 0.76200002 46 41 21 255
-0.30504465 -0.37116936 0.76100004 46 41 20 255
-0.3033002 -0.37159237 0.76200002 40 37 17 255
-0.30036616 -0.37055379 0.76000005 43 40 19 255
-0.29822987 -0.37049159 0.76000005 44 42 18 255
-0.29531592 -0.36945578 0.75800002 43 40 19 255
-0.29357532 -0.36988348 0.75900006 47 42 21 255
-0.29183054 -0.37031209 0.76000005 48 43 22 255
-0.28970057 -0.37025449 0.76000005 40 35 14 255
-0.28795052 -0.37068513 0.76100004 44 39 19 255
-0.28582069 -0.37062964 0.76100004 43 38 18 255
-0.28369236 -0.37057525 0.76100004 35 30 10 255
-0.28193539 -0.37100881 0.76200002 35 32 12 255
-0.28054142 -0.37193006 0.76400006 37 34 14 255
-0.27840889 -0.37187859 0.76400006 37 34 14 255
-0.27627763 -0.37182811 0.76400006 37 35 15 255
-0.27486533 -0.37275189 0.76600003 36 34 14 255
-0.27308711 -0.37318978 0.76700002 36 32 15 255
-0.27130461 -0.37362856 0.76800001 32 28 11 255
-0.26951775 -0.37406817 0.76900005 30 28 10 255
-0.26807421 -0.37499496 0.77100003 31 29 11 255
-0.26696566 -0.37640879 0.77400005 28 26 8 255
-0.26515734 -0.37685069 0.77500004 33 31 13 255
-0.26334456 -0.37729332 0.77600002 30 28 10 255
-0.2611908 -0.37725064 0.77600002 28 24 7 255
-0.25937188 -0.3776949 0.77700001 32 28 11 255
-0.25787956 -0.37862602 0.77900004 34 30 13 255
-0.25670546 -0.38004372 0.78200006 30 26 10 255
-0.25486469 -0.38049006 0.78300005 30 26 10 255
-0.25301945 -0.38093719 0.78400004 26 22 6 255
-0.25116962 -0.38138503 0.78500003 29 26 12 255
-0.24931525 -0.38183358 0.78600001 26 23 9 255
-0.24745627 -0.38228282 0.78700006 25 21 10 255
-0.24559267 -0.38273275 0.78800005 25 21 10 255
-0.24372442 -0.38318339 0.78900003 24 22 12 255
-0.24185158 -0.38363472 0.79000002 21 19 9 255
-0.24058078 -0.38505784 0.79300004 18 18 10 255
-0.23869304 -0.38551039 0.79400003 20 20 12 255
-0.2368006 -0.38596356 0.79500002 15 15 7 255
-0.23342788 -0.38399014 0.79100001 15 13 3 255
-0.229201 -0.3805615 0.78400004 33 32 18 255
-0.22443427 -0.37616336 0.77500004 39 37 19 255
-0.22057831 -0.37322253 0.76900005 44 43 21 255
-0.2164721 -0.36979756 0.76200002 45 44 22 255
-0.21268643 -0.36685896 0.75600004 51 51 23 255
-0.20893443 -0.36392137 0.75000006 51 49 31 255
-0.20494024 -0.36049959 0.74300003 55 53 35 255
-0.20098521 -0.35707894 0.73600006 58 56 38 255
-0.19760987 -0.35462949 0.73100001 60 58 38 255
-0.19426262 -0.35218093 0.72600001 60 60 32 255
-0.19200277 -0.35167354 0.72500002 57 58 34 255
-0.18948686 -0.35068169 0.72300005 54 55 31 255
-0.18698242 -0.34969047 0.72100002 61 63 37 255
-0.18371972 -0.34724492 0.71600002 61 63 37 255
-0.18048497 -0.34480017 0.71100003 55 56 32 255
-0.17752925 -0.34284109 0.70700002 59 58 36 255
-0.17409922 -0.33991292 0.70100003 70 68 48 255
-0.17193063 -0.33940989 0.70000005 65 63 43 255
-0.16928221 -0.33793768 0.69700003 59 57 39 255
-0.16737105 -0.33792049 0.69700003 63 61 41 255
-0.16498552 -0.33693415 0.69500005 55 54 30 255
-0.16214205 -0.33497879 0.69100004 58 56 31 255
-0.1597847 -0.33399352 0.68900001 58 56 31 255
-0.1574387 -0.33300877 0.68700004 53 51 26 255
-0.1553304 -0.33250916 0.68600005 48 46 22 255
-0.15278058 -0.33104065 0.68300003 50 48 24 255
-0.15113132 -0.33151129 0.68400002 46 43 22 255
-0.14925869 -0.33149761 0.68400002 49 46 25 255
-0.14738637 -0.33148429 0.68400002 40 37 16 255
-0.14530164 -0.33098674 0.68300003 53 50 29 255
-0.14322266 -0.33048958 0.68200004 42 41 19 255
-0.14114946 -0.3299928 0.68100005 41 38 17 255
-0.13928652 -0.32998091 0.68100005 41 38 17 255
-0.13722205 -0.32948479 0.68000001 40 35 15 255
-0.13536239 -0.32947358 0.68000001 49 44 24 255
-0.13311033 -0.32849371 0.67800003 35 32 11 255
-0.13125664 -0.32848316 0.67800003 46 43 22 255
-0.12940316 -0.32847285 0.67800003 49 46 25 255
-0.12754993 -0.32846287 0.67800003 43 42 18 255
-0.12532613 -0.32748434 0.67600006 43 42 18 255
-0.12311348 -0.32650608 0.67400002 42 41 17 255
-0.12109187 -0.32601255 0.67300004 42 42 16 255
-0.11907596 -0.32551938 0.67200005 42 42 16 255
-0.11724015 -0.32551083 0.67200005 50 49 25 255
-0.11540453 -0.32550257 0.67200005 47 45 21 255
-0.11340009 -0.32501018 0.671 47 45 21 255
-0.11123502 -0.32403368 0.66900003 45 43 19 255
-0.10940811 -0.32402617 0.66900003 49 46 26 255
-0.10742056 -0.32353458 0.66800004 51 49 31 255
-0.10559671 -0.32352751 0.66800004 51 49 31 255
-0.10361765 -0.32303637 0.66700006 46 44 26 255
-0.10179681 -0.32302976 0.66700006 41 43 25 255
-0.099826217 -0.32253906 0.66600001 39 41 23 255
-0.097861223 -0.32204857 0.66500002 49 49 31 255
-0.096190676 -0.32252687 0.66600001 40 40 22 255
-0.094231412 -0.32203686 0.66500002 44 42 24 255
-0.092416681 -0.32203126 0.66500002 46 42 25 255
-0.090465821 -0.32154164 0.66400003 46 41 20 255
-0.088654041 -0.32153639 0.66400003 42 37 16 255
-0.086842388 -0.32153136 0.66400003 39 35 10 255
-0.085030802 -0.32152647 0.66400003 51 47 23 255
-0.083219334 -0.32152179 0.66400003 52 51 21 255
-0.081407957 -0.32151723 0.66400003 48 45 24 255
-0.079356931 -0.32054445 0.66200006 52 50 30 255
-0.077668339 -0.32102445 0.66300005 49 47 27 255
-0.07574553 -0.32053617 0.66200006 44 42 22 255
-0.073939949 -0.32053226 0.66200006 42 41 19 255
-0.07202547 -0.32004428 0.66100001 48 47 25 255
-0.070222765 -0.32004064 0.66100001 49 47 27 255
-0.068523653 -0.32052135 0.66200006 45 42 22 255
-0.066718355 -0.32051799 0.66200006 49 43 26 255
-0.064913131 -0.32051477 0.66200006 52 44 27 255
-0.063107967 -0.32051167 0.66200006 56 49 29 255
-0.061302856 -0.32050866 0.66200006 50 42 25 255
-0.0594978 -0.3205058 0.66200006 48 40 23 255
-0.05760565 -0.32001889 0.66100001 47 45 27 255
-0.055803426 -0.32001626 0.66100001 47 45 27 255
-0.054082952 -0.3204979 0.66200006 46 44 26 255
-0.052278094 -0.32049549 0.66200006 44 44 24 255
-0.050549526 -0.3209773 0.66300005 47 46 22 255
-0.048668515 -0.32049099 0.66200006 43 42 18 255
-0.046934575 -0.32097298 0.66300005 41 39 15 255
-0.045127153 -0.32097098 0.66300005 43 41 17 255
-0.043319773 -0.32096907 0.66300005 43 41 17 255
-0.041449811 -0.32048315 0.66200006 47 43 18 255
-0.039585333 -0.31999731 0.66100001 44 42 18 255
-0.037840664 -0.32047981 0.66200006 50 48 24 255
-0.035981692 -0.31999412 0.66100001 60 55 34 255
-0.034231625 -0.32047683 0.66200006 67 63 46 255
-0.032378159 -0.31999135 0.66100001 82 78 61 255
-0.030576427 -0.31999007 0.66100001 72 70 50 255
-0.028774718 -0.31998885 0.66100001 59 58 36 255
-0.02697303 -0.31998771 0.66100001 63 63 37 255
-0.025209444 -0.32047081 0.66200006 40 40 12 255
-0.02340506 -0.32046983 0.66200006 43 43 15 255
-0.021600699 -0.32046896 0.66200006 47 46 24 255
-0.019766444 -0.31998402 0.66100001 43 41 21 255
-0.017964836 -0.31998327 0.66100001 41 38 18 255
-0.016138786 -0.31949854 0.66000003 45 39 22 255
-0.014361651 -0.31998199 0.66100001 44 38 21 255
-0.012579079 -0.32046562 0.66200006 46 39 19 255
-0.01079106 -0.32094926 0.66300005 47 40 20 255
-0.0089975968 -0.32143295 0.66400003 53 46 26 255
-0.0071770381 -0.32094851 0.66300005 49 42 22 255
-0.0053619365 -0.32046422 0.66200006 68 61 40 255
-0.0035522894 -0.31997997 0.66100001 64 57 36 255
-0.0017560412 -0.32094803 0.66300005 73 66 43 255
5.103094e-05 -0.32143208 0.66400003 76 69 46 255
0.0018663564 -0.32240027 0.66600001 63 58 38 255
0.0036815293 -0.32240036 0.66600001 60 55 35 255
0.0055049583 -0.32288465 0.66700006 43 38 17 255
0.0073228637 -0.32288489 0.66700006 43 38 17 255
0.0091544762 -0.32336929 0.66800004 41 34 13 255
0.010975116 -0.32336968 0.66800004 45 38 17 255
0.012795764 -0.32337013 0.66800004 47 40 19 255
0.014660181 -0.32433882 0.67000002 40 33 10 255
0.016510906 -0.32482353 0.671 46 41 20 255
0.018421756 -0.32627648 0.67400002 50 46 22 255
0.02022874 -0.32579315 0.67300004 53 49 24 255
0.022063071 -0.32579398 0.67300004 70 64 39 255
0.023932926 -0.32627901 0.67400002 76 69 46 255
0.025846483 -0.32724819 0.67600006 79 69 44 255
0.027729999 -0.32773334 0.67700005 71 62 41 255
0.029662672 -0.32870269 0.67900002 72 65 35 255
0.031606276 -0.32967213 0.68100005 68 61 40 255
0.033511657 -0.33015758 0.68200004 56 48 31 255
0.035474379 -0.33112717 0.68400002 43 37 21 255
0.037448034 -0.33209687 0.68600005 43 37 20 255
0.039489932 -0.33355078 0.68900001 48 43 23 255
0.041428138 -0.33403662 0.69000006 44 39 19 255
0.043497358 -0.33549076 0.69300002 44 41 20 255
0.04545198 -0.33597678 0.69400001 43 38 17 255
0.047480308 -0.33694699 0.69600004 42 37 17 255
0.04930675 -0.336465 0.69500005 46 41 20 255
0.051422458 -0.33791959 0.69800001 47 42 21 255
0.05332537 -0.33792192 0.69800001 48 43 23 255
0.055386577 -0.33889264 0.70000005 50 43 23 255
0.057376884 -0.33937931 0.70100003 47 42 22 255
0.059457272 -0.34035027 0.70300001 46 38 21 255
0.061548624 -0.34132141 0.70500004 43 35 18 255
0.063650921 -0.34229258 0.70700002 46 38 21 255
0.065856948 -0.34374812 0.71000004 50 40 23 255
0.06798391 -0.34471962 0.71200001 49 39 22 255
0.07012184 -0.34569132 0.71400005 66 54 35 255
0.072068885 -0.34569481 0.71400005 69 56 33 255
0.07422331 -0.34666678 0.71600002 77 64 40 255
0.076388732 -0.34763896 0.71800005 70 61 31 255
0.078674234 -0.34909543 0.72100002 70 61 31 255
0.080864355 -0.35006797 0.72300005 63 53 26 255
0.083065458 -0.35104057 0.72500002 53 45 18 255
0.085277565 -0.3520135 0.72700006 56 46 21 255
0.087500662 -0.35298651 0.72900003 47 36 13 255
0.089980289 -0.3549282 0.73300004 52 38 18 255
0.092481837 -0.35687009 0.73700005 58 47 26 255
0.094877109 -0.35832801 0.74000001 68 56 37 255
0.097288847 -0.35978615 0.74300003 59 47 28 255
0.099583417 -0.3607603 0.74500006 49 39 22 255
0.10175262 -0.36125043 0.74600005 42 32 15 255
0.10420564 -0.36270925 0.74900001 42 32 15 255
0.10681701 -0.3646526 0.75300002 43 33 16 255
0.10930579 -0.36611199 0.75600004 55 45 28 255
0.11181109 -0.36757165 0.75900006 50 40 23 255
0.11418285 -0.36854732 0.76100004 41 31 14 255
0.11626014 -0.36855462 0.76100004 37 29 12 255
0.11864859 -0.3695308 0.76300001 37 29 12 255
0.12104815 -0.37050724 0.76500005 40 33 13 255
0.12378071 -0.37245271 0.76900005 37 30 10 255
0.12637159 -0.37391409 0.77200001 38 33 13 255
0.12914549 -0.37586021 0.77600002 45 42 22 255
0.13211057 -0.37829101 0.78100002 40 36 19 255
0.13561882 -0.38217542 0.78900003 31 29 11 255
0.13882177 -0.38509151 0.79500002 28 26 8 255
0.14081624 -0.38461721 0.79400003 28 25 11 255
0.14190508 -0.38172108 0.78800005 22 19 5 255
0.14350982 -0.38027844 0.78500003 27 24 10 255
0.14509839 -0.37883604 0.78200006 28 25 11 255
0.14704737 -0.37836275 0.78100002 28 25 11 255
0.14899114 -0.37788978 0.78000003 27 24 8 255
0.15092972 -0.37741715 0.77900004 27 24 8 255
0.1526666 -0.37646028 0.77700001 29 26 10 255
0.1539944 -0.37453467 0.77300006 30 28 10 255
0.15570453 -0.37357837 0.77100003 33 31 13 255
0.15760869 -0.3731069 0.77000004 31 30 14 255
0.15950768 -0.37263581 0.76900005 32 29 13 255
0.16098119 -0.37119582 0.76600003 32 29 13 255
0.16265151 -0.37024075 0.76400006 32 29 13 255
0.16452685 -0.36977059 0.76300001 31 28 12 255
0.16639706 -0.36930081 0.76200002 32 28 12 255
0.16781993 -0.36786208 0.75900006 30 28 10 255
0.16989827 -0.36787769 0.75900006 32 30 12 255
0.17175038 -0.36740896 0.75800002 34 32 14 255
0.17382675 -0.36742547 0.75800002 33 31 13 255
0.17543939 -0.36647281 0.75600004 33 31 11 255
0.17704144 -0.36552051 0.75400001 37 35 17 255
0.17910804 -0.36553821 0.75400001 37 33 16 255
0.18069452 -0.36458671 0.75200003 37 35 15 255
0.18251348 -0.36412039 0.75100005 35 33 13 255
0.18408161 -0.36316964 0.74900001 38 36 16 255
0.1858878 -0.36270422 0.74800003 39 37 19 255
0.18718643 -0.36126933 0.74500006 36 34 16 255
0.18872307 -0.36031976 0.74300003 34 32 12 255
0.190506 -0.35985556 0.74200004 34 32 12 255
0.19254343 -0.35987681 0.74200004 36 34 14 255
0.19431914 -0.35941359 0.74100006 38 37 15 255
0.19608989 -0.35895079 0.74000001 39 38 14 255
0.19785571 -0.35848853 0.73900002 45 43 18 255
0.19988708 -0.35851187 0.73900002 45 43 18 255
0.20219226 -0.35902092 0.74000001 47 43 19 255
0.20477951 -0.36001584 0.74200004 50 45 24 255
0.20737839 -0.36101142 0.74400002 47 42 21 255
0.20998891 -0.3620078 0.74600005 49 42 21 255
0.21232682 -0.36251959 0.74700004 52 47 27 255
0.21524495 -0.36400276 0.75000006 50 45 25 255
0.21818021 -0.3654868 0.75300002 55 51 27 255
0.22142528 -0.36745709 0.75700003 54 51 31 255
0.22616941 -0.37185562 0.76600003 53 51 33 255
-0.33557385 -0.38676879 0.78700006 78 77 71 255
-0.33079779 -0.38374028 0.78100002 70 69 53 255
-0.3252165 -0.37973198 0.77300006 70 70 52 255
-0.32177201 -0.37818235 0.77000004 62 62 44 255
-0.31876162 -0.37712574 0.76800001 49 47 27 255
-0.31576452 -0.37607089 0.76600003 50 47 26 255
-0.31278062 -0.37501767 0.76400006 50 45 24 255
-0.30899671 -0.37298459 0.76000005 47 42 22 255
-0.30685231 -0.37291628 0.76000005 42 35 14 255
-0.30430874 -0.37235862 0.75900006 46 39 18 255
-0.30256873 -0.37278333 0.76000005 44 39 18 255
-0.30003425 -0.37222826 0.75900006 44 40 16 255
-0.29789957 -0.37216493 0.75900006 40 38 14 255
-0.29537684 -0.37161252 0.75800002 41 39 15 255
-0.29402199 -0.37253195 0.76000005 43 40 19 255
-0.2922734 -0.37296209 0.76100004 41 36 15 255
-0.29013947 -0.3729032 0.76100004 38 35 14 255
-0.28800711 -0.37284547 0.76100004 42 37 17 255
-0.28587621 -0.37278879 0.76100004 39 34 14 255
-0.28411967 -0.37322298 0.76200002 38 35 15 255
-0.28235888 -0.37365812 0.76300001 38 36 16 255
-0.28022671 -0.37360451 0.76300001 33 31 11 255
-0.27846041 -0.37404156 0.76400006 33 31 11 255
-0.27596644 -0.37350044 0.76300001 36 34 14 255
-0.27455607 -0.37442881 0.76500005 37 35 15 255
-0.27313587 -0.3753579 0.76700002 32 28 11 255
-0.27135244 -0.3757984 0.76800001 33 31 13 255
-0.26991525 -0.37672901 0.77000004 34 32 14 255
-0.26846811 -0.37766036 0.77200001 33 29 12 255
-0.26735604 -0.37908152 0.77500004 33 29 12 255
-0.26520187 -0.37903604 0.77500004 32 30 12 255
-0.26304883 -0.37899145 0.77500004 31 29 11 255
-0.26123354 -0.37943673 0.77600002 30 26 9 255
-0.25941384 -0.37988284 0.77700001 30 26 9 255
-0.25825182 -0.38130739 0.78000003 29 25 8 255
-0.25608927 -0.38126609 0.78000003 32 26 9 255
-0.2542533 -0.38171437 0.78100002 35 29 13 255
-0.2524128 -0.38216347 0.78200006 30 26 10 255
-0.25088775 -0.38310185 0.78400004 28 25 9 255
-0.24903537 -0.38355234 0.78500003 28 25 11 255
-0.24749289 -0.38449204 0.78700006 27 24 10 255
-0.24531685 -0.38445538 0.78700006 24 22 11 255
-0.24345064 -0.38490793 0.78800005 24 22 11 255
-0.24157982 -0.38536116 0.78900003 22 20 10 255
-0.24000773 -0.3863034 0.79100001 21 19 9 255
-0.23812482 -0.38675797 0.79200006 21 18 11 255
-0.23564139 -0.38623658 0.79100001 19 16 9 255
-0.23286913 -0.38522774 0.78900003 15 13 3 255
-0.22893918 -0.38226697 0.78300005 30 28 17 255
-0.22446381 -0.37833104 0.77500004 39 37 19 255
-0.22032011 -0.37488449 0.76800001 42 41 19 255
-0.21621573 -0.37143916 0.76100004 48 47 23 255
-0.21243195 -0.36848304 0.75500005 50 49 27 255
-0.20840327 -0.36503994 0.74800003 55 53 35 255
-0.20468962 -0.36208597 0.74200004 53 50 34 255
-0.20100959 -0.35913298 0.73600006 55 53 35 255
-0.19763355 -0.35666883 0.73100001 54 52 34 255
-0.19482084 -0.35518149 0.72800004 58 56 36 255
-0.19255489 -0.35467049 0.72700006 53 52 28 255
-0.18950866 -0.35269669 0.72300005 59 61 33 255
-0.18674429 -0.3512114 0.72000003 63 65 37 255
-0.18322706 -0.34826356 0.71400005 54 56 30 255
-0.17999716 -0.3458043 0.70900005 60 61 37 255
-0.17679518 -0.34334582 0.70400006 59 59 33 255
-0.17386955 -0.3413758 0.70000005 64 62 42 255
-0.17194884 -0.34135699 0.70000005 58 56 38 255
-0.1692999 -0.33987585 0.69700003 52 50 32 255
-0.16714814 -0.33937046 0.69600004 53 51 31 255
-0.16476487 -0.33837801 0.69400001 55 54 30 255
-0.16215831 -0.33689854 0.69100004 56 54 30 255
-0.15956856 -0.33541965 0.68800002 60 58 33 255
-0.15745403 -0.33491632 0.68700004 48 46 21 255
-0.1551189 -0.33392593 0.68500006 43 39 15 255
-0.15301877 -0.3334235 0.68400002 49 47 23 255
-0.15092446 -0.33292148 0.68300003 44 42 18 255
-0.1490542 -0.33290729 0.68300003 47 45 21 255
-0.14718427 -0.33289349 0.68300003 44 42 18 255
-0.14510189 -0.33239272 0.68200004 48 43 22 255
-0.14323531 -0.33237967 0.68200004 38 35 14 255
-0.14116172 -0.33187959 0.68100005 47 45 21 255
-0.13909391 -0.33137989 0.68000001 40 38 14 255
-0.13723366 -0.33136788 0.68000001 42 39 19 255
-0.13537368 -0.3313562 0.68000001 42 39 19 255
-0.13331762 -0.3308576 0.67900002 41 38 18 255
-0.13126726 -0.33035934 0.67800003 44 42 22 255
-0.12922263 -0.3298614 0.67700005 49 47 27 255
-0.12718369 -0.32936376 0.67600006 46 45 23 255
-0.12533584 -0.32935366 0.67600006 41 40 18 255
-0.12312289 -0.3283695 0.67400002 48 45 25 255
-0.12110101 -0.32787281 0.67300004 48 46 22 255
-0.11908482 -0.32737646 0.67200005 45 43 19 255
-0.11742323 -0.32785469 0.67300004 45 42 21 255
-0.11541288 -0.32735887 0.67200005 51 48 27 255
-0.11340818 -0.32686335 0.671 48 45 24 255
-0.11124284 -0.32588097 0.66900003 47 45 27 255
-0.1094157 -0.32587308 0.66900003 50 48 30 255
-0.10742789 -0.32537836 0.66800004 48 45 31 255
-0.10560381 -0.32537094 0.66800004 51 49 38 255
-0.10346916 -0.32438961 0.66600001 46 44 33 255
-0.10149822 -0.32389563 0.66500002 47 48 34 255
-0.099532865 -0.3234019 0.66400003 49 48 32 255
-0.097720288 -0.32339537 0.66400003 54 54 36 255
-0.095907852 -0.32338911 0.66400003 45 45 27 255
-0.094095543 -0.32338303 0.66400003 44 42 22 255
-0.092144363 -0.32289013 0.66300005 53 52 30 255
-0.090335026 -0.32288444 0.66300005 45 42 21 255
-0.088525794 -0.32287896 0.66300005 42 39 19 255
-0.086847469 -0.32336062 0.66400003 41 36 15 255
-0.085163794 -0.32384241 0.66500002 47 44 23 255
-0.083224081 -0.32335049 0.66400003 51 48 27 255
-0.081167333 -0.32237175 0.66200006 48 45 24 255
-0.079241462 -0.32188016 0.66100001 39 37 19 255
-0.077555455 -0.32236266 0.66200006 47 45 25 255
-0.075749643 -0.32235837 0.66200006 53 51 31 255
-0.073943906 -0.3223542 0.66200006 48 47 25 255
-0.072029285 -0.32186323 0.66100001 44 43 21 255
-0.070332691 -0.32234633 0.66200006 52 49 29 255
-0.068423674 -0.32185566 0.66100001 45 42 22 255
-0.066721767 -0.32233903 0.66200006 51 44 24 255
-0.06491641 -0.32233557 0.66200006 51 44 24 255
-0.063206449 -0.32281917 0.66300005 53 46 26 255
-0.06139848 -0.32281595 0.66300005 50 42 25 255
-0.059500702 -0.32232603 0.66200006 45 39 22 255
-0.057695583 -0.32232308 0.66200006 45 43 23 255
-0.055806089 -0.32183337 0.66100001 52 50 30 255
-0.054003797 -0.32183066 0.66100001 45 43 23 255
-0.052122585 -0.32134122 0.66000003 44 43 21 255
-0.050399367 -0.32182562 0.66100001 50 49 25 255
-0.048670739 -0.32231015 0.66200006 44 42 18 255
-0.047007497 -0.32328165 0.66400003 39 38 14 255
-0.045197256 -0.3232795 0.66400003 47 45 21 255
-0.043321699 -0.32279059 0.66300005 42 40 16 255
-0.041451648 -0.32230178 0.66200006 50 46 22 255
-0.039587066 -0.32181305 0.66100001 42 40 16 255
-0.037785139 -0.32181129 0.66100001 49 46 25 255
-0.035983246 -0.32180965 0.66100001 55 50 30 255
-0.03423309 -0.32229495 0.66200006 56 52 35 255
-0.032428518 -0.32229346 0.66200006 63 59 42 255
-0.030670239 -0.32277894 0.66300005 56 54 34 255
-0.02881946 -0.32229081 0.66200006 49 48 26 255
-0.026974153 -0.32180274 0.66100001 46 45 21 255
-0.025172399 -0.32180157 0.66100001 47 47 21 255
-0.023335313 -0.32131374 0.66000003 44 44 18 255
-0.021568952 -0.32179961 0.66100001 44 43 21 255
-0.019737348 -0.32131189 0.66000003 41 40 18 255
-0.017965566 -0.32179794 0.66100001 45 42 21 255
-0.01613944 -0.3213104 0.66000003 41 38 18 255
-0.014383961 -0.32228342 0.66200006 47 42 21 255
-0.012598586 -0.32276967 0.66300005 43 36 13 255
-0.010824044 -0.32374284 0.66500002 43 36 13 255
-0.009011507 -0.32374242 0.66500002 49 42 21 255
-0.0071881516 -0.32325527 0.66400003 60 51 28 255
-0.0053621512 -0.32228136 0.66200006 73 64 41 255
-0.003552431 -0.32179433 0.66100001 71 62 41 255
-0.0017534624 -0.32228106 0.66200006 78 71 48 255
5.103297e-05 -0.32325464 0.66400003 58 51 28 255
0.0018636282 -0.32374153 0.66500002 55 50 30 255
0.0036816758 -0.32422847 0.66600001 50 45 25 255
0.0054886704 -0.32374185 0.66500002 48 43 23 255
0.0073121758 -0.32422891 0.66600001 43 38 17 255
0.0091411378 -0.32471612 0.66700006 43 38 17 255
0.010991987 -0.32569021 0.66900003 45 40 19 255
0.012796279 -0.32520387 0.66800004 46 41 20 255
0.014660774 -0.3261781 0.67000002 43 39 15 255
0.016511574 -0.32666558 0.671 40 37 16 255
0.018395172 -0.32764 0.67300004 42 40 16 255
0.020199507 -0.32715398 0.67200005 47 43 19 255
0.022063974 -0.3276417 0.67300004 52 48 23 255
0.023898402 -0.32764268 0.67300004 63 56 33 255
0.025847552 -0.3291043 0.67600006 75 65 40 255
0.027731158 -0.32959229 0.67700005 78 67 44 255
0.029663917 -0.33056721 0.67900002 71 64 34 255
0.031607606 -0.33154225 0.68100005 69 59 40 255
0.03351308 -0.3320305 0.68200004 57 47 28 255
0.035424035 -0.33251888 0.68300003 47 40 20 255
0.037449647 -0.33398107 0.68600005 45 38 18 255
0.03949165 -0.33544335 0.68900001 49 42 21 255
0.041429952 -0.33593205 0.69000006 45 40 19 255
0.043436509 -0.33690768 0.69200003 41 38 17 255
0.045388512 -0.33739656 0.69300002 42 37 16 255
0.047414221 -0.3383725 0.69500005 44 39 19 255
0.049308985 -0.33837473 0.69500005 43 36 16 255
0.051351137 -0.33935088 0.69700003 44 37 16 255
0.053404242 -0.34032711 0.69900006 42 36 19 255
0.05538917 -0.34081662 0.70000005 44 36 19 255
0.05729774 -0.34081933 0.70000005 49 41 24 255
0.059460111 -0.34228286 0.70300001 44 38 21 255
0.06155159 -0.34325966 0.70500004 44 38 21 255
0.063654028 -0.34423655 0.70700002 42 34 17 255
0.065674677 -0.34472674 0.708 42 32 15 255
0.067891814 -0.34619084 0.71100003 46 34 17 255
0.070223607 -0.34814212 0.71500003 51 39 20 255
0.072072558 -0.3476589 0.71400005 59 46 23 255
0.074123487 -0.34814972 0.71500003 71 58 34 255
0.076286323 -0.34912753 0.71700001 79 67 38 255
0.078678407 -0.35107949 0.72100002 75 66 36 255
0.080980539 -0.3525447 0.72400004 70 61 31 255
0.083069965 -0.35303622 0.72500002 55 48 18 255
0.085282251 -0.35401484 0.72700006 60 50 23 255
0.087505549 -0.3549937 0.72900003 48 38 13 255
0.089862607 -0.35645968 0.73200005 50 39 16 255
0.092487119 -0.35889986 0.73700005 64 55 34 255
0.0948826 -0.36036631 0.74000001 55 46 25 255
0.097294562 -0.36183307 0.74300003 55 45 26 255
0.099455662 -0.36232606 0.74400002 50 42 25 255
0.10175874 -0.36330625 0.74600005 41 34 14 255
0.10435114 -0.36526069 0.75000006 49 39 20 255
0.10682364 -0.36672843 0.75300002 49 38 17 255
0.10931266 -0.36819643 0.75600004 54 45 24 255
0.11152357 -0.36869067 0.75700003 50 41 20 255
0.11404018 -0.37015921 0.76000005 45 35 16 255
0.11611498 -0.37016687 0.76000005 36 29 9 255
0.11865647 -0.371636 0.76300001 40 33 13 255
0.1210563 -0.37261841 0.76500005 37 30 10 255
0.12378917 -0.37457529 0.76900005 41 34 14 255
0.12638035 -0.37604538 0.77200001 41 34 14 255
0.12898812 -0.37751579 0.77500004 49 44 24 255
0.13212 -0.38044804 0.78100002 40 36 19 255
0.13545674 -0.3838678 0.78800005 31 27 10 255
0.13883194 -0.38728803 0.79500002 25 22 6 255
0.14082672 -0.38681147 0.79400003 26 22 11 255
0.14191581 -0.38389927 0.78800005 27 25 14 255
0.14352082 -0.38244879 0.78500003 21 19 8 255
0.14510965 -0.38099855 0.78200006 25 24 10 255
0.14687066 -0.38003576 0.78000003 26 25 11 255
0.14862099 -0.37907329 0.77800006 29 26 10 255
0.15074818 -0.37908557 0.77800006 30 27 11 255
0.15267916 -0.37861097 0.77700001 29 26 10 255
0.15420648 -0.3771621 0.77400005 33 30 14 255
0.15571769 -0.37571347 0.77100003 32 29 13 255
0.15762222 -0.37523979 0.77000004 32 29 13 255
0.15931413 -0.37427908 0.76800001 32 30 12 255
0.16099541 -0.3733187 0.76600003 38 36 18 255
0.1626661 -0.37235865 0.76400006 34 32 14 255
0.16475749 -0.37237373 0.76400006 37 35 17 255
0.16663077 -0.37190169 0.76300001 29 27 9 255
0.16827789 -0.37094268 0.76100004 38 36 18 255
0.16991439 -0.36998403 0.75900006 35 33 15 255
0.17176689 -0.36951312 0.75800002 34 32 14 255
0.17361435 -0.36904263 0.75700003 33 31 13 255
0.17545673 -0.36857259 0.75600004 31 29 11 255
0.17682438 -0.36712781 0.75300002 31 29 11 255
0.17888868 -0.36714604 0.75300002 34 32 14 255
0.18047285 -0.36618963 0.75100005 38 36 18 255
0.18228953 -0.36572114 0.75000006 34 32 14 255
0.18410113 -0.36525306 0.74900001 37 35 17 255
0.18590777 -0.36478552 0.74800003 37 35 17 255
0.18720685 -0.36334297 0.74500006 37 35 17 255
0.18899797 -0.36287624 0.74400002 34 32 12 255
0.19078414 -0.36240995 0.74300003 32 31 9 255
0.19282483 -0.36243191 0.74300003 35 34 12 255
0.19434154 -0.36147881 0.74100006 39 38 16 255
0.19584776 -0.36052606 0.73900002 42 41 17 255
0.19814688 -0.3610374 0.74000001 43 41 17 255
0.20018159 -0.36106151 0.74000001 45 43 19 255
0.20249011 -0.36157414 0.74100006 48 46 22 255
0.20508076 -0.36257535 0.74300003 46 41 20 255
0.20768304 -0.36357737 0.74500006 44 39 18 255
0.21001549 -0.36409205 0.74600005 55 48 27 255
0.21206978 -0.36411932 0.74600005 57 52 31 255
0.21498586 -0.36561161 0.74900001 54 49 28 255
0.21791916 -0.36710474 0.75200003 57 53 29 255
0.22145481 -0.36957526 0.75700003 60 57 37 255
0.22619997 -0.3739998 0.76600003 61 59 41 255
-0.33522925 -0.38853478 0.78600001 64 65 51 255
-0.32791206 -0.38252237 0.77400005 69 66 50 255
-0.32276917 -0.37898439 0.76700002 65 63 45 255
-0.32017601 -0.37841335 0.76600003 55 56 34 255
-0.31759056 -0.37784389 0.76500005 54 53 31 255
-0.31501269 -0.37727597 0.76400006 48 45 24 255
-0.31244242 -0.37670952 0.76300001 43 41 17 255
-0.30906641 -0.37515739 0.76000005 42 37 16 255
-0.30651686 -0.37459418 0.75900006 52 45 22 255
-0.30357373 -0.37353891 0.75700003 45 38 15 255
-0.30104181 -0.37297863 0.75600004 46 42 18 255
-0.29891267 -0.37291306 0.75600004 43 39 14 255
-0.29639268 -0.37235549 0.75500005 42 38 13 255
-0.29504922 -0.37327859 0.75700003 42 38 13 255
-0.29292223 -0.37321642 0.75700003 37 35 11 255
-0.29156518 -0.3741414 0.75900006 42 39 18 255
-0.28943574 -0.37408143 0.75900006 39 36 15 255
-0.28730789 -0.3740226 0.75900006 42 39 18 255
-0.28555721 -0.37445757 0.76000005 37 34 13 255
-0.2834295 -0.37440085 0.76000005 41 38 17 255
-0.28241366 -0.37582293 0.76300001 38 36 16 255
-0.28028038 -0.37576815 0.76300001 33 31 11 255
-0.27814853 -0.37571442 0.76300001 38 36 16 255
-0.27601802 -0.37566176 0.76300001 34 32 14 255
-0.27424785 -0.37610242 0.76400006 35 33 15 255
-0.27318573 -0.37752834 0.76700002 32 30 12 255
-0.27140135 -0.37797052 0.76800001 32 30 12 255
-0.27031395 -0.37939784 0.77100003 33 31 13 255
-0.26816753 -0.37934959 0.77100003 35 33 15 255
-0.26740253 -0.3812702 0.77500004 32 28 11 255
-0.2645629 -0.38023981 0.77300006 29 27 9 255
-0.26241452 -0.38019431 0.77300006 31 29 11 255
-0.26060399 -0.38064152 0.77400005 33 29 12 255
-0.25912285 -0.38158119 0.77600002 32 28 11 255
-0.25796291 -0.38301325 0.77900004 32 28 11 255
-0.25547391 -0.38247937 0.77800006 33 27 10 255
-0.25429386 -0.38391274 0.78100002 37 31 15 255
-0.25245258 -0.38436365 0.78200006 30 26 10 255
-0.2512469 -0.38579816 0.78500003 28 25 9 255
-0.24939093 -0.38625041 0.78600001 27 24 10 255
-0.24721591 -0.38621196 0.78600001 30 27 13 255
-0.24535359 -0.3866657 0.78700006 23 21 10 255
-0.24348667 -0.38712019 0.78800005 20 18 7 255
-0.24192134 -0.3880665 0.79000002 23 21 11 255
-0.24034582 -0.38901347 0.79200006 21 18 11 255
-0.23815875 -0.38897875 0.79200006 19 16 9 255
-0.23567452 -0.38845357 0.79100001 16 13 6 255
-0.23290147 -0.3874383 0.78900003 19 17 7 255
-0.22897057 -0.38445985 0.78300005 28 26 15 255
-0.22420447 -0.38000965 0.77400005 41 39 21 255
-0.22034951 -0.37703368 0.76800001 46 45 23 255
-0.2165284 -0.37405887 0.76200002 45 44 22 255
-0.21217819 -0.37010339 0.75400001 50 49 27 255
-0.20815137 -0.36664 0.74700004 50 48 30 255
-0.20443967 -0.36366853 0.74100006 55 52 36 255
-0.20103475 -0.36118883 0.73600006 57 55 37 255
-0.19765797 -0.35871002 0.73100001 53 51 33 255
-0.19457693 -0.35672286 0.72700006 62 61 39 255
-0.19204827 -0.35571778 0.72500002 58 58 32 255
-0.18874469 -0.35324156 0.72000003 58 58 30 255
-0.18650675 -0.35272852 0.71900004 59 59 31 255
-0.18324824 -0.35025385 0.71400005 61 61 35 255
-0.18027158 -0.34827051 0.71000004 59 58 34 255
-0.17706624 -0.34579739 0.70500004 61 59 39 255
-0.17438565 -0.34430602 0.70200002 63 61 41 255
-0.17172199 -0.34281528 0.69900006 58 56 38 255
-0.1685894 -0.34034437 0.69400001 53 51 31 255
-0.16620523 -0.33934531 0.69200003 53 52 30 255
-0.16454476 -0.33981791 0.69300002 53 52 30 255
-0.16240983 -0.33931023 0.69200003 62 61 39 255
-0.1600488 -0.33831266 0.69000006 56 55 31 255
-0.15769914 -0.33731568 0.68800002 48 46 22 255
-0.1553608 -0.33631918 0.68600005 44 42 18 255
-0.15325752 -0.33581337 0.68500006 38 37 13 255
-0.15093908 -0.33481783 0.68300003 43 41 17 255
-0.14906844 -0.33480313 0.68300003 46 41 20 255
-0.14698264 -0.33429867 0.68200004 43 38 17 255
-0.14511539 -0.33428475 0.68200004 38 33 12 255
-0.14303841 -0.33378106 0.68100005 42 38 14 255
-0.1411745 -0.33376786 0.68100005 42 38 14 255
-0.1393109 -0.33375505 0.68100005 46 42 18 255
-0.13744757 -0.33374253 0.68100005 40 37 17 255
-0.13538542 -0.33324027 0.68000001 41 38 18 255
-0.133329 -0.33273843 0.67900002 40 37 17 255
-0.13127834 -0.33223692 0.67800003 48 46 28 255
-0.12904249 -0.33124581 0.67600006 44 41 21 255
-0.12700598 -0.33074495 0.67500001 45 42 21 255
-0.12516057 -0.33073443 0.67500001 48 45 24 255
-0.12313272 -0.33023429 0.67400002 45 42 22 255
-0.12111057 -0.32973447 0.67300004 46 43 22 255
-0.11909407 -0.3292349 0.67200005 50 47 26 255
-0.11725773 -0.32922563 0.67200005 50 47 27 255
-0.11524983 -0.32872662 0.671 48 45 25 255
-0.11341662 -0.32871783 0.671 45 42 22 255
-0.11108472 -0.32723969 0.66800004 50 48 30 255
-0.10926007 -0.32723147 0.66800004 49 46 32 255
-0.10727476 -0.32673365 0.66700006 44 42 31 255
-0.10545317 -0.32672587 0.66700006 45 42 35 255
-0.10347638 -0.32622853 0.66600001 52 50 40 255
-0.1015052 -0.32573143 0.66500002 45 44 30 255
-0.099689528 -0.32572436 0.66500002 48 47 31 255
-0.097726837 -0.32522777 0.66400003 55 53 35 255
-0.096058637 -0.32571092 0.66500002 48 46 28 255
-0.094101675 -0.32521477 0.66400003 49 47 27 255
-0.092289284 -0.32520857 0.66400003 51 50 28 255
-0.090340763 -0.32471281 0.66300005 45 43 23 255
-0.08853136 -0.32470703 0.66300005 41 39 19 255
-0.086722054 -0.3247014 0.66300005 43 40 20 255
-0.085040934 -0.32518572 0.66400003 45 43 23 255
-0.083103769 -0.32469073 0.66300005 56 54 34 255
-0.081049554 -0.32370621 0.66100001 49 47 27 255
-0.079126254 -0.32321164 0.66000003 46 44 24 255
-0.077559963 -0.32418633 0.66200006 51 49 31 255
-0.075868428 -0.32467148 0.66300005 47 45 27 255
-0.074059814 -0.32466704 0.66300005 40 38 18 255
-0.072033331 -0.32368341 0.66100001 41 39 19 255
-0.070230342 -0.32367936 0.66100001 46 43 23 255
-0.06832391 -0.32318574 0.66000003 45 42 22 255
-0.066624582 -0.32367158 0.66100001 42 37 17 255
-0.064919889 -0.32415763 0.66200006 47 40 20 255
-0.063209802 -0.32464376 0.66300005 47 40 20 255
-0.061309088 -0.32415071 0.66200006 56 50 33 255
-0.05941391 -0.32365781 0.66100001 54 52 34 255
-0.057611387 -0.32365468 0.66100001 51 49 29 255
-0.055808932 -0.3236517 0.66100001 46 44 24 255
-0.053924818 -0.32315922 0.66000003 47 45 25 255
-0.052125193 -0.32315645 0.66000003 42 40 20 255
-0.05032561 -0.32315382 0.66000003 44 42 18 255
-0.048599601 -0.32364091 0.66100001 44 41 20 255
-0.046868183 -0.32412812 0.66200006 43 41 21 255
-0.045131359 -0.32461545 0.66300005 48 45 24 255
-0.043258425 -0.32412365 0.66200006 48 45 24 255
-0.041390989 -0.32363197 0.66100001 45 42 21 255
-0.039588928 -0.32362998 0.66100001 40 37 16 255
-0.037786905 -0.3236281 0.66100001 46 41 20 255
-0.035984911 -0.32362634 0.66100001 44 39 19 255
-0.034234662 -0.32411429 0.66200006 46 42 25 255
-0.032430004 -0.32411271 0.66200006 44 42 24 255
-0.030625368 -0.32411119 0.66200006 48 46 28 255
-0.028820759 -0.32410979 0.66200006 43 41 21 255
-0.026975363 -0.32361892 0.66100001 42 43 21 255
-0.025135441 -0.32312813 0.66000003 41 42 20 255
-0.023336347 -0.323127 0.66000003 43 42 20 255
-0.021537274 -0.32312599 0.66000003 48 46 26 255
-0.019738214 -0.323125 0.66000003 46 44 24 255
-0.017939175 -0.3231242 0.66000003 43 40 19 255
-0.016140142 -0.3231234 0.66000003 53 50 30 255
-0.014384585 -0.32410187 0.66200006 53 48 27 255
-0.012618135 -0.32508039 0.66400003 52 45 22 255
-0.010824514 -0.32556948 0.66500002 57 50 27 255
-0.0090118973 -0.325569 0.66500002 65 57 32 255
-0.0071776356 -0.32458952 0.66300005 77 67 40 255
-0.0053704819 -0.32458922 0.66300005 77 67 40 255
-0.0035525837 -0.32360986 0.66100001 71 61 36 255
-0.0017508889 -0.32360974 0.66100001 66 57 34 255
5.0958308e-05 -0.32458887 0.66300005 47 40 19 255
0.0018637084 -0.32556805 0.66500002 45 39 22 255
0.003676306 -0.32556817 0.66500002 40 36 19 255
0.0054806531 -0.32507882 0.66400003 44 41 21 255
0.0073015117 -0.32556868 0.66500002 43 40 20 255
0.0091278274 -0.32605863 0.66600001 41 38 17 255
0.010992463 -0.32752779 0.66900003 42 39 18 255
0.012815991 -0.32752833 0.66900003 44 39 18 255
0.014661412 -0.32801855 0.67000002 47 43 19 255
0.016487686 -0.32801923 0.67000002 45 41 17 255
0.018368645 -0.32899922 0.67200005 44 42 18 255
0.020200398 -0.32900009 0.67200005 47 43 19 255
0.02206495 -0.32949063 0.67300004 47 43 19 255
0.023899462 -0.32949167 0.67300004 52 45 22 255
0.025772233 -0.32998243 0.67400002 62 53 30 255
0.02765047 -0.33047321 0.67500001 66 55 32 255
0.029621564 -0.33194333 0.67800003 75 62 38 255
0.031562623 -0.33292395 0.68000001 80 70 45 255
0.033514611 -0.33390471 0.68200004 64 53 30 255
0.03547753 -0.33488551 0.68400002 49 40 17 255
0.037451383 -0.33586645 0.68600005 47 40 17 255
0.039378855 -0.33635792 0.68700004 46 39 18 255
0.041311808 -0.33684948 0.68800002 47 42 21 255
0.043250248 -0.33734113 0.68900001 47 42 21 255
0.045259684 -0.33832255 0.69100004 47 40 19 255
0.047348283 -0.33979371 0.69400001 47 40 20 255
0.049311385 -0.34028575 0.69500005 42 33 12 255
0.051427335 -0.34175715 0.69800001 41 32 11 255
0.05340689 -0.34224945 0.69900006 43 36 16 255
0.05547107 -0.3432315 0.70100003 47 37 18 255
0.057300635 -0.34274477 0.70000005 50 43 23 255
0.059378561 -0.34372708 0.70200002 45 38 18 255
0.061554752 -0.34519917 0.70500004 45 38 18 255
0.063657336 -0.34618184 0.70700002 44 34 15 255
0.06558536 -0.3461853 0.70700002 45 36 15 255
0.067799933 -0.34765792 0.71000004 50 39 18 255
0.070129156 -0.34962037 0.71400005 48 37 16 255
0.072076485 -0.34962434 0.71400005 45 34 11 255
0.073920205 -0.34913877 0.71300006 53 40 16 255
0.076077752 -0.35012236 0.71500003 64 54 27 255
0.078464575 -0.35208556 0.71900004 66 57 27 255
0.080873296 -0.35404897 0.72300005 68 59 29 255
0.082960166 -0.35454348 0.72400004 67 57 30 255
0.085169896 -0.35552788 0.72600001 67 57 30 255
0.087390669 -0.35651252 0.72800004 56 46 19 255
0.089745201 -0.35798708 0.73100001 51 40 17 255
0.092241719 -0.35995159 0.73500001 64 55 34 255
0.09476018 -0.36191636 0.73900002 54 44 25 255
0.097169638 -0.3633917 0.74200004 49 39 20 255
0.099461906 -0.36437744 0.74400002 44 36 19 255
0.10176521 -0.36536351 0.74600005 46 36 19 255
0.10435788 -0.36732939 0.75000006 42 32 13 255
0.10654686 -0.36782613 0.75100005 54 43 22 255
0.10903069 -0.36930275 0.75400001 60 49 28 255
0.11138371 -0.37028989 0.75600004 45 36 15 255
0.11389785 -0.37176707 0.75900006 42 32 13 255
0.11627576 -0.37275475 0.76100004 37 30 10 255
0.11882028 -0.37423259 0.76400006 38 31 11 255
0.12122311 -0.37522089 0.76600003 40 33 13 255
0.12379804 -0.37669939 0.76900005 41 34 14 255
0.12655325 -0.37866807 0.77300006 42 35 15 255
0.12933052 -0.38063711 0.77700001 46 41 21 255
0.13246822 -0.38358641 0.78300005 40 36 19 255
0.13563891 -0.38653606 0.78900003 33 29 12 255
0.13866796 -0.38899633 0.79400003 24 21 5 255
0.1406603 -0.38851741 0.79300004 27 23 12 255
0.141927 -0.38607901 0.78800005 19 17 6 255
0.14334944 -0.38413078 0.78400004 26 24 13 255
0.14475025 -0.38218272 0.78000003 27 26 12 255
0.1465061 -0.38121489 0.77800006 26 25 11 255
0.14825127 -0.38024729 0.77600002 30 29 13 255
0.15056714 -0.38075015 0.77700001 27 26 10 255
0.15249573 -0.38027325 0.77600002 27 26 10 255
0.15421988 -0.37930661 0.77400005 25 24 8 255
0.15552942 -0.37736017 0.77000004 30 27 11 255
0.15743157 -0.37688425 0.76900005 29 26 10 255
0.15891363 -0.37542838 0.76600003 30 28 10 255
0.1608 -0.37495312 0.76500005 32 30 12 255
0.16246827 -0.373988 0.76300001 34 32 14 255
0.16434166 -0.37351346 0.76200002 35 33 15 255
0.16620992 -0.37303925 0.76100004 34 32 14 255
0.16807304 -0.37256542 0.76000005 40 38 20 255
0.17015497 -0.37258223 0.76000005 35 33 15 255
0.17178401 -0.3716189 0.75800002 36 34 16 255
0.17317316 -0.37016571 0.75500005 37 35 17 255
0.17477836 -0.36920312 0.75300002 32 30 12 255
0.17660788 -0.36873123 0.75200003 31 29 11 255
0.17866991 -0.3687501 0.75200003 34 32 14 255
0.1804921 -0.36827907 0.75100005 35 33 15 255
0.18230921 -0.36780843 0.75000006 36 34 16 255
0.1838755 -0.36684784 0.74800003 36 34 16 255
0.18567985 -0.3663781 0.74700004 37 35 17 255
0.18722792 -0.36541834 0.74500006 38 36 18 255
0.18901952 -0.36494946 0.74400002 42 40 20 255
0.19106297 -0.36497161 0.74400002 39 38 16 255
0.19284743 -0.36450377 0.74300003 39 36 15 255
0.19436459 -0.36354572 0.74100006 43 40 19 255
0.19613639 -0.36307877 0.74000001 43 40 19 255
0.19843885 -0.36359373 0.74100006 42 39 18 255
0.20047687 -0.36361858 0.74100006 42 39 18 255
0.20306206 -0.36462545 0.74300003 45 42 21 255
0.20510675 -0.36465153 0.74300003 48 44 20 255
0.20770977 -0.36565995 0.74500006 50 46 22 255
0.21004285 -0.36617815 0.74600005 54 48 23 255
0.21238206 -0.36669707 0.74700004 51 45 20 255
0.21472755 -0.36721677 0.74800003 57 51 26 255
0.21736903 -0.36822811 0.75000006 53 49 25 255
0.2211926 -0.37120435 0.75600004 57 54 34 255
0.22593606 -0.37565491 0.76500005 60 58 40 255
-0.33872545 -0.39477262 0.79400003 52 50 39 255
-0.33053526 -0.38772917 0.78000003 72 70 50 255
-0.32326856 -0.38168401 0.76800001 72 71 47 255
-0.31816256 -0.37812725 0.76100004 64 64 38 255
-0.31517458 -0.37705716 0.75900006 54 54 28 255
-0.31343707 -0.37747887 0.76000005 53 52 28 255
-0.31210551 -0.37839833 0.76200002 49 47 23 255
-0.30832392 -0.37633979 0.75800002 51 47 23 255
-0.30537465 -0.37527609 0.75600004 43 39 15 255
-0.30243856 -0.37421402 0.75400001 45 41 16 255
-0.30110872 -0.37513852 0.75600004 44 40 15 255
-0.2989783 -0.37507156 0.75600004 49 45 20 255
-0.2968497 -0.3750059 0.75600004 45 41 16 255
-0.29511252 -0.37543732 0.75700003 40 36 11 255
-0.2929844 -0.37537393 0.75700003 40 38 14 255
-0.29124206 -0.37580749 0.75800002 41 39 15 255
-0.28873292 -0.37525067 0.75700003 43 41 17 255
-0.28698814 -0.37568641 0.75800002 42 39 18 255
-0.28523925 -0.3761231 0.75900006 40 37 16 255
-0.28385928 -0.37705618 0.76100004 44 41 20 255
-0.28209931 -0.37749469 0.76200002 39 36 15 255
-0.28033519 -0.37793413 0.76300001 41 38 17 255
-0.27856696 -0.37837452 0.76400006 36 33 13 255
-0.27607077 -0.37782541 0.76300001 40 37 17 255
-0.27429962 -0.37826777 0.76400006 40 36 19 255
-0.27252421 -0.37871093 0.76500005 32 30 12 255
-0.27109799 -0.37965 0.76700002 31 29 11 255
-0.27001256 -0.38108471 0.77000004 33 31 13 255
-0.26786795 -0.38103542 0.77000004 33 31 13 255
-0.2667599 -0.3824715 0.77300006 31 29 11 255
-0.26392481 -0.38143453 0.77100003 32 30 12 255
-0.26246008 -0.38237745 0.77300006 32 28 11 255
-0.26031193 -0.38233176 0.77300006 32 28 11 255
-0.25883281 -0.38327613 0.77500004 30 26 9 255
-0.25734371 -0.38422114 0.77700001 30 24 8 255
-0.25551617 -0.38467243 0.77800006 32 26 10 255
-0.25466111 -0.38660765 0.78200006 28 24 8 255
-0.25281623 -0.38706028 0.78300005 28 25 9 255
-0.25096682 -0.38751367 0.78400004 28 25 11 255
-0.24879554 -0.38747358 0.78400004 26 23 9 255
-0.24725437 -0.38842264 0.78600001 23 19 8 255
-0.24570309 -0.38937235 0.78800005 22 20 9 255
-0.24383265 -0.38982859 0.78900003 22 20 10 255
-0.24257018 -0.39127365 0.79200006 19 17 7 255
-0.24098842 -0.39222515 0.79400003 16 16 8 255
-0.23909579 -0.39268333 0.79500002 16 16 8 255
-0.23541054 -0.3901788 0.79000002 16 16 8 255
-0.23263945 -0.38915706 0.78800005 18 16 6 255
-0.22900279 -0.38665473 0.78300005 26 25 11 255
-0.2248151 -0.38316604 0.77600002 37 35 17 255
-0.22066674 -0.37967861 0.76900005 42 40 20 255
-0.21598932 -0.37520498 0.76000005 43 41 21 255
-0.21136226 -0.37073278 0.75100005 51 50 28 255
-0.20762153 -0.36774278 0.74500006 52 51 29 255
-0.20391445 -0.36475375 0.73900002 60 58 40 255
-0.20051427 -0.36225939 0.73400003 53 51 33 255
-0.19687182 -0.35927245 0.72800004 55 53 33 255
-0.19379829 -0.35727346 0.72400004 50 49 25 255
-0.19101235 -0.35576877 0.72100002 58 58 30 255
-0.18824342 -0.3542648 0.71800005 61 61 33 255
-0.18601039 -0.35374835 0.71700001 60 60 30 255
-0.18301338 -0.35175249 0.71300006 61 61 35 255
-0.18029279 -0.35025066 0.71000004 60 59 35 255
-0.17733796 -0.34825626 0.70600003 60 57 37 255
-0.17490253 -0.34724912 0.70400006 58 56 36 255
-0.17198712 -0.34525612 0.70000005 53 51 31 255
-0.16885118 -0.34277061 0.69500005 53 52 30 255
-0.16622354 -0.34127221 0.69200003 52 51 27 255
-0.16456264 -0.34174696 0.69300002 54 53 31 255
-0.16289668 -0.34222209 0.69400001 53 52 30 255
-0.1605297 -0.34121841 0.69200003 49 48 26 255
-0.15794483 -0.33972213 0.68900001 59 58 34 255
-0.1556033 -0.33871949 0.68700004 57 56 32 255
-0.15349688 -0.33821037 0.68600005 47 46 22 255
-0.15117523 -0.33720866 0.68400002 46 45 21 255
-0.1490832 -0.33670047 0.68300003 41 38 17 255
-0.14699699 -0.3361927 0.68200004 41 37 13 255
-0.14512938 -0.33617824 0.68200004 41 37 13 255
-0.14305201 -0.33567128 0.68100005 45 41 17 255
-0.14118774 -0.3356576 0.68100005 51 47 23 255
-0.13911921 -0.3351514 0.68000001 45 41 17 255
-0.13725828 -0.33513844 0.68000001 44 41 20 255
-0.13539764 -0.33512583 0.68000001 44 41 20 255
-0.13373365 -0.3356064 0.68100005 41 38 17 255
-0.13128987 -0.33411598 0.67800003 42 39 19 255
-0.1292446 -0.33361164 0.67700005 48 45 25 255
-0.12701684 -0.33261481 0.67500001 51 48 27 255
-0.12517114 -0.33260387 0.67500001 52 48 31 255
-0.12296028 -0.33160782 0.67300004 50 46 29 255
-0.12094055 -0.33110479 0.67200005 52 48 31 255
-0.11892648 -0.33060205 0.671 53 50 30 255
-0.11726712 -0.33108506 0.67200005 54 52 34 255
-0.11508717 -0.33009022 0.67000002 49 47 29 255
-0.11325644 -0.33008108 0.67000002 45 43 23 255
-0.11092697 -0.32859427 0.66700006 44 42 24 255
-0.1091048 -0.32858568 0.66700006 39 36 22 255
-0.10712195 -0.32808471 0.66600001 44 40 29 255
-0.10546097 -0.3285692 0.66700006 49 45 34 255
-0.10332856 -0.32757616 0.66500002 51 48 34 255
-0.10135987 -0.32707596 0.66400003 51 48 32 255
-0.099246882 -0.32608348 0.66200006 47 45 27 255
-0.097439341 -0.32607636 0.66200006 53 51 33 255
-0.095920853 -0.32705453 0.66400003 48 46 28 255
-0.094108127 -0.3270478 0.66400003 43 41 21 255
-0.092156529 -0.32654876 0.66300005 45 43 23 255
-0.090346798 -0.32654247 0.66300005 44 44 26 255
