ply
format ascii 1.0
comment PCL generated
element vertex 974
property float x
property float y
property float z
property uchar red
property uchar green
property uchar blue
property uchar alpha
element camera 0
property float view_px
property float view_py
property float view_pz
property float x_axisx
property float x_axisy
property float x_axisz
property float y_axisx
property float y_axisy
property float y_axisz
property float z_axisx
property float z_axisy
property float z_axisz
property float focal
property float scalex
property float scaley
property float centerx
property float centery
property int viewportx
property int viewporty
property float k1
property float k2
end_header
0.21429133 -0.36076227 0.84500003 39 36 16 255
0.21634451 -0.36034533 0.84400004 40 35 14 255
0.21891071 -0.36078262 0.84500003 45 40 20 255
0.22148272 -0.36122033 0.84600002 43 37 20 255
0.22538334 -0.36379349 0.85200006 43 41 23 255
0.22931711 -0.36636719 0.85800004 50 47 31 255
0.23274419 -0.36808753 0.86200005 77 74 60 255
0.23510262 -0.36810026 0.86200005 95 96 82 255
0.23691052 -0.36725938 0.86000001 112 117 105 255
0.2384298 -0.36599189 0.85700005 126 133 122 255
-0.25971517 -0.26935786 0.62400001 72 70 59 255
-0.25466129 -0.26586577 0.61600006 82 80 62 255
-0.25211713 -0.26496473 0.61400002 81 80 58 255
-0.24917756 -0.26363325 0.611 73 72 48 255
-0.245851 -0.26187158 0.60700005 63 63 37 255
-0.24375458 -0.26140511 0.60600001 63 63 35 255
-0.24286331 -0.26223356 0.60800004 63 63 35 255
-0.24196196 -0.26306245 0.61000001 76 76 50 255
-0.23829348 -0.26087359 0.60500002 80 80 52 255
-0.23269852 -0.25653023 0.59500003 77 74 44 255
-0.22871344 -0.25391299 0.58900005 62 61 31 255
-0.22669035 -0.25345221 0.588 60 59 29 255
-0.22505656 -0.25342327 0.588 61 60 32 255
-0.22380374 -0.25382593 0.58900005 56 54 29 255
-0.22179185 -0.2533673 0.588 50 46 22 255
-0.22053532 -0.25377119 0.58900005 49 45 20 255
-0.21815917 -0.25288317 0.58700001 45 41 16 255
-0.2169016 -0.25328824 0.588 48 44 19 255
-0.21563934 -0.25369385 0.58900005 51 48 20 255
-0.21437238 -0.25409997 0.59000003 50 46 21 255
-0.21274014 -0.25407597 0.59000003 47 45 20 255
-0.21039303 -0.25319138 0.588 48 46 22 255
-0.20805779 -0.2523075 0.58600003 49 48 24 255
-0.20608664 -0.2518549 0.58500004 42 41 17 255
-0.20482078 -0.25226387 0.58600003 43 42 18 255
-0.2035501 -0.2526733 0.58700001 43 42 18 255
-0.20193058 -0.25265279 0.58700001 43 42 18 255
-0.20031179 -0.25263286 0.58700001 45 42 21 255
-0.19869362 -0.2526134 0.58700001 40 39 17 255
-0.19741188 -0.25302479 0.588 40 39 17 255
-0.19545925 -0.25257602 0.58700001 45 44 22 255
-0.19384298 -0.25255808 0.58700001 48 45 24 255
-0.19189987 -0.25211042 0.58600003 45 42 21 255
-0.18996282 -0.2516633 0.58500004 41 39 15 255
-0.18835378 -0.25164685 0.58500004 52 48 24 255
-0.18706454 -0.25206098 0.58600003 47 45 21 255
-0.18513739 -0.25161532 0.58500004 44 42 18 255
-0.18384372 -0.25203028 0.58600003 45 42 21 255
-0.18223403 -0.25201562 0.58600003 40 37 17 255
-0.18062489 -0.25200135 0.58600003 42 39 19 255
-0.17901623 -0.25198752 0.58600003 43 40 20 255
-0.17740799 -0.25197411 0.58600003 43 40 19 255
-0.17640023 -0.252821 0.588 45 40 19 255
-0.1750847 -0.25323829 0.58900005 42 37 16 255
-0.17376406 -0.25365591 0.59000003 44 39 19 255
-0.17214663 -0.25364396 0.59000003 43 36 15 255
-0.17052959 -0.2536324 0.59000003 46 39 18 255
-0.16948549 -0.25448093 0.59200001 46 39 18 255
-0.16786376 -0.25447005 0.59200001 47 40 19 255
-0.16652319 -0.25488937 0.59300005 45 38 17 255
-0.16545558 -0.25573882 0.59500003 45 40 19 255
-0.16437738 -0.25658855 0.597 45 40 19 255
-0.16274333 -0.25657898 0.597 43 38 18 255
-0.16110964 -0.25656971 0.597 41 36 16 255
-0.15920913 -0.25613105 0.59600002 39 34 14 255
-0.15837203 -0.25741172 0.59900004 42 37 17 255
-0.15699542 -0.25783309 0.60000002 42 36 19 255
-0.15587257 -0.25868449 0.60200006 41 35 18 255
-0.15473908 -0.25953609 0.60400003 48 40 23 255
-0.15435529 -0.26167703 0.60900003 42 34 17 255
-0.15344296 -0.26295877 0.61200005 41 33 16 255
-0.15226655 -0.26381105 0.61400002 37 31 14 255
-0.15107942 -0.26466361 0.61600006 36 32 15 255
-0.15012412 -0.26594597 0.61900002 37 34 18 255
-0.14939247 -0.2676582 0.62300003 35 32 16 255
-0.14887628 -0.26980025 0.62800002 35 32 16 255
-0.1485673 -0.27237204 0.634 36 33 17 255
-0.14822577 -0.27494398 0.64000005 33 30 14 255
-0.14762281 -0.2770865 0.64500004 32 29 13 255
-0.14721888 -0.2796587 0.65100002 30 27 11 255
-0.146559 -0.28180152 0.65600002 28 25 11 255
-0.14609267 -0.28437406 0.66200006 26 23 9 255
-0.14406809 -0.28393981 0.66100001 25 21 10 255
-0.14204915 -0.2835058 0.66000003 23 19 8 255
-0.14046083 -0.28393111 0.66100001 25 21 10 255
-0.13865742 -0.28392708 0.66100001 26 22 11 255
-0.13685419 -0.28392327 0.66100001 28 24 13 255
-0.13505109 -0.28391966 0.66100001 30 27 13 255
-0.13304654 -0.28348669 0.66000003 30 27 13 255
-0.13084872 -0.28262445 0.65800005 30 27 11 255
-0.12925032 -0.28305092 0.65900004 31 28 12 255
-0.12745318 -0.28304806 0.65900004 34 32 14 255
-0.12527481 -0.28218636 0.65700001 32 29 13 255
-0.12273154 -0.28046584 0.65300006 32 30 12 255
-0.12076586 -0.28003401 0.65200001 33 31 13 255
-0.11880572 -0.27960229 0.65100002 30 30 12 255
-0.11685115 -0.27917078 0.65000004 30 30 12 255
-0.11472505 -0.27830991 0.648 36 36 18 255
-0.11295857 -0.27830818 0.648 36 34 16 255
-0.11084899 -0.27744758 0.64600003 36 34 14 255
-0.10891923 -0.27701661 0.64500004 38 36 16 255
-0.10699502 -0.27658579 0.64400005 41 40 18 255
-0.10556655 -0.2774435 0.64600003 41 40 18 255
-0.10364517 -0.27701291 0.64500004 40 37 16 255
-0.1017293 -0.27658242 0.64400005 41 36 15 255
-0.099818915 -0.27615201 0.64300001 40 36 12 255
-0.098219067 -0.27658069 0.64400005 42 38 14 255
-0.096464023 -0.27657998 0.64400005 43 39 15 255
-0.094561949 -0.27614987 0.64300001 44 42 18 255
-0.092521034 -0.27529037 0.64100003 46 41 20 255
-0.090774275 -0.27528992 0.64100003 41 38 17 255
-0.089166418 -0.27571902 0.64200002 42 40 20 255
-0.087553158 -0.27614817 0.64300001 37 35 15 255
-0.085801043 -0.27614793 0.64300001 40 38 20 255
-0.084048942 -0.27614778 0.64300001 44 42 22 255
-0.082296856 -0.27614763 0.64300001 42 40 20 255
-0.080419533 -0.27571815 0.64200002 41 38 17 255
-0.078792751 -0.2761476 0.64300001 41 38 17 255
-0.077040717 -0.27614769 0.64300001 35 34 12 255
-0.075288698 -0.27614778 0.64300001 39 37 17 255
-0.073536694 -0.27614793 0.64300001 37 35 15 255
-0.071896337 -0.27657762 0.64400005 37 35 15 255
-0.070032701 -0.27614838 0.64300001 35 33 13 255
-0.068174519 -0.27571917 0.64200002 38 36 18 255
-0.066425271 -0.27571949 0.64200002 37 35 17 255
-0.064575277 -0.27529034 0.64100003 42 40 22 255
-0.062828749 -0.2752907 0.64100003 39 37 19 255
-0.060986929 -0.2748616 0.64000005 40 38 20 255
-0.059150565 -0.27443257 0.63900006 38 35 19 255
-0.057229791 -0.27357396 0.63700002 38 35 19 255
-0.055319924 -0.27271551 0.63500005 41 39 21 255
-0.053505342 -0.27228642 0.634 39 37 19 255
-0.051532872 -0.27099848 0.63100004 40 38 18 255
-0.049655695 -0.27013999 0.62900001 42 41 19 255
-0.047865618 -0.26971096 0.62800002 45 44 22 255
-0.046154492 -0.26971143 0.62800002 41 40 18 255
-0.044301815 -0.26885295 0.62600005 40 37 16 255
-0.042528078 -0.26842391 0.625 41 38 17 255
-0.04069446 -0.2675654 0.62300003 41 38 18 255
-0.038996935 -0.26756591 0.62300003 45 41 24 255
-0.037239525 -0.26713684 0.62200004 48 44 27 255
-0.035601851 -0.26756677 0.62300003 45 43 25 255
-0.033904299 -0.26756722 0.62300003 47 43 26 255
-0.032155048 -0.26713815 0.62200004 43 37 20 255
-0.030460209 -0.26713854 0.62200004 44 36 19 255
-0.028811606 -0.26756841 0.62300003 48 41 21 255
-0.027157551 -0.26799828 0.62400001 50 41 20 255
-0.025457239 -0.26799864 0.62400001 49 39 20 255
-0.02383307 -0.26885796 0.62600005 47 40 20 255
-0.022162648 -0.26928777 0.62700003 50 43 22 255
-0.020519387 -0.27014703 0.62900001 51 44 23 255
-0.018835329 -0.27057683 0.63000005 51 44 23 255
-0.017200159 -0.27186555 0.63300002 50 43 22 255
-0.015524189 -0.27272478 0.63500005 48 41 20 255
-0.013859035 -0.27401346 0.63800001 48 41 20 255
-0.012177532 -0.27530211 0.64100003 45 38 17 255
-0.0104634 -0.27616125 0.64300001 47 40 19 255
-0.008738366 -0.27702039 0.64500004 47 42 21 255
-0.0069916062 -0.27745 0.64600003 47 42 22 255
-0.0052555907 -0.27873856 0.64900005 47 41 24 255
-0.0034763592 -0.27787963 0.64700001 45 37 20 255
-0.0017159705 -0.27830917 0.648 45 37 20 255
4.979139e-05 -0.27830917 0.648 42 34 17 255
0.0018211571 -0.27916816 0.65000004 44 37 17 255
0.0035868415 -0.27873862 0.64900005 45 38 17 255
0.0053388239 -0.27787957 0.64700001 45 40 19 255
0.0071128341 -0.27830896 0.648 43 38 18 255
0.0088922922 -0.27873832 0.64900005 41 37 20 255
0.010693626 -0.27959716 0.65100002 41 39 21 255
0.012505854 -0.28045598 0.65300006 42 40 22 255
0.014307102 -0.28088522 0.65400004 46 44 26 255
0.016113797 -0.28131452 0.65500003 43 37 20 255
0.01789861 -0.28131425 0.65500003 45 39 22 255
0.019713471 -0.28174347 0.65600002 46 38 21 255
0.021500999 -0.28174317 0.65600002 46 38 21 255
0.023288522 -0.28174284 0.65600002 51 44 24 255
0.025114264 -0.28217199 0.65700001 51 44 24 255
0.026945453 -0.28260112 0.65800005 49 42 22 255
0.028782079 -0.28303021 0.65900004 49 42 22 255
0.030577751 -0.28302979 0.65900004 51 44 24 255
0.032422543 -0.28345889 0.66000003 47 42 21 255
0.034272775 -0.28388792 0.66100001 51 44 23 255
0.036128454 -0.28431699 0.66200006 49 42 21 255
0.038046867 -0.28517547 0.66400003 54 45 22 255
0.039976176 -0.28603396 0.66600001 51 42 19 255
0.041916378 -0.28689244 0.66800004 50 39 16 255
0.043867473 -0.28775093 0.67000002 47 37 18 255
0.045829456 -0.28860939 0.67200005 47 37 18 255
0.047731414 -0.28903839 0.67300004 47 37 18 255
0.049638808 -0.28946733 0.67400002 48 38 19 255
0.051551647 -0.28989631 0.67500001 44 37 17 255
0.053549033 -0.2907548 0.67700005 49 42 22 255
0.055393659 -0.29075429 0.67700005 50 43 23 255
0.057238292 -0.29075381 0.67700005 47 41 24 255
0.059257448 -0.29161227 0.67900002 43 37 20 255
0.061197519 -0.2920413 0.68000001 46 40 23 255
0.063235752 -0.29289979 0.68200004 47 41 24 255
0.065284885 -0.29375833 0.68400002 48 41 21 255
0.067246743 -0.2941874 0.68500006 47 40 20 255
0.069113158 -0.29418701 0.68500006 42 37 17 255
0.070979573 -0.29418668 0.68500006 45 39 22 255
0.073058687 -0.29504529 0.68700004 45 39 22 255
0.075148694 -0.29590392 0.68900001 49 43 26 255
0.077137828 -0.29633316 0.69000006 46 42 25 255
0.0791324 -0.29676241 0.69100004 43 40 20 255
0.081249677 -0.29762116 0.69300002 44 39 18 255
0.083137937 -0.29762107 0.69300002 42 37 16 255
0.085026205 -0.29762098 0.69300002 42 37 16 255
0.086914495 -0.29762098 0.69300002 42 37 16 255
0.089059092 -0.29848 0.69500005 41 36 15 255
0.090952851 -0.29848012 0.69500005 44 37 17 255
0.09311384 -0.29933921 0.69700003 44 37 17 255
0.095285758 -0.30019847 0.69900006 45 38 18 255
0.097468577 -0.3010577 0.70100003 46 39 19 255
0.099520579 -0.30148759 0.70200002 45 38 18 255
0.10157806 -0.30191755 0.70300001 45 37 20 255
0.10378826 -0.30277714 0.70500004 41 33 16 255
0.10555955 -0.30234835 0.70400006 43 35 18 255
0.10747811 -0.30234912 0.70400006 49 41 24 255
0.10939672 -0.30235001 0.70400006 45 39 22 255
0.11178973 -0.30363944 0.70700002 47 42 22 255
0.1135558 -0.30321109 0.70600003 45 40 19 255
0.11564358 -0.3036418 0.70700002 43 40 19 255
0.11806947 -0.30493161 0.71000004 43 40 19 255
0.12051182 -0.30622157 0.71300006 47 42 21 255
0.12262706 -0.30665269 0.71400005 50 45 25 255
0.12457337 -0.30665445 0.71400005 45 40 20 255
0.12687418 -0.30751538 0.71600002 48 43 23 255
0.12918596 -0.30837646 0.71800005 52 45 24 255
0.13150875 -0.30923772 0.72000003 52 45 24 255
0.13365716 -0.30966961 0.72100002 49 42 21 255
0.13581114 -0.31010172 0.72200006 52 45 22 255
0.1381615 -0.31096351 0.72400004 51 45 20 255
0.1405229 -0.31182548 0.72600001 55 51 27 255
0.14309162 -0.31311721 0.72900003 53 49 25 255
0.14567681 -0.31440914 0.73200005 52 48 24 255
0.14807679 -0.31527182 0.73400003 55 50 29 255
0.15048781 -0.31613466 0.73600006 49 46 26 255
0.15436026 -0.32000452 0.74500006 50 46 29 255
0.16227052 -0.33203602 0.77300006 50 46 29 255
0.1722476 -0.34793404 0.81000006 50 46 29 255
0.1787653 -0.35653031 0.83000004 45 41 24 255
0.18212074 -0.35868371 0.83500004 43 39 22 255
0.18462032 -0.35911924 0.83600003 37 35 17 255
0.18690203 -0.35912547 0.83600003 35 33 15 255
0.18918398 -0.35913199 0.83600003 31 29 11 255
0.19146618 -0.35913882 0.83600003 30 28 10 255
0.1939804 -0.35957557 0.83700001 32 30 12 255
0.19650035 -0.36001268 0.83800006 35 33 15 255
0.19878879 -0.36002052 0.83800006 36 32 15 255
0.2013175 -0.36045828 0.83900005 35 31 14 255
0.2036093 -0.36046687 0.83900005 35 31 14 255
0.2059014 -0.36047578 0.83900005 38 34 17 255
0.20893826 -0.361774 0.84200007 41 37 20 255
0.211741 -0.36264303 0.84400004 39 35 18 255
0.21404777 -0.36265314 0.84400004 40 36 19 255
0.21584226 -0.36180428 0.84200007 38 32 15 255
0.21892154 -0.36310422 0.84500003 41 35 18 255
0.22175582 -0.36397502 0.84700006 43 38 18 255
0.22592418 -0.36699495 0.85400003 45 42 21 255
0.22906215 -0.36829659 0.85700005 47 45 25 255
0.23221695 -0.36959866 0.86000001 67 67 39 255
0.23429765 -0.36918223 0.85900003 86 86 76 255
0.23637331 -0.36876625 0.85800004 108 112 105 255
0.23788753 -0.36749104 0.85500002 126 133 122 255
-0.26142043 -0.27284661 0.62800002 73 70 54 255
-0.25470009 -0.26759335 0.61600006 78 77 53 255
-0.25215495 -0.26668584 0.61400002 78 74 57 255
-0.24880654 -0.26491088 0.61000001 68 67 39 255
-0.24629189 -0.26400566 0.60800004 64 63 35 255
-0.24378958 -0.2631014 0.60600001 63 63 33 255
-0.24329711 -0.26436871 0.60900003 63 63 33 255
-0.24120222 -0.26390028 0.60800004 78 78 52 255
-0.23793224 -0.26213074 0.60400003 72 72 46 255
-0.23194765 -0.25732478 0.59300005 72 71 43 255
-0.22835545 -0.25512403 0.588 54 53 23 255
-0.22672002 -0.25509366 0.588 61 60 30 255
-0.22508554 -0.25506395 0.588 59 58 28 255
-0.22383209 -0.25546873 0.58900005 48 48 20 255
-0.2214423 -0.25457299 0.58700001 47 45 21 255
-0.2201879 -0.25497898 0.588 50 46 21 255
-0.2181855 -0.25451836 0.58700001 49 45 20 255
-0.21692736 -0.25492552 0.588 47 45 20 255
-0.21566452 -0.25533327 0.58900005 49 45 20 255
-0.21403363 -0.25530806 0.58900005 48 46 21 255
-0.21240354 -0.25528345 0.58900005 46 44 20 255
-0.21041639 -0.25482607 0.588 48 46 22 255
-0.2084356 -0.25436938 0.58700001 46 44 20 255
-0.20681338 -0.25434658 0.58700001 46 44 20 255
-0.20519191 -0.25432438 0.58700001 43 41 17 255
-0.20357117 -0.25430274 0.58700001 47 45 21 255
-0.20195112 -0.25428164 0.58700001 47 45 21 255
-0.20033179 -0.25426108 0.58700001 44 42 18 255
-0.19871311 -0.25424105 0.58700001 43 41 17 255
-0.19709511 -0.25422156 0.58700001 46 45 23 255
-0.19547771 -0.25420251 0.58700001 41 38 17 255
-0.19353069 -0.25375101 0.58600003 48 45 24 255
-0.19191733 -0.25373304 0.58600003 46 43 22 255
-0.18997976 -0.25328261 0.58500004 47 42 21 255
-0.18901427 -0.25413147 0.58700001 48 43 22 255
-0.18708061 -0.25368199 0.58600003 41 38 17 255
-0.18546945 -0.25366589 0.58600003 45 42 21 255
-0.18385887 -0.25365025 0.58600003 46 43 23 255
-0.1822488 -0.25363508 0.58600003 44 41 21 255
-0.18033092 -0.25318748 0.58500004 45 42 22 255
-0.17903011 -0.25360593 0.58600003 46 43 23 255
-0.17742145 -0.25359201 0.58600003 40 37 16 255
-0.17641334 -0.25444394 0.588 41 38 17 255
-0.17480013 -0.2544308 0.588 39 36 15 255
-0.17377643 -0.25528342 0.59000003 46 41 20 255
-0.17215861 -0.25527102 0.59000003 45 40 20 255
-0.17083023 -0.25569162 0.59100002 46 39 19 255
-0.16949677 -0.25611255 0.59200001 46 39 18 255
-0.16815826 -0.25653386 0.59300005 44 37 16 255
-0.16625293 -0.25609028 0.59200001 45 38 17 255
-0.16518778 -0.25694481 0.59400004 43 38 17 255
-0.16383661 -0.25736704 0.59500003 44 39 18 255
-0.16275296 -0.25822213 0.597 43 38 17 255
-0.16111894 -0.25821245 0.597 38 33 12 255
-0.15975238 -0.25863564 0.59800005 41 36 15 255
-0.15864511 -0.25949156 0.60000002 39 34 14 255
-0.15700381 -0.2594828 0.60000002 41 36 16 255
-0.1558807 -0.26033929 0.60200006 43 38 18 255
-0.15500313 -0.26162842 0.60500002 46 38 21 255
-0.15436289 -0.26335025 0.60900003 38 30 13 255
-0.15395179 -0.26550466 0.61400002 41 33 16 255
-0.15252164 -0.26592964 0.61500001 39 33 16 255
-0.15157679 -0.26721963 0.61800003 36 32 15 255
-0.15037327 -0.26807746 0.62 39 35 18 255
-0.15011829 -0.27066505 0.62600005 37 33 17 255
-0.14911953 -0.27195567 0.62900001 35 32 16 255
-0.14927629 -0.27540821 0.63700002 34 31 15 255
-0.14869477 -0.27756384 0.64200002 33 30 14 255
-0.14808613 -0.27971965 0.64700001 34 31 15 255
-0.14767657 -0.28230798 0.65300006 29 26 10 255
-0.14723444 -0.28489637 0.65900004 28 25 9 255
-0.14675972 -0.28748497 0.66500002 31 28 14 255
-0.14429082 -0.28618303 0.66200006 30 27 13 255
-0.14205366 -0.28531361 0.66000003 27 23 12 255
-0.14046513 -0.2857413 0.66100001 26 22 11 255
-0.1388713 -0.2861692 0.66200006 27 23 12 255
-0.13706511 -0.28616506 0.66200006 31 27 16 255
-0.13505477 -0.28572881 0.66100001 29 26 12 255
-0.13284844 -0.28486055 0.65900004 31 28 12 255
-0.13105085 -0.28485698 0.65900004 32 28 12 255
-0.12944955 -0.28528586 0.66000003 35 31 14 255
-0.12764952 -0.2852827 0.66000003 31 29 11 255
-0.12565893 -0.28484747 0.65900004 32 30 12 255
-0.12292208 -0.28268343 0.65400004 34 32 14 255
-0.1209535 -0.28224856 0.65300006 35 33 15 255
-0.11899048 -0.28181383 0.65200001 33 31 13 255
-0.11721279 -0.28181151 0.65200001 39 36 20 255
-0.11525814 -0.28137711 0.65100002 36 36 18 255
-0.11330903 -0.28094289 0.65000004 37 35 17 255
-0.11119386 -0.28007653 0.648 37 35 17 255
-0.10925853 -0.27964258 0.64700001 41 39 19 255
-0.10749487 -0.27964094 0.64700001 42 41 19 255
-0.10589468 -0.28007165 0.648 43 40 19 255
-0.10396774 -0.27963805 0.64700001 39 36 15 255
-0.10204631 -0.27920458 0.64600003 43 38 17 255
-0.10013038 -0.27877125 0.64500004 40 36 12 255
-0.09852498 -0.2792024 0.64600003 43 39 15 255
-0.096914172 -0.27963364 0.64700001 45 41 17 255
-0.094856776 -0.27876836 0.64500004 46 42 18 255
-0.092810318 -0.2779032 0.64300001 41 36 15 255
-0.091199644 -0.27833474 0.64400005 44 39 18 255
-0.08944466 -0.27833414 0.64400005 40 37 17 255
-0.087825872 -0.27876583 0.64500004 38 36 16 255
-0.086068228 -0.27876538 0.64500004 37 35 15 255
-0.084179893 -0.2783328 0.64400005 41 39 19 255
-0.082425028 -0.2783325 0.64400005 39 37 17 255
-0.080670178 -0.27833229 0.64400005 39 37 17 255
-0.079037882 -0.27876425 0.64500004 39 37 17 255
-0.077280365 -0.27876416 0.64500004 34 32 12 255
-0.075522833 -0.27876407 0.64500004 37 34 14 255
-0.073879704 -0.27919626 0.64600003 38 35 15 255
-0.07200785 -0.2787641 0.64500004 35 33 13 255
-0.07025037 -0.27876416 0.64500004 38 35 15 255
-0.068280511 -0.27789986 0.64300001 42 38 21 255
-0.066528492 -0.27789998 0.64300001 39 35 18 255
-0.064675748 -0.277468 0.64200002 39 37 19 255
-0.062926464 -0.2774682 0.64200002 38 36 18 255
-0.060986608 -0.27660406 0.64000005 38 35 19 255
-0.059242785 -0.27660429 0.64000005 37 34 18 255
-0.057229441 -0.27530801 0.63700002 40 37 21 255
-0.055319555 -0.27444392 0.63500005 41 39 21 255
-0.05342057 -0.27357984 0.63300002 37 35 17 255
-0.051695816 -0.27358016 0.63300002 39 37 19 255
-0.049813177 -0.27271613 0.63100004 42 40 20 255
-0.047941428 -0.27185205 0.62900001 38 37 15 255
-0.046080589 -0.27098802 0.62700003 39 38 16 255
-0.044301402 -0.27055618 0.62600005 42 40 16 255
-0.042527668 -0.27012435 0.625 48 43 22 255
-0.04069405 -0.26926032 0.62300003 41 38 17 255
-0.038933937 -0.26882851 0.62200004 44 41 21 255
-0.037239127 -0.26882884 0.62200004 44 40 23 255
-0.035544313 -0.2688292 0.62200004 45 41 24 255
-0.033958334 -0.26969394 0.62400001 46 40 23 255
-0.032206364 -0.26926208 0.62300003 50 42 25 255
-0.03045984 -0.26883021 0.62200004 49 42 22 255
-0.02876501 -0.26883057 0.62200004 54 45 24 255
-0.027113689 -0.26926306 0.62300003 54 44 25 255
-0.025456918 -0.26969558 0.62400001 53 43 24 255
-0.023870833 -0.27099246 0.62700003 50 40 21 255
-0.022197701 -0.27142492 0.62800002 47 40 19 255
-0.020584358 -0.27272183 0.63100004 48 41 20 255
-0.018894868 -0.27315426 0.63200003 47 40 19 255
-0.017227096 -0.27401888 0.634 48 41 20 255
-0.015548422 -0.27488354 0.63600004 46 39 18 255
-0.013902289 -0.27661255 0.64000005 46 39 18 255
-0.012177361 -0.27704492 0.64100003 45 38 17 255
-0.010463253 -0.27790949 0.64300001 48 41 20 255
-0.0087382412 -0.27877399 0.64500004 45 40 19 255
-0.007002329 -0.2796385 0.64700001 43 38 17 255
-0.0052636135 -0.28093526 0.65000004 45 40 20 255
-0.0034870557 -0.28050312 0.64900005 43 36 16 255
-0.0017212422 -0.28093535 0.65000004 41 34 14 255
4.9867511e-05 -0.28050315 0.64900005 41 34 14 255
0.001821131 -0.28093535 0.65000004 42 35 14 255
0.003592317 -0.28093532 0.65000004 45 38 17 255
0.0053635021 -0.28093526 0.65000004 44 39 18 255
0.0071346858 -0.28093514 0.65000004 39 36 16 255
0.008905868 -0.28093505 0.65000004 40 37 17 255
0.010709899 -0.28179932 0.65200001 42 40 20 255
0.012505678 -0.28223142 0.65300006 45 43 23 255
0.01432878 -0.28309566 0.65500003 43 41 21 255
0.016088974 -0.28266326 0.65400004 45 42 22 255
0.017871043 -0.28266305 0.65400004 46 41 21 255
0.019683156 -0.283095 0.65500003 46 38 21 255
0.021467935 -0.28309476 0.65500003 44 38 21 255
0.023288216 -0.28352669 0.65600002 46 41 20 255
0.025113937 -0.28395858 0.65700001 44 39 18 255
0.026945107 -0.28439051 0.65800005 47 42 21 255
0.028781721 -0.2848224 0.65900004 46 41 21 255
0.030623777 -0.28525427 0.66000003 47 40 20 255
0.032471281 -0.28568614 0.66100001 51 44 24 255
0.034220524 -0.28525355 0.66000003 49 42 21 255
0.03612804 -0.28611761 0.66200006 44 37 16 255
0.037989147 -0.28654942 0.66300005 46 37 14 255
0.039975744 -0.28784564 0.66600001 46 37 14 255
0.041915942 -0.28870967 0.66800004 49 38 15 255
0.043867033 -0.2895737 0.67000002 49 40 19 255
0.045897208 -0.29086989 0.67300004 47 37 18 255
0.047801889 -0.2913017 0.67400002 50 40 21 255
0.049712013 -0.2917335 0.67500001 46 37 16 255
0.051551204 -0.29173312 0.67500001 49 42 22 255
0.053548601 -0.29259717 0.67700005 47 40 19 255
0.055393234 -0.29259679 0.67700005 45 38 17 255
0.057322424 -0.29302862 0.67800003 51 44 24 255
0.059257049 -0.29346046 0.67900002 48 40 23 255
0.061197136 -0.29389235 0.68000001 49 42 22 255
0.063235395 -0.29475647 0.68200004 44 36 19 255
0.065284543 -0.29562059 0.68400002 46 39 19 255
0.067344606 -0.29648474 0.68600005 46 39 19 255
0.06921377 -0.2964845 0.68600005 48 41 21 255
0.071186557 -0.29691648 0.68700004 46 40 23 255
0.073164813 -0.29734853 0.68800002 43 37 20 255
0.075039439 -0.29734838 0.68800002 44 38 21 255
0.077025875 -0.29778051 0.68900001 41 35 18 255
0.079132311 -0.29864493 0.69100004 41 36 16 255
0.081249639 -0.29950932 0.69300002 44 39 18 255
0.083257914 -0.29994157 0.69400001 45 40 19 255
0.084903583 -0.29907736 0.69200003 42 37 16 255
0.086914621 -0.29950973 0.69300002 46 41 20 255
0.089059278 -0.30037439 0.69500005 43 38 18 255
0.091083981 -0.30080691 0.69600004 44 37 17 255
0.093114175 -0.30123949 0.69700003 46 39 19 255
0.095149837 -0.30167216 0.69800001 41 34 14 255
0.097190998 -0.30210495 0.69900006 42 32 13 255
0.099237621 -0.3025378 0.70000005 45 35 16 255
0.10143425 -0.30340293 0.70200002 48 38 21 255
0.10378902 -0.30470034 0.70500004 45 37 20 255
0.10571036 -0.30470133 0.70500004 47 39 22 255
0.10763176 -0.30470237 0.70500004 48 40 23 255
0.1095532 -0.30470353 0.70500004 48 40 23 255
0.11179093 -0.3055692 0.70700002 46 39 19 255
0.11387879 -0.3060028 0.708 47 40 20 255
0.11597218 -0.30643654 0.70900005 46 41 21 255
0.11807105 -0.30687037 0.71000004 48 43 23 255
0.12051354 -0.30816883 0.71300006 54 49 28 255
0.12245718 -0.30817077 0.71300006 50 45 25 255
0.12474986 -0.30903727 0.71500003 48 43 23 255
0.12687632 -0.30947173 0.71600002 49 44 24 255
0.1291883 -0.31033859 0.71800005 54 47 26 255
0.1313286 -0.31077337 0.71900004 48 43 22 255
0.13365984 -0.31164062 0.72100002 54 49 28 255
0.13600209 -0.31250799 0.72300005 46 42 18 255
0.13835537 -0.31337562 0.72500002 47 43 18 255
0.14071971 -0.31424341 0.72700006 53 49 24 255
0.14329134 -0.31554368 0.73000002 53 49 24 255
0.14548145 -0.31597966 0.73100001 57 53 28 255
0.14767718 -0.31641591 0.73200005 51 46 25 255
0.15028743 -0.31771684 0.73500001 50 45 25 255
0.15457186 -0.32247627 0.74600005 44 41 21 255
0.16269518 -0.33501714 0.77500004 44 41 21 255
0.17267817 -0.35101685 0.81200004 44 41 21 255
0.178771 -0.35880381 0.83000004 44 41 21 255
0.18212676 -0.36097139 0.83500004 42 38 21 255
0.18484749 -0.36184239 0.83700001 42 38 21 255
0.18735579 -0.36228138 0.83800006 35 33 15 255
0.18941721 -0.3618561 0.83700001 33 31 13 255
0.19170246 -0.3618634 0.83700001 29 27 9 255
0.19375619 -0.36143875 0.83600003 32 30 12 255
0.19627374 -0.36187905 0.83700001 34 32 14 255
0.19879706 -0.36231977 0.83800006 33 29 12 255
0.20132613 -0.36276084 0.83900005 33 29 12 255
0.20337558 -0.3623375 0.83800006 37 33 16 255
0.20591074 -0.36277932 0.83900005 33 29 12 255
0.20894803 -0.36408636 0.84200007 39 35 18 255
0.2115003 -0.36452901 0.84300005 43 39 22 255
0.21405835 -0.36497205 0.84400004 40 36 19 255
0.21559682 -0.36368576 0.84100002 40 36 19 255
0.21919204 -0.36585951 0.84600002 42 36 19 255
0.22229134 -0.36716887 0.84900004 39 36 16 255
0.22620116 -0.36977616 0.85500002 44 41 21 255
0.22907504 -0.37065414 0.85700005 43 41 21 255
0.23169032 -0.3711001 0.85800004 58 56 36 255
0.23403876 -0.37111405 0.85800004 82 84 66 255
0.23611212 -0.37069589 0.85700005 105 107 99 255
0.23762406 -0.36941308 0.85400003 121 128 117 255
-0.26062903 -0.27373561 0.62600005 74 70 59 255
-0.25515327 -0.26975954 0.61700004 77 75 50 255
-0.25178292 -0.26797122 0.61300004 73 71 46 255
-0.24966004 -0.26749548 0.61200005 69 68 40 255
-0.24673373 -0.26614669 0.60900003 67 66 38 255
-0.24463007 -0.26567295 0.60800004 57 56 26 255
-0.24373186 -0.26651081 0.61000001 59 59 31 255
-0.24203013 -0.26647556 0.61000001 75 75 47 255
-0.2383596 -0.26425713 0.60500002 76 75 53 255
-0.23237087 -0.25941962 0.59400004 68 68 42 255
-0.22877495 -0.25720409 0.58900005 59 59 33 255
-0.22675039 -0.25673631 0.588 57 57 29 255
-0.22434956 -0.25583276 0.58600003 54 54 26 255
-0.22348109 -0.2566762 0.588 44 44 16 255
-0.22147059 -0.25621068 0.58700001 46 46 20 255
-0.22021559 -0.25661877 0.588 44 44 18 255
-0.21784076 -0.25571829 0.58600003 48 46 21 255
-0.21695378 -0.25656399 0.588 47 45 20 255
-0.21495798 -0.25610125 0.58700001 47 43 18 255
-0.21333201 -0.25607544 0.58700001 51 47 23 255
-0.21170683 -0.25605029 0.58700001 48 44 20 255
-0.21008249 -0.2560257 0.58700001 49 44 23 255
-0.20810382 -0.25556561 0.58600003 48 44 20 255
-0.20648381 -0.25554228 0.58600003 45 43 19 255
-0.20486455 -0.25551948 0.58600003 48 44 20 255
-0.20359284 -0.25593325 0.58700001 46 43 22 255
-0.20231633 -0.25634754 0.588 48 43 22 255
-0.2006937 -0.25632632 0.588 46 42 18 255
-0.19941029 -0.25674155 0.58900005 45 40 19 255
-0.19778626 -0.25672141 0.58900005 46 41 20 255
-0.19549675 -0.25583008 0.58700001 48 44 20 255
-0.1938795 -0.25581101 0.58700001 47 43 19 255
-0.19193533 -0.2553567 0.58600003 51 46 25 255
-0.19064681 -0.25577438 0.58700001 50 45 24 255
-0.18903133 -0.25575677 0.58700001 45 40 19 255
-0.18741645 -0.25573963 0.58700001 44 41 20 255
-0.18580213 -0.255723 0.58700001 46 43 23 255
-0.18418832 -0.25570679 0.58700001 43 40 20 255
-0.18257503 -0.25569102 0.58700001 45 41 24 255
-0.18096226 -0.25567573 0.58700001 41 37 20 255
-0.17935 -0.25566083 0.58700001 41 38 18 255
-0.1777382 -0.25564641 0.58700001 44 41 21 255
-0.1761269 -0.25563237 0.58700001 46 43 22 255
-0.17481333 -0.25605422 0.588 41 38 17 255
-0.17349473 -0.25647643 0.58900005 46 41 20 255
-0.1724629 -0.25733438 0.59100002 45 40 19 255
-0.17084233 -0.25732186 0.59100002 42 37 17 255
-0.16950852 -0.25774509 0.59200001 46 39 18 255
-0.16788605 -0.25773332 0.59200001 45 38 17 255
-0.16626394 -0.25772187 0.59200001 46 39 18 255
-0.16492036 -0.25814617 0.59300005 44 37 16 255
-0.163847 -0.25900605 0.59500003 44 39 18 255
-0.16303566 -0.26030147 0.59800005 45 40 19 255
-0.16166848 -0.2607266 0.59900004 43 38 17 255
-0.16029613 -0.26115206 0.60000002 41 36 15 255
-0.15865423 -0.26114255 0.60000002 45 40 20 255
-0.15727429 -0.26156861 0.60100001 41 36 16 255
-0.15588923 -0.26199496 0.60200006 40 35 15 255
-0.1552676 -0.2637271 0.60600001 43 35 18 255
-0.1546244 -0.26545951 0.61000001 41 33 16 255
-0.15421034 -0.26762724 0.61500001 43 35 18 255
-0.15252917 -0.2676194 0.61500001 38 32 15 255
-0.15158406 -0.26891723 0.61800003 39 33 16 255
-0.15038028 -0.26978019 0.62 41 35 18 255
-0.1501251 -0.27238384 0.62600005 39 33 16 255
-0.14912607 -0.27368224 0.62900001 38 34 17 255
-0.14928268 -0.27715638 0.63700002 36 32 16 255
-0.14870094 -0.27932537 0.64200002 34 30 14 255
-0.14832099 -0.28192958 0.648 30 26 10 255
-0.14813466 -0.28496903 0.65500003 28 24 8 255
-0.14835715 -0.28887871 0.66400003 31 28 12 255
-0.14808929 -0.29191834 0.671 31 28 14 255
-0.14473186 -0.28886759 0.66400003 28 25 11 255
-0.14227377 -0.28755724 0.66100001 24 23 9 255
-0.14046979 -0.28755233 0.66100001 23 22 8 255
-0.13908553 -0.28841764 0.66300005 29 26 12 255
-0.13686229 -0.28754309 0.66100001 27 24 10 255
-0.13485447 -0.28710377 0.66000003 28 25 11 255
-0.13244905 -0.28579471 0.65700001 31 28 12 255
-0.13105449 -0.28666079 0.65900004 33 29 12 255
-0.12945299 -0.28709212 0.66000003 32 28 11 255
-0.12784618 -0.28752357 0.66100001 32 28 11 255
-0.125662 -0.2866503 0.65900004 36 32 15 255
-0.12348882 -0.28577721 0.65700001 37 33 16 255
-0.12169713 -0.28577423 0.65700001 36 32 15 255
-0.11972304 -0.28533646 0.65600002 42 40 22 255
-0.1179343 -0.28533384 0.65600002 38 36 18 255
-0.11579154 -0.28446144 0.65400004 38 36 18 255
-0.11365977 -0.28358921 0.65200001 40 38 20 255
-0.1113674 -0.2822822 0.64900005 39 37 19 255
-0.10942922 -0.28184521 0.648 41 39 21 255
-0.10782886 -0.2822783 0.64900005 44 39 18 255
-0.10622311 -0.28271148 0.65000004 43 38 17 255
-0.10429058 -0.28227487 0.64900005 47 40 19 255
-0.10220562 -0.28140348 0.64700001 40 35 15 255
-0.10044208 -0.28140205 0.64700001 42 37 16 255
-0.098678611 -0.28140077 0.64700001 41 36 15 255
-0.097064972 -0.28183448 0.648 42 39 19 255
-0.095004775 -0.28096357 0.64600003 40 37 17 255
-0.09309984 -0.28052765 0.64500004 41 36 15 255
-0.091342002 -0.28052673 0.64500004 39 36 16 255
-0.089723095 -0.28096086 0.64600003 42 39 19 255
-0.08796262 -0.28096011 0.64600003 38 35 15 255
-0.086202174 -0.28095946 0.64600003 37 34 14 255
-0.084311053 -0.28052396 0.64500004 33 31 13 255
-0.082681373 -0.28095835 0.64600003 34 32 14 255
-0.08079575 -0.280523 0.64500004 35 33 15 255
-0.079038143 -0.28052264 0.64500004 38 36 18 255
-0.077160731 -0.28008741 0.64400005 35 33 15 255
-0.075640067 -0.28095698 0.64600003 41 39 21 255
-0.073879793 -0.2809568 0.64600003 36 34 16 255
-0.07189624 -0.28008682 0.64400005 37 35 17 255
-0.07003253 -0.27965176 0.64300001 35 31 14 255
-0.068174273 -0.2792168 0.64200002 36 32 15 255
-0.066321485 -0.27878189 0.64100003 37 33 16 255
-0.064574882 -0.27878189 0.64100003 36 34 16 255
-0.06273029 -0.27834705 0.64000005 38 34 17 255
-0.060795851 -0.27747729 0.63800001 38 34 17 255
-0.058964882 -0.27704248 0.63700002 40 36 19 255
-0.057049535 -0.27617282 0.63500005 39 35 18 255
-0.055145077 -0.27530313 0.63300002 39 37 19 255
-0.053420305 -0.27530327 0.63300002 41 39 21 255
-0.051613875 -0.27486861 0.63200003 38 36 18 255
-0.049733952 -0.27399901 0.63000005 43 41 21 255
-0.047788702 -0.27269444 0.62700003 37 36 14 255
-0.045933295 -0.27182484 0.625 45 44 22 255
-0.04423032 -0.27182508 0.625 43 41 17 255
-0.042595398 -0.27226028 0.62600005 40 37 16 255
-0.040693741 -0.2709558 0.62300003 40 37 16 255
-0.038933616 -0.27052113 0.62200004 40 36 19 255
-0.037178941 -0.27008647 0.62100005 42 40 22 255
-0.035544001 -0.2705217 0.62200004 45 41 24 255
-0.033903606 -0.27095684 0.62300003 43 39 22 255
-0.03215437 -0.27052224 0.62200004 49 43 26 255
-0.03041058 -0.27008757 0.62100005 48 41 20 255
-0.028764725 -0.27052274 0.62200004 52 45 24 255
-0.027113419 -0.27095792 0.62300003 51 44 24 255
-0.02549745 -0.27182797 0.625 46 39 19 255
-0.02387058 -0.27269804 0.62700003 51 44 24 255
-0.022268156 -0.27400309 0.63000005 47 42 22 255
-0.020584133 -0.2744382 0.63100004 47 42 22 255
-0.018924553 -0.27530822 0.63300002 43 38 18 255
-0.017281245 -0.27661321 0.63600004 51 44 23 255
-0.015572689 -0.27704829 0.63700002 47 40 19 255
-0.013902128 -0.27835324 0.64000005 44 37 16 255
-0.012177218 -0.2787883 0.64100003 46 39 18 255
-0.010463129 -0.27965829 0.64300001 42 35 15 255
-0.0087245908 -0.28009334 0.64400005 44 37 16 255
-0.0069914227 -0.28096324 0.64600003 48 43 23 255
-0.0052554524 -0.28226811 0.64900005 46 41 21 255
-0.0034870135 -0.28226817 0.64900005 45 40 20 255
-0.0017212215 -0.28270313 0.65000004 40 35 14 255
4.9866911e-05 -0.2822682 0.64900005 43 38 17 255
0.0018211087 -0.28270307 0.65000004 40 37 16 255
0.0035867472 -0.28226817 0.64900005 41 38 17 255
0.0053551868 -0.28226811 0.64900005 40 39 17 255
0.0071236244 -0.28226802 0.64900005 42 40 20 255
0.0089057628 -0.28270289 0.65000004 42 40 20 255
0.010693346 -0.28313768 0.65100002 43 42 20 255
0.012505532 -0.28400743 0.65300006 44 43 21 255
0.014306738 -0.28444222 0.65400004 44 43 21 255
0.016088791 -0.28444207 0.65400004 42 37 16 255
0.01787084 -0.28444189 0.65400004 44 39 19 255
0.019682935 -0.28487661 0.65500003 49 42 22 255
0.021467701 -0.28487641 0.65500003 49 42 22 255
0.023287965 -0.28531113 0.65600002 45 40 19 255
0.025075449 -0.28531089 0.65600002 50 46 22 255
0.026903879 -0.28574556 0.65700001 45 41 17 255
0.028737755 -0.28618026 0.65800005 49 45 21 255
0.030577077 -0.28661489 0.65900004 48 43 22 255
0.032470964 -0.28748447 0.66100001 49 42 21 255
0.034272056 -0.28748417 0.66100001 43 36 15 255
0.036182288 -0.28835377 0.66300005 47 40 19 255
0.037988815 -0.28835347 0.66300005 44 37 16 255
0.039975408 -0.28965795 0.66600001 42 35 14 255
0.041978348 -0.29096243 0.66900003 47 38 15 255
0.04386669 -0.29139706 0.67000002 47 38 17 255
0.045828678 -0.29226664 0.67200005 48 39 18 255
0.047659714 -0.29226634 0.67200005 47 38 17 255
0.049564395 -0.29270098 0.67300004 49 40 19 255
0.051398147 -0.29270074 0.67300004 48 41 21 255
0.053390097 -0.29357031 0.67500001 45 38 17 255
0.055311125 -0.29400501 0.67600006 49 42 22 255
0.057322145 -0.29487461 0.67800003 48 41 21 255
0.059256792 -0.29530933 0.67900002 45 35 16 255
0.061196897 -0.29574406 0.68000001 49 39 20 255
0.063142456 -0.29617885 0.68100005 46 36 17 255
0.065188915 -0.29704857 0.68300003 46 39 18 255
0.067344442 -0.29835322 0.68600005 46 39 18 255
0.069213644 -0.29835317 0.68600005 46 39 18 255
0.071082853 -0.29835317 0.68600005 44 39 19 255
0.073058419 -0.29878807 0.68700004 45 40 20 255
0.074930377 -0.29878813 0.68700004 50 43 23 255
0.076914132 -0.29922315 0.68800002 44 39 18 255
0.0791324 -0.30052811 0.69100004 41 36 15 255
0.081367023 -0.30183303 0.69400001 45 38 17 255
0.083258122 -0.30183333 0.69400001 47 40 19 255
0.084903844 -0.30096382 0.69200003 45 38 17 255
0.086789541 -0.30096424 0.69200003 48 41 21 255
0.088931531 -0.30183455 0.69400001 45 38 18 255
0.091084458 -0.30270493 0.69600004 47 40 20 255
0.093114734 -0.30314049 0.69700003 44 37 17 255
0.095014155 -0.30314121 0.69700003 46 38 21 255
0.096913621 -0.30314201 0.69700003 43 35 18 255
0.099096671 -0.30401278 0.69900006 41 33 16 255
0.10114617 -0.30444863 0.70000005 47 39 22 255
0.10334837 -0.30531958 0.70200002 41 33 16 255
0.10541158 -0.30575567 0.70300001 43 35 18 255
0.1074803 -0.30619195 0.70400006 45 35 18 255
0.10970994 -0.30706325 0.70600003 47 37 20 255
0.11179239 -0.30749968 0.70700002 47 37 18 255
0.11388038 -0.30793631 0.708 47 39 22 255
0.11581031 -0.30793813 0.708 45 39 22 255
0.11790662 -0.308375 0.70900005 47 41 24 255
0.12017749 -0.30924699 0.71100003 47 42 22 255
0.12245934 -0.31011912 0.71300006 47 42 22 255
0.12475218 -0.31099138 0.71500003 47 42 21 255
0.1268788 -0.31142887 0.71600002 50 43 22 255
0.12883107 -0.31143159 0.71600002 50 43 20 255
0.1309661 -0.31186944 0.71700001 51 44 23 255
0.13329208 -0.31274247 0.71900004 51 42 19 255
0.1360053 -0.31448561 0.72300005 51 43 18 255
0.13854961 -0.31579399 0.72600001 53 45 20 255
0.14091687 -0.31666765 0.72800004 53 47 22 255
0.14329515 -0.31754148 0.73000002 56 52 27 255
0.14528646 -0.31754556 0.73000002 55 51 26 255
0.14768142 -0.3184199 0.73200005 57 53 28 255
0.15029193 -0.31972945 0.73500001 51 47 22 255
0.15457664 -0.3245194 0.74600005 48 44 19 255
0.16270038 -0.33714005 0.77500004 48 44 19 255
0.17268394 -0.35324162 0.81200004 48 44 19 255
0.17877714 -0.36107832 0.83000004 47 43 18 255
0.1819151 -0.36282501 0.83400005 42 38 14 255
0.18463342 -0.36370197 0.83600003 41 36 15 255
0.18691574 -0.36370915 0.83600003 33 30 10 255
0.18942462 -0.36415169 0.83700001 33 31 13 255
0.19148116 -0.36372444 0.83600003 33 31 13 255
0.19399603 -0.36416766 0.83700001 33 31 13 255
0.19651669 -0.3646113 0.83800006 35 33 15 255
0.19904307 -0.3650552 0.83900005 35 33 15 255
0.20133527 -0.36506447 0.83900005 33 31 13 255
0.20338508 -0.36463892 0.83800006 39 35 18 255
0.20542975 -0.36421371 0.83700001 39 35 18 255
0.20771748 -0.36422402 0.83700001 38 34 17 255
0.21025646 -0.36466995 0.83800006 41 39 21 255
0.21305493 -0.36555144 0.84000003 42 40 22 255
0.21586472 -0.36643341 0.84200007 46 42 25 255
0.21920407 -0.36818627 0.84600002 44 40 23 255
0.22230382 -0.36950442 0.84900004 42 39 19 255
0.22568503 -0.37125841 0.85300004 41 38 17 255
0.22855392 -0.37214243 0.85500002 48 47 23 255
0.23116422 -0.37259173 0.85600007 60 59 37 255
0.23378044 -0.37304157 0.85700005 83 85 67 255
0.23585157 -0.3726213 0.85600007 106 110 92 255
0.23736121 -0.37133086 0.85300004 122 129 117 255
-0.26108748 -0.27593511 0.62700003 70 68 48 255
-0.25478026 -0.27105278 0.61600006 73 71 47 255
-0.25141159 -0.26925242 0.61200005 73 71 46 255
-0.24969864 -0.26921302 0.61200005 74 72 47 255
-0.2463661 -0.26741508 0.60800004 65 62 34 255
-0.24466679 -0.26737753 0.60800004 62 58 34 255
-0.24376793 -0.26822022 0.61000001 66 64 40 255
-0.24246222 -0.26862377 0.611 71 69 45 255
-0.23918192 -0.26683012 0.60700005 78 76 56 255
-0.23240377 -0.26108184 0.59400004 68 67 43 255
-0.22880682 -0.25885159 0.58900005 61 60 36 255
-0.22639585 -0.25794083 0.58700001 55 54 30 255
-0.22437988 -0.2574704 0.58600003 49 49 23 255
-0.22313069 -0.25787935 0.58700001 46 45 21 255
-0.22149961 -0.25784966 0.58700001 44 43 19 255
-0.22024399 -0.25825983 0.588 44 44 18 255
-0.21824022 -0.25779226 0.58700001 45 43 18 255
-0.21661186 -0.25776452 0.58700001 45 43 19 255
-0.21498439 -0.25773743 0.58700001 47 45 21 255
-0.21335782 -0.25771096 0.58700001 46 44 20 255
-0.21173204 -0.25768512 0.58700001 46 42 18 255
-0.21046501 -0.25809884 0.588 52 48 24 255
-0.20883811 -0.25807416 0.588 47 43 19 255
-0.20721199 -0.25805011 0.588 48 44 20 255
-0.20558663 -0.25802663 0.588 42 38 13 255
-0.20396201 -0.25800371 0.588 46 42 18 255
-0.20268224 -0.25842011 0.58900005 47 43 19 255
-0.2010563 -0.25839823 0.58900005 48 44 20 255
-0.19943102 -0.25837693 0.58900005 46 41 20 255
-0.19780646 -0.25835618 0.58900005 49 44 23 255
-0.19584945 -0.25789732 0.588 47 42 21 255
-0.19422892 -0.25787762 0.588 47 42 21 255
-0.19228147 -0.25741994 0.58700001 43 38 17 255
-0.19098975 -0.2578398 0.588 44 39 18 255
-0.18937103 -0.25782159 0.588 42 39 18 255
-0.18743363 -0.25736547 0.58700001 43 40 20 255
-0.18613537 -0.25778666 0.588 45 42 22 255
-0.18420456 -0.25733149 0.58700001 43 40 20 255
-0.1829019 -0.25775361 0.588 40 37 17 255
-0.18097761 -0.25729939 0.58700001 45 40 20 255
-0.1796705 -0.25772232 0.588 43 38 18 255
-0.17805552 -0.25770733 0.588 45 40 20 255
-0.17644104 -0.25769275 0.588 49 44 24 255
-0.17512436 -0.25811687 0.58900005 45 40 19 255
-0.17380261 -0.25854129 0.59000003 47 42 21 255
-0.17276767 -0.25940424 0.59200001 42 37 16 255
-0.17114401 -0.25939125 0.59200001 45 40 19 255
-0.16952072 -0.25937858 0.59200001 45 40 19 255
-0.16818151 -0.25980449 0.59300005 47 42 21 255
-0.16627543 -0.25935444 0.59200001 45 38 17 255
-0.16493149 -0.259781 0.59300005 43 38 18 255
-0.16330703 -0.25976986 0.59300005 43 38 18 255
-0.16277353 -0.26151115 0.597 45 40 20 255
-0.16140877 -0.26193866 0.59800005 45 40 20 255
-0.16057317 -0.26324239 0.60100001 44 39 19 255
-0.15892819 -0.26323244 0.60100001 40 35 15 255
-0.15780695 -0.26409879 0.60300004 41 36 16 255
-0.15641609 -0.26452741 0.60400003 41 34 14 255
-0.15578878 -0.26627016 0.60800004 40 32 15 255
-0.15488632 -0.26757514 0.611 43 35 18 255
-0.15446933 -0.26975626 0.61600006 43 36 16 255
-0.15303314 -0.27018586 0.61700004 45 38 18 255
-0.15232761 -0.27192938 0.62100005 41 35 18 255
-0.15087283 -0.27235952 0.62200004 38 32 15 255
-0.15037212 -0.27454135 0.62700003 36 30 13 255
-0.14960724 -0.27628547 0.63100004 34 30 13 255
-0.14999257 -0.28021905 0.64000005 33 29 12 255
-0.14917077 -0.2819635 0.64400005 30 26 10 255
-0.14878516 -0.28458372 0.65000004 30 26 10 255
-0.14881936 -0.2880798 0.65800005 34 30 14 255
-0.14970379 -0.29332712 0.67000002 32 29 13 255
-0.14986078 -0.29726115 0.67900002 31 28 12 255
-0.14626321 -0.29375291 0.671 25 24 10 255
-0.14270954 -0.29024509 0.66300005 27 26 12 255
-0.14047481 -0.28936419 0.66100001 25 24 10 255
-0.13888054 -0.28979689 0.66200006 25 24 10 255
-0.13665982 -0.2889165 0.66000003 29 26 12 255
-0.13465449 -0.28847411 0.65900004 28 25 9 255
-0.13245317 -0.2875942 0.65700001 31 28 12 255
-0.13085955 -0.28802773 0.65800005 31 27 10 255
-0.12926061 -0.28846145 0.65900004 30 26 9 255
-0.12765636 -0.28889534 0.66000003 33 29 12 255
-0.12585607 -0.2888917 0.66000003 34 30 13 255
-0.12368 -0.28801283 0.65800005 38 34 17 255
-0.12170015 -0.28757179 0.65700001 36 33 13 255
-0.11972591 -0.28713101 0.65600002 37 35 17 255
-0.117937 -0.28712809 0.65600002 38 36 18 255
-0.11614819 -0.28712529 0.65600002 37 35 17 255
-0.11418515 -0.28668502 0.65500003 41 39 21 255
-0.11205605 -0.28580716 0.65300006 36 34 16 255
-0.1102757 -0.28580487 0.65300006 41 37 20 255
-0.10849541 -0.28580266 0.65300006 40 35 15 255
-0.10671522 -0.28580064 0.65300006 41 34 14 255
-0.10477439 -0.28536102 0.65200001 42 35 14 255
-0.10268112 -0.28448391 0.65000004 43 38 17 255
-0.10075405 -0.28404459 0.64900005 39 34 13 255
-0.099137552 -0.28448072 0.65000004 42 39 18 255
-0.097365841 -0.28447926 0.65000004 41 38 17 255
-0.095594205 -0.28447792 0.65000004 38 35 15 255
-0.093678258 -0.28403902 0.64900005 41 38 17 255
-0.091909438 -0.28403789 0.64900005 43 40 20 255
-0.090001754 -0.28359917 0.648 41 38 18 255
-0.088371918 -0.28403589 0.64900005 37 34 14 255
-0.086336337 -0.2831597 0.64700001 38 35 15 255
-0.084442399 -0.28272128 0.64600003 34 32 14 255
-0.082681954 -0.28272057 0.64600003 37 35 17 255
-0.080921516 -0.28271994 0.64600003 40 38 20 255
-0.079161115 -0.28271937 0.64600003 37 35 17 255
-0.077520557 -0.28315651 0.64700001 37 35 17 255
-0.07587456 -0.28359368 0.648 37 35 17 255
-0.073994413 -0.28315568 0.64700001 42 40 22 255
-0.071896456 -0.28184241 0.64400005 37 35 17 255
-0.070032693 -0.2814045 0.64300001 39 35 18 255
-0.068174392 -0.28096661 0.64200002 35 31 14 255
-0.066425025 -0.28096643 0.64200002 37 35 17 255
-0.064574935 -0.28052869 0.64100003 34 32 14 255
-0.062730297 -0.28009096 0.64000005 33 31 13 255
-0.060795821 -0.27921557 0.63800001 38 34 17 255
-0.058964822 -0.27877793 0.63700002 37 33 16 255
-0.056959599 -0.27746499 0.634 41 37 20 255
-0.055232082 -0.27746502 0.634 39 37 19 255
-0.053335786 -0.27658981 0.63200003 41 39 21 255
-0.051613726 -0.27658987 0.63200003 39 37 19 255
-0.049654838 -0.27527702 0.62900001 40 38 18 255
-0.047788523 -0.2744019 0.62700003 42 41 19 255
-0.046080094 -0.27440202 0.62700003 39 38 16 255
-0.044371653 -0.27440214 0.62700003 40 39 15 255
-0.042663231 -0.27440232 0.62700003 39 37 13 255
-0.040693518 -0.27265188 0.62300003 40 37 17 255
-0.038870804 -0.27177683 0.62100005 41 39 21 255
-0.037178718 -0.27177697 0.62100005 43 41 23 255
-0.035543773 -0.2722148 0.62200004 44 40 23 255
-0.033848964 -0.27221501 0.62200004 46 42 25 255
-0.032102451 -0.27177751 0.62100005 49 44 24 255
-0.030410355 -0.27177772 0.62100005 52 45 25 255
-0.028764507 -0.27221555 0.62200004 54 47 26 255
-0.027200246 -0.27352867 0.625 51 42 21 255
-0.025578836 -0.27440414 0.62700003 54 47 27 255
-0.023984596 -0.27571723 0.63000005 48 41 20 255
-0.022303311 -0.27615505 0.63100004 46 39 19 255
-0.020649197 -0.2770305 0.63300002 47 40 20 255
-0.018984182 -0.27790594 0.63500005 45 38 18 255
-0.017308261 -0.27878135 0.63700002 46 41 21 255
-0.015596995 -0.27921915 0.63800001 44 37 17 255
-0.01392372 -0.28053224 0.64100003 42 35 14 255
-0.012158107 -0.28009468 0.64000005 44 37 17 255
-0.010430486 -0.28053245 0.64100003 42 35 15 255
-0.008697412 -0.28097013 0.64200002 38 33 13 255
-0.0069805332 -0.28228316 0.64500004 38 33 13 255
-0.0052473033 -0.28359613 0.648 43 38 18 255
-0.0034869798 -0.28403386 0.64900005 40 35 15 255
-0.0017212046 -0.28447151 0.65000004 39 36 16 255
4.9943257e-05 -0.28447151 0.65000004 41 38 18 255
0.0018238928 -0.28490916 0.65100002 40 37 17 255
0.0035977648 -0.2849091 0.65100002 37 35 15 255
0.0053716372 -0.28490907 0.65100002 41 39 19 255
0.0071455087 -0.28490904 0.65100002 38 36 18 255
0.0089193778 -0.28490898 0.65100002 39 37 19 255
0.010709671 -0.28534651 0.65200001 46 44 24 255
0.012486264 -0.28534645 0.65200001 45 44 22 255
0.01428473 -0.28578398 0.65300006 42 41 19 255
0.016064044 -0.28578389 0.65300006 41 38 17 255
0.017870679 -0.28622139 0.65400004 46 41 21 255
0.019682763 -0.28665888 0.65500003 51 44 24 255
0.021500291 -0.28709638 0.65600002 50 43 22 255
0.023323266 -0.28753385 0.65700001 52 45 24 255
0.025113467 -0.28753367 0.65700001 49 43 18 255
0.026862714 -0.28709587 0.65600002 49 43 18 255
0.02873753 -0.28797096 0.65800005 48 41 18 255
0.030576847 -0.28840843 0.65900004 46 39 16 255
0.032470729 -0.28928351 0.66100001 47 40 19 255
0.034271814 -0.28928331 0.66100001 49 42 21 255
0.03612747 -0.28972074 0.66200006 44 37 16 255
0.037931275 -0.28972057 0.66200006 46 39 18 255
0.039915148 -0.2910333 0.66500002 46 39 18 255
0.041852616 -0.29190838 0.66700006 48 39 16 255
0.043735512 -0.29234585 0.66800004 48 39 18 255
0.045623858 -0.29278332 0.66900003 46 37 16 255
0.047517646 -0.29322079 0.67000002 48 39 18 255
0.049416889 -0.29365826 0.671 51 44 24 255
0.051321585 -0.29409578 0.67200005 46 39 19 255
0.053389918 -0.29540858 0.67500001 49 44 24 255
0.055392787 -0.29628378 0.67700005 49 42 22 255
0.057237457 -0.29628369 0.67700005 51 43 26 255
0.05925668 -0.29715893 0.67900002 50 40 21 255
0.061196811 -0.29759651 0.68000001 48 38 19 255
0.063142397 -0.29803416 0.68100005 47 37 18 255
0.065188885 -0.29890949 0.68300003 45 38 17 255
0.067246288 -0.29978484 0.68500006 48 41 20 255
0.069213696 -0.30022261 0.68600005 46 39 18 255
0.071082942 -0.30022272 0.68600005 48 43 23 255
0.072952211 -0.30022296 0.68600005 43 38 18 255
0.074930549 -0.30066079 0.68700004 46 41 20 255
0.07691437 -0.30109876 0.68800002 42 37 16 255
0.079018176 -0.30197442 0.69000006 43 39 15 255
0.081015646 -0.30241245 0.69100004 43 36 13 255
0.083018593 -0.30285054 0.69200003 44 37 16 255
0.084658943 -0.30197585 0.69000006 45 38 15 255
0.086664662 -0.30241409 0.69100004 48 41 20 255
