ply
format ascii 1.0
comment PCL generated
element vertex 974
property float x
property float y
property float z
property uchar red
property uchar green
property uchar blue
property uchar alpha
element camera 0
property float view_px
property float view_py
property float view_pz
property float x_axisx
property float x_axisy
property float x_axisz
property float y_axisx
property float y_axisy
property float y_axisz
property float z_axisx
property float z_axisy
property float z_axisz
property float focal
property float scalex
property float scaley
property float centerx
property float centery
property int viewportx
property int viewporty
property float k1
property float k2
end_header
-0.088799357 -0.15718114 0.56100005 42 39 18 255
-0.087270841 -0.15718701 0.56100005 44 41 20 255
-0.08574219 -0.15719281 0.56100005 41 38 17 255
-0.084063254 -0.15691835 0.56 41 38 17 255
-0.082537055 -0.15692404 0.56 46 43 22 255
-0.081155367 -0.15720992 0.56100005 49 46 25 255
-0.07962615 -0.15721549 0.56100005 47 45 25 255
-0.078096785 -0.15722102 0.56100005 40 37 17 255
-0.076430798 -0.1569462 0.56 43 40 20 255
-0.075037658 -0.15723187 0.56100005 40 36 19 255
-0.073769942 -0.15779775 0.56300002 43 39 22 255
-0.072491184 -0.1583636 0.565 44 41 21 255
-0.071075805 -0.15864913 0.56600004 40 36 19 255
-0.069900528 -0.15949519 0.56900001 37 34 14 255
-0.068588644 -0.16006094 0.57100004 39 36 16 255
-0.067617871 -0.16146758 0.57600003 36 33 13 255
-0.066275693 -0.16203324 0.57800001 36 32 15 255
-0.064810552 -0.16231853 0.57900006 30 28 10 255
-0.063339815 -0.16260372 0.58000004 28 26 8 255
-0.061757002 -0.16260847 0.58000004 34 32 14 255
-0.059966568 -0.16205239 0.57800001 36 34 16 255
-0.058388967 -0.16205694 0.57800001 39 37 19 255
-0.056811247 -0.16206139 0.57800001 40 38 20 255
-0.055233404 -0.16206574 0.57800001 43 39 22 255
-0.053562615 -0.16178963 0.57700002 43 39 22 255
-0.052167471 -0.16235457 0.57900006 43 37 20 255
-0.050761286 -0.16291946 0.58100003 44 40 23 255
-0.049259432 -0.16320382 0.58200002 44 40 23 255
-0.047588184 -0.16292726 0.58100003 41 37 20 255
-0.046159826 -0.16349185 0.583 44 40 23 255
-0.044796888 -0.16433682 0.58600003 40 36 19 255
-0.043712318 -0.16630349 0.59300005 39 35 18 255
-0.042660382 -0.16855054 0.60100001 33 31 13 255
-0.041359898 -0.16995619 0.60600001 31 29 11 255
-0.039769925 -0.17023997 0.60700005 29 27 9 255
-0.037986029 -0.1696822 0.60500002 33 31 13 255
-0.036333092 -0.16968526 0.60500002 35 33 15 255
-0.034680065 -0.16968817 0.60500002 38 36 18 255
-0.032972366 -0.16941048 0.60400003 37 35 17 255
-0.031270053 -0.16913266 0.60300004 33 30 14 255
-0.029573131 -0.1688547 0.60200006 34 31 15 255
-0.027927998 -0.1688571 0.60200006 26 23 9 255
-0.026195478 -0.16829833 0.60000002 29 26 12 255
-0.024473829 -0.16773948 0.59800005 29 26 10 255
-0.022801241 -0.16746092 0.597 34 32 14 255
-0.021098608 -0.16690177 0.59500003 36 34 16 255
-0.019472308 -0.16690347 0.59500003 42 38 21 255
-0.01775598 -0.16606347 0.59200001 42 40 22 255
-0.016137792 -0.16606493 0.59200001 44 41 21 255
-0.014445983 -0.16522466 0.58900005 44 42 22 255
-0.012835918 -0.16522582 0.58900005 41 40 18 255
-0.011225822 -0.16522683 0.58900005 40 39 17 255
-0.0096156979 -0.16522771 0.58900005 41 39 19 255
-0.0079919584 -0.16494793 0.588 44 42 22 255
-0.0063953828 -0.16522907 0.58900005 43 41 21 255
-0.0047852001 -0.16522956 0.58900005 45 43 23 255
-0.0031750049 -0.16522989 0.58900005 44 42 22 255
-0.001562145 -0.16494954 0.588 43 41 23 255
4.5405021e-05 -0.16523013 0.58900005 41 39 21 255
0.0016584228 -0.16551061 0.59000003 40 40 22 255
0.0032769036 -0.16579092 0.59100002 40 38 20 255
0.0048842872 -0.16551004 0.59000003 42 42 24 255
0.0065082163 -0.16579008 0.59100002 42 40 22 255
0.0081238495 -0.16578946 0.59100002 47 45 27 255
0.0097394632 -0.16578871 0.59100002 46 44 26 255
0.011335839 -0.1655073 0.59000003 40 38 20 255
0.012926722 -0.16522576 0.58900005 41 39 21 255
0.014512103 -0.16494407 0.588 46 44 26 255
0.016174225 -0.16550381 0.59000003 44 42 24 255
0.017786946 -0.16550238 0.59000003 45 43 25 255
0.019432502 -0.16578133 0.59100002 45 43 25 255
0.020905411 -0.16465761 0.58700001 46 42 25 255
0.022509791 -0.16465579 0.58700001 43 41 23 255
0.024114115 -0.16465384 0.58700001 43 41 23 255
0.025849821 -0.16549325 0.59000003 45 43 23 255
0.02741568 -0.16521055 0.58900005 44 42 22 255
0.029025283 -0.16520819 0.58900005 41 39 19 255
0.030582806 -0.16492523 0.588 45 43 23 255
0.03224428 -0.16520312 0.58900005 42 40 22 255
0.033796191 -0.16491991 0.588 47 43 27 255
0.035462979 -0.16519757 0.58900005 43 39 23 255
0.037135139 -0.16547506 0.59000003 42 39 23 255
0.038812678 -0.16575241 0.59100002 46 44 26 255
0.040358782 -0.16546872 0.59000003 44 42 22 255
0.042041603 -0.16574584 0.59100002 39 38 16 255
0.043655928 -0.16574237 0.59100002 42 39 18 255
0.045270149 -0.16573878 0.59100002 44 41 20 255
0.046884269 -0.1657351 0.59100002 46 43 22 255
0.048498277 -0.1657313 0.59100002 43 40 19 255
0.050196975 -0.16600779 0.59200001 40 39 17 255
0.051901028 -0.16628416 0.59300005 46 44 24 255
0.053610425 -0.16656041 0.59400004 45 44 22 255
0.055232175 -0.16655613 0.59400004 48 46 26 255
0.056949522 -0.16683215 0.59500003 43 40 20 255
0.058475323 -0.16654728 0.59400004 43 39 22 255
0.06019789 -0.16682306 0.59500003 44 38 21 255
0.06192578 -0.16709873 0.59600002 42 37 17 255
0.063765638 -0.16765468 0.59800005 42 35 15 255
0.06561628 -0.16821045 0.60000002 44 37 16 255
0.06725353 -0.16820544 0.60000002 49 42 21 255
0.068890631 -0.16820031 0.60000002 46 42 18 255
0.070527591 -0.16819511 0.60000002 45 41 17 255
0.072284706 -0.16847013 0.60100001 44 39 18 255
0.07417012 -0.16902536 0.60300004 46 39 18 255
0.076066315 -0.16958046 0.60500002 46 39 18 255
0.077716351 -0.16957489 0.60500002 48 39 18 255
0.079235055 -0.16928893 0.60400003 51 41 22 255
0.080748178 -0.16900292 0.60300004 48 38 19 255
0.082802229 -0.16983789 0.60600001 45 37 20 255
0.084872492 -0.17067274 0.60900003 53 43 26 255
0.08681687 -0.17122722 0.611 45 37 20 255
0.08848238 -0.17122114 0.611 41 35 18 255
0.090295292 -0.17149521 0.61200005 42 36 19 255
0.092263736 -0.17204942 0.61400002 43 39 22 255
0.094242953 -0.17260353 0.61600006 47 43 26 255
0.096232891 -0.17315751 0.61800003 48 42 25 255
0.098233588 -0.17371142 0.62 46 41 21 255
0.099922687 -0.17370488 0.62 47 40 17 255
0.10161164 -0.17369832 0.62 55 46 23 255
0.10296723 -0.17313142 0.61800003 54 43 20 255
0.10498909 -0.17368506 0.62 54 43 20 255
0.10753789 -0.17507899 0.625 56 45 22 255
0.11028855 -0.1767529 0.63100004 64 54 29 255
0.11289423 -0.17814659 0.63600004 58 47 24 255
0.11570722 -0.17982018 0.64200002 62 49 26 255
0.11836974 -0.18121353 0.64700001 57 46 23 255
0.12087369 -0.18232669 0.65100002 57 46 23 255
0.12283407 -0.18259956 0.65200001 47 36 13 255
0.12460862 -0.18259236 0.65200001 45 36 13 255
0.12657689 -0.1828652 0.65300006 39 32 11 255
0.12855044 -0.18313798 0.65400004 41 36 16 255
0.13033 -0.18313073 0.65400004 46 39 18 255
0.1321094 -0.18312348 0.65400004 51 44 23 255
0.13409343 -0.18339624 0.65500003 47 40 19 255
0.13608274 -0.18366899 0.65600002 52 43 20 255
0.13828754 -0.1842217 0.65800005 54 47 24 255
0.14071594 -0.18505432 0.66100001 53 46 23 255
0.14337617 -0.18616685 0.66500002 52 45 24 255
0.14540307 -0.18643951 0.66600001 47 40 19 255
0.14765634 -0.18699214 0.66800004 50 43 23 255
0.14992034 -0.18754473 0.67000002 45 40 19 255
0.15242161 -0.18837723 0.67300004 43 38 17 255
0.15493912 -0.18920973 0.67600006 49 44 23 255
0.15700896 -0.18948239 0.67700005 46 43 23 255
0.15908416 -0.18975513 0.67800003 43 40 19 255
0.16068999 -0.18946818 0.67700005 42 39 19 255
0.16277045 -0.189741 0.67800003 44 38 21 255
0.16509907 -0.19029373 0.68000001 39 33 16 255
0.16694744 -0.1902868 0.68000001 41 34 13 255
0.16929224 -0.19083963 0.68200004 45 38 17 255
0.17114595 -0.19083284 0.68200004 45 40 20 255
0.17299961 -0.19082618 0.68200004 48 41 20 255
0.1751096 -0.19109938 0.68300003 50 43 23 255
0.1774841 -0.19165245 0.68500006 46 39 19 255
0.18039306 -0.19276512 0.68900001 52 44 27 255
0.18253016 -0.19303857 0.69000006 85 75 56 255
0.1860089 -0.19471085 0.69600004 94 85 64 255
0.19114012 -0.19806166 0.708 96 85 64 255
0.19579121 -0.20085293 0.71800005 86 75 52 255
0.19939499 -0.20252521 0.72400004 85 76 53 255
0.20275332 -0.20391783 0.72900003 77 68 45 255
0.21063235 -0.20978594 0.75000006 74 67 46 255
0.22798304 -0.22488418 0.80400002 85 76 53 255
0.24419597 -0.23858328 0.85300004 85 76 53 255
0.25287238 -0.24473014 0.87500006 80 71 48 255
0.25700107 -0.246402 0.88100004 74 67 46 255
0.26027921 -0.24723491 0.88400006 78 71 50 255
0.26446521 -0.24890703 0.89000005 78 73 52 255
0.26958355 -0.25141829 0.89900005 61 58 38 255
0.27384323 -0.25309071 0.90500003 56 55 39 255
0.27966228 -0.25616154 0.91600007 45 48 36 255
-0.18134718 -0.1756551 0.62200004 112 100 71 255
-0.1753238 -0.17142329 0.60700005 114 101 77 255
-0.17138481 -0.16916831 0.59900004 136 132 115 255
-0.16862303 -0.16804308 0.59500003 141 138 122 255
-0.16560234 -0.16663547 0.59000003 106 107 95 255
-0.16288684 -0.16551034 0.58600003 94 95 83 255
-0.16046834 -0.16466774 0.583 96 97 85 255
-0.15588595 -0.16156554 0.57200003 128 129 117 255
-0.15217283 -0.15931068 0.56400001 112 110 99 255
-0.14983866 -0.15846817 0.56100005 97 96 82 255
-0.14831391 -0.15847313 0.56100005 98 97 81 255
-0.1462658 -0.15791319 0.55900002 109 109 91 255
-0.14422861 -0.15735334 0.55700004 80 82 64 255
-0.141946 -0.15651099 0.55400002 74 76 58 255
-0.1404402 -0.15651627 0.55400002 54 54 36 255
-0.13868359 -0.15623908 0.55300003 50 50 32 255
-0.13693237 -0.15596193 0.55200005 62 60 40 255
-0.13518655 -0.15568484 0.551 58 57 35 255
-0.13296084 -0.15484267 0.54800004 58 56 32 255
-0.13123123 -0.15456566 0.54700005 52 50 26 255
-0.12950698 -0.15428866 0.546 50 47 26 255
-0.12872602 -0.15514207 0.54900002 49 46 25 255
-0.12700166 -0.15486519 0.54800004 49 46 26 255
-0.12528265 -0.15458834 0.54700005 44 41 21 255
-0.12334267 -0.15402885 0.54500002 42 40 22 255
-0.12186071 -0.15403467 0.54500002 38 36 18 255
-0.12059952 -0.15432315 0.546 44 40 23 255
-0.11955097 -0.15489434 0.54800004 45 41 24 255
-0.11784513 -0.15461758 0.54700005 44 39 19 255
-0.11657009 -0.1549062 0.54800004 44 39 19 255
-0.11528948 -0.15519485 0.54900002 49 42 21 255
-0.11400333 -0.15548353 0.55000001 49 42 19 255
-0.11250709 -0.15548956 0.55000001 44 37 14 255
-0.11101073 -0.15549558 0.55000001 45 40 19 255
-0.10931515 -0.15521888 0.54900002 43 38 18 255
-0.10801768 -0.15550765 0.55000001 41 35 18 255
-0.10671466 -0.15579644 0.551 40 36 19 255
-0.10559703 -0.15636802 0.55300003 44 38 21 255
-0.10409193 -0.15637407 0.55300003 43 39 22 255
-0.10295771 -0.15694568 0.55500001 42 36 19 255
-0.10144691 -0.15695173 0.55500001 42 36 19 255
-0.10011605 -0.15724058 0.55600005 35 31 14 255
-0.098779619 -0.15752943 0.55700004 38 34 17 255
-0.097437598 -0.15781827 0.55800003 39 33 16 255
-0.096261896 -0.15838994 0.56 38 32 15 255
-0.09507519 -0.15896164 0.56200004 42 36 19 255
-0.093710989 -0.15925048 0.56300002 38 32 15 255
-0.092013761 -0.15897356 0.56200004 44 38 21 255
-0.090643831 -0.15926236 0.56300002 44 38 21 255
-0.089110047 -0.15926823 0.56300002 50 45 25 255
-0.087731689 -0.15955698 0.56400001 49 44 23 255
-0.085889243 -0.15899695 0.56200004 42 39 18 255
-0.084207676 -0.15871976 0.56100005 42 39 18 255
-0.0825314 -0.15844247 0.56 46 43 22 255
-0.081294417 -0.15901394 0.56200004 44 41 21 255
-0.079620615 -0.15873657 0.56100005 44 42 22 255
-0.078230508 -0.15902501 0.56200004 43 40 20 255
-0.076698355 -0.15903047 0.56200004 48 44 27 255
-0.075166062 -0.15903582 0.56200004 42 38 21 255
-0.073764645 -0.15932411 0.56300002 42 38 21 255
-0.072614245 -0.16017836 0.56600004 45 39 22 255
-0.071196191 -0.16046657 0.56700003 43 37 20 255
-0.069895409 -0.16103771 0.56900001 36 32 15 255
-0.068463467 -0.16132583 0.57000005 33 29 12 255
-0.067260697 -0.16217992 0.57300001 35 31 14 255
-0.066041432 -0.16303399 0.57600003 34 30 13 255
-0.064581819 -0.16332193 0.57700002 30 26 9 255
-0.063225821 -0.16389285 0.57900006 31 29 11 255
-0.061539356 -0.1636145 0.57800001 31 29 11 255
-0.060065728 -0.16390222 0.57900006 39 37 19 255
-0.058384478 -0.16362366 0.57800001 40 38 20 255
-0.056806855 -0.16362807 0.57800001 39 35 18 255
-0.055229116 -0.16363241 0.57800001 42 38 21 255
-0.053558428 -0.16335353 0.57700002 41 38 18 255
-0.052163374 -0.16392389 0.57900006 40 35 15 255
-0.05066992 -0.16421105 0.58000004 44 40 23 255
-0.049170896 -0.16449811 0.58100003 45 42 22 255
-0.0475844 -0.16450195 0.58100003 45 41 24 255
-0.046156142 -0.16507195 0.583 37 33 16 255
-0.045022614 -0.16677447 0.58900005 34 32 14 255
-0.044003624 -0.16904323 0.597 34 32 14 255
-0.043011822 -0.17159516 0.60600001 34 32 14 255
-0.041561279 -0.17244805 0.60900003 28 25 9 255
-0.039897714 -0.17245136 0.60900003 29 26 10 255
-0.038171276 -0.17217135 0.60800004 31 28 12 255
-0.036510266 -0.17217441 0.60800004 30 27 11 255
-0.034791853 -0.17189415 0.60700005 28 25 9 255
-0.03307882 -0.17161372 0.60600001 31 28 12 255
-0.031371176 -0.17133319 0.60500002 28 25 9 255
-0.029619804 -0.1707693 0.60300004 28 25 9 255
-0.027925679 -0.17048849 0.60200006 32 29 15 255
-0.026193298 -0.16992432 0.60000002 33 30 16 255
-0.024471788 -0.16936001 0.59800005 36 33 17 255
-0.022799337 -0.16907877 0.597 37 35 17 255
-0.021061387 -0.16823095 0.59400004 38 36 18 255
-0.019437954 -0.16823265 0.59400004 43 39 22 255
-0.017754491 -0.16766776 0.59200001 42 38 21 255
-0.016109176 -0.16738595 0.59100002 43 40 20 255
-0.014469291 -0.16710401 0.59000003 44 41 21 255
-0.012878418 -0.16738838 0.59100002 44 43 21 255
-0.011262991 -0.16738939 0.59100002 40 39 17 255
-0.0096312109 -0.16710705 0.59000003 41 40 18 255
-0.0080184648 -0.16710779 0.59000003 45 43 23 255
-0.0063839848 -0.16654192 0.588 46 43 23 255
-0.0047766711 -0.1665424 0.588 45 43 23 255
-0.0031801264 -0.16710921 0.59000003 44 43 21 255
-0.0015646695 -0.16682617 0.58900005 43 41 23 255
4.547826e-05 -0.16710947 0.59000003 41 39 21 255
0.001661093 -0.16739264 0.59100002 44 42 24 255
0.0032821705 -0.16767566 0.59200001 40 38 20 255
0.0049004299 -0.16767533 0.59200001 41 39 21 255
0.0065076659 -0.1673916 0.59100002 43 41 23 255
0.0081369076 -0.16767421 0.59200001 46 44 26 255
0.0097551188 -0.16767345 0.59200001 50 48 30 255
0.011373307 -0.16767257 0.59200001 46 44 26 255
0.012947577 -0.16710509 0.59000003 40 38 20 255
0.014535562 -0.16682073 0.58900005 42 40 22 255
0.016145453 -0.16681941 0.58900005 44 42 24 255
0.017755311 -0.16681801 0.58900005 47 45 27 255
0.019430874 -0.16738288 0.59100002 43 41 23 255
0.020974886 -0.16681477 0.58900005 43 41 23 255
0.022546254 -0.16652973 0.588 43 41 23 255
0.02415318 -0.16652778 0.588 40 38 20 255
0.025803864 -0.16680892 0.58900005 43 41 21 255
0.027413407 -0.16680673 0.58900005 43 41 21 255
0.029072156 -0.1670876 0.59000003 43 41 21 255
0.030632291 -0.16680193 0.58900005 46 42 25 255
0.032296367 -0.16708252 0.59000003 42 38 21 255
0.03385089 -0.16679662 0.58900005 42 38 22 255
0.035580475 -0.16736014 0.59100002 42 38 22 255
0.037195042 -0.16735718 0.59100002 43 41 23 255
0.038875189 -0.16763727 0.59200001 39 37 19 255
0.040423911 -0.16735087 0.59100002 44 42 22 255
0.04203821 -0.16734755 0.59100002 40 39 17 255
0.043578554 -0.16706094 0.59000003 43 40 19 255
0.045189928 -0.16705739 0.59000003 43 40 19 255
0.046801202 -0.16705374 0.59000003 47 44 23 255
0.048494425 -0.16733308 0.59100002 42 39 18 255
0.050277792 -0.16789545 0.59300005 42 39 19 255
0.051984448 -0.16817454 0.59400004 40 38 18 255
0.053696461 -0.1684535 0.59500003 39 36 16 255
0.055227861 -0.16816615 0.59400004 41 39 21 255
0.056849394 -0.16816179 0.59400004 40 37 17 255
0.058470812 -0.16815734 0.59400004 43 39 22 255
0.060092099 -0.16815278 0.59400004 43 37 20 255
0.061817151 -0.16843119 0.59500003 46 40 23 255
0.063760795 -0.16927564 0.59800005 48 41 21 255
0.065501966 -0.16955382 0.59900004 45 38 18 255
0.067136392 -0.16954884 0.59900004 50 43 23 255
0.068655871 -0.16926071 0.59800005 51 46 25 255
0.070287295 -0.16925555 0.59800005 45 40 19 255
0.072159111 -0.16981636 0.60000002 50 43 22 255
0.074041702 -0.17037705 0.60200006 44 37 16 255
0.076060779 -0.17122063 0.60500002 50 41 20 255
0.07771074 -0.17121507 0.60500002 48 39 18 255
0.07936056 -0.17120942 0.60500002 48 38 19 255
0.081010237 -0.17120372 0.60500002 46 36 17 255
0.08279638 -0.17148089 0.60600001 47 40 20 255
0.084727198 -0.17204095 0.60800004 49 42 22 255
0.08666876 -0.17260091 0.61000001 47 40 20 255
0.088476293 -0.17287782 0.611 45 39 22 255
0.090584166 -0.17372049 0.61400002 44 38 21 255
0.092257492 -0.17371431 0.61400002 41 37 20 255
0.09408363 -0.17399095 0.61500001 46 40 23 255
0.095915079 -0.17426756 0.61600006 45 40 20 255
0.097910255 -0.17482695 0.61800003 44 39 18 255
0.09959387 -0.1748205 0.61800003 47 40 17 255
0.10144121 -0.17509687 0.61900002 53 45 20 255
0.10296063 -0.17480744 0.61800003 50 42 17 255
0.10498245 -0.17536655 0.62 55 47 22 255
0.1073591 -0.17649128 0.62400001 54 46 21 255
0.10993217 -0.17789871 0.62900001 61 53 28 255
0.11270982 -0.17958884 0.63500005 61 50 27 255
0.11533977 -0.18099597 0.64000005 60 49 26 255
0.1179968 -0.18240298 0.64500004 57 48 25 255
0.12030957 -0.18324429 0.648 58 49 28 255
0.12263852 -0.18408553 0.65100002 55 44 23 255
0.12460144 -0.18436114 0.65200001 48 39 18 255
0.12676351 -0.18491951 0.65400004 46 39 18 255
0.12854321 -0.18491234 0.65400004 43 36 16 255
0.13032278 -0.18490517 0.65400004 47 40 19 255
0.13210221 -0.18489799 0.65400004 46 39 18 255
0.13388151 -0.18489082 0.65400004 46 39 18 255
0.13566068 -0.18488367 0.65400004 48 41 18 255
0.13764985 -0.18515919 0.65500003 53 46 23 255
0.14028299 -0.18628277 0.65900004 42 35 12 255
0.14293776 -0.18740629 0.66300005 49 42 21 255
0.14517754 -0.18796444 0.66500002 51 44 23 255
0.1474281 -0.18852255 0.66700006 48 41 20 255
0.14991315 -0.18936332 0.67000002 48 43 22 255
0.15241444 -0.19020405 0.67300004 45 40 19 255
0.15493193 -0.19104478 0.67600006 45 40 19 255
0.15700182 -0.19132029 0.67700005 43 38 17 255
0.15884246 -0.19131324 0.67700005 41 38 17 255
0.16068298 -0.19130626 0.67700005 44 39 18 255
0.16252343 -0.19129933 0.67700005 51 46 26 255
0.16484937 -0.19185759 0.67900002 44 39 19 255
0.16718614 -0.19241592 0.68100005 40 35 15 255
0.16928549 -0.19269171 0.68200004 42 35 14 255
0.17139024 -0.19296759 0.68300003 44 37 16 255
0.17324668 -0.19296102 0.68300003 48 41 20 255
0.17535947 -0.19323704 0.68400002 57 47 28 255
0.17747769 -0.19351318 0.68500006 53 43 24 255
0.17960128 -0.19378938 0.68600005 48 41 20 255
0.18199487 -0.19434816 0.68800002 58 49 26 255
0.18546826 -0.19603691 0.69400001 85 78 48 255
0.19086401 -0.19970293 0.70700002 97 89 62 255
0.19578511 -0.20280398 0.71800005 90 84 57 255
0.199389 -0.20449272 0.72400004 80 74 49 255
0.20302555 -0.20618151 0.73000002 73 66 43 255
0.21146894 -0.21267173 0.75300002 73 66 43 255
0.22882752 -0.22791688 0.80700004 71 65 40 255
0.24418963 -0.2409021 0.85300004 80 74 49 255
0.2522881 -0.24654417 0.87300003 71 64 41 255
0.25641155 -0.24823251 0.87900007 74 67 46 255
0.26027328 -0.2496386 0.88400006 76 69 49 255
0.26475662 -0.25160962 0.89100003 73 65 48 255
0.26987788 -0.25414559 0.90000004 59 53 36 255
0.27383789 -0.25555214 0.90500003 55 52 36 255
0.27904654 -0.25808841 0.91400003 48 47 33 255
-0.18075989 -0.17677604 0.62 112 100 71 255
-0.1758972 -0.17364377 0.60900003 116 106 81 255
-0.17223886 -0.17165209 0.60200006 138 131 110 255
-0.16890199 -0.16994557 0.59600002 134 132 114 255
-0.16559781 -0.16823909 0.59000003 98 99 85 255
-0.16316016 -0.16738813 0.58700001 93 94 80 255
-0.16046362 -0.16625209 0.583 100 98 87 255
-0.15615374 -0.16340506 0.57300001 137 135 125 255
-0.15270767 -0.16141354 0.56600004 110 109 95 255
-0.15036795 -0.16056274 0.56300002 89 87 69 255
-0.14857329 -0.16028243 0.56200004 75 73 55 255
-0.14652242 -0.15971696 0.56 97 97 79 255
-0.14396456 -0.15858114 0.55600005 82 82 62 255
-0.14194085 -0.15801574 0.55400002 71 71 51 255
-0.14043495 -0.15802091 0.55400002 62 60 42 255
-0.13842751 -0.15745567 0.55200005 58 56 36 255
-0.13667892 -0.15717569 0.551 57 54 33 255
-0.1351811 -0.15718102 0.551 53 50 29 255
-0.13295539 -0.15633065 0.54800004 52 50 30 255
-0.13122572 -0.15605083 0.54700005 51 49 31 255
-0.12973861 -0.15605633 0.54700005 49 47 29 255
-0.12872037 -0.1566325 0.54900002 52 50 32 255
-0.12699597 -0.15635282 0.54800004 44 42 24 255
-0.12527692 -0.15607315 0.54700005 42 40 22 255
-0.12333694 -0.15550819 0.54500002 41 39 21 255
-0.12185493 -0.1555139 0.54500002 45 43 25 255
-0.12037283 -0.15551965 0.54500002 48 44 27 255
-0.1191088 -0.15581082 0.546 49 45 28 255
-0.11740839 -0.15553126 0.54500002 51 46 26 255
-0.11635146 -0.1561079 0.54700005 48 43 23 255
-0.11528352 -0.15668456 0.54900002 43 38 18 255
-0.11420462 -0.1572613 0.551 39 34 13 255
-0.11250109 -0.15698184 0.55000001 43 38 17 255
-0.11100474 -0.1569878 0.55000001 38 33 13 255
-0.10950827 -0.15699378 0.55000001 41 38 18 255
-0.10801169 -0.15699975 0.55000001 43 39 22 255
-0.10670864 -0.15729117 0.551 41 37 20 255
-0.105591 -0.15786812 0.55300003 40 36 19 255
-0.10427412 -0.1581596 0.55400002 40 36 19 255
-0.10295168 -0.15845111 0.55500001 39 35 18 255
-0.1014409 -0.1584571 0.55500001 38 34 17 255
-0.1002901 -0.15903413 0.55700004 42 38 21 255
-0.098773621 -0.15904011 0.55700004 34 30 13 255
-0.097606227 -0.15961716 0.55900002 37 33 16 255
-0.096427821 -0.16019422 0.56100005 38 32 15 255
-0.09523838 -0.16077128 0.56300002 37 33 16 255
-0.09403792 -0.16134837 0.565 39 33 16 255
-0.092335284 -0.16106871 0.56400001 36 32 15 255
-0.090798952 -0.16107459 0.56400001 38 34 17 255
-0.089262486 -0.16108043 0.56400001 39 35 18 255
-0.087881424 -0.16137183 0.565 44 41 21 255
-0.086036339 -0.16080637 0.56300002 43 40 20 255
-0.084352098 -0.16052642 0.56200004 39 38 16 255
-0.08267317 -0.16024642 0.56100005 43 42 20 255
-0.081288859 -0.16053763 0.56200004 42 40 20 255
-0.079615116 -0.16025747 0.56100005 43 41 23 255
-0.07808587 -0.16026293 0.56100005 49 45 28 255
-0.076692969 -0.16055399 0.56200004 46 42 25 255
-0.075160742 -0.16055934 0.56200004 37 33 16 255
-0.073890395 -0.16113599 0.56400001 42 36 19 255
-0.072609022 -0.16171263 0.56600004 46 40 23 255
-0.0713166 -0.16228925 0.56800002 43 35 18 255
-0.069890313 -0.16258007 0.56900001 44 37 17 255
-0.068338335 -0.16258511 0.56900001 40 33 13 255
-0.066903614 -0.16287583 0.57000005 38 32 15 255
-0.065807238 -0.16402371 0.574 39 33 16 255
-0.064465076 -0.16460009 0.57600003 30 26 9 255
-0.063111871 -0.16517639 0.57800001 35 31 14 255
-0.061428249 -0.1648953 0.57700002 31 28 12 255
-0.060061157 -0.16547146 0.57900006 34 31 15 255
-0.058481023 -0.16547598 0.57900006 36 34 16 255
-0.056900769 -0.16548039 0.57900006 42 39 23 255
-0.055320393 -0.1654847 0.57900006 42 40 22 255
-0.053647082 -0.16520309 0.57800001 42 40 22 255
-0.052249391 -0.16577885 0.58000004 40 38 20 255
-0.050753295 -0.16606869 0.58100003 42 40 22 255
-0.049251646 -0.16635846 0.58200002 46 42 25 255
-0.047662523 -0.16636226 0.58200002 42 40 22 255
-0.046231635 -0.16693768 0.58400005 40 37 21 255
-0.045171883 -0.1689423 0.59100002 39 36 22 255
-0.044294912 -0.17180447 0.60100001 36 33 19 255
-0.043292247 -0.17438078 0.61000001 23 22 8 255
-0.041762646 -0.17495596 0.61200005 21 20 6 255
-0.040222023 -0.175531 0.61400002 19 17 6 255
-0.038356505 -0.17467654 0.611 21 19 8 255
-0.036687426 -0.17467958 0.611 22 18 7 255
-0.034903634 -0.17411071 0.60900003 24 21 7 255
-0.033239853 -0.17411351 0.60900003 23 22 8 255
-0.031472296 -0.17354433 0.60700005 27 26 12 255
-0.029715596 -0.17297503 0.60500002 27 26 10 255
-0.027969759 -0.1724056 0.60300004 35 34 18 255
-0.026191128 -0.17155007 0.60000002 31 31 13 255
-0.024469759 -0.17098035 0.59800005 40 38 20 255
-0.022797439 -0.17069635 0.597 39 37 19 255
-0.021059632 -0.16984044 0.59400004 43 41 21 255
-0.01943633 -0.16984209 0.59400004 42 40 22 255
-0.017782995 -0.16955771 0.59300005 43 41 23 255
-0.01616234 -0.16955914 0.59300005 41 39 19 255
-0.014517123 -0.16927448 0.59200001 43 41 21 255
-0.012899127 -0.16927563 0.59200001 42 41 19 255
-0.011300157 -0.16956259 0.59300005 38 37 15 255
-0.0096793696 -0.16956347 0.59300005 45 44 22 255
-0.0080585591 -0.16956422 0.59300005 42 40 20 255
-0.0064051612 -0.168707 0.59000003 47 45 27 255
-0.0047925147 -0.16870746 0.59000003 44 42 24 255
-0.003185248 -0.16899373 0.59100002 48 46 28 255
-0.00156985 -0.16899393 0.59100002 45 43 25 255
4.5628574e-05 -0.16927993 0.59200001 44 42 24 255
0.0016609529 -0.16899392 0.59100002 41 39 21 255
0.0032929818 -0.16985156 0.59400004 42 40 22 255
0.0049082944 -0.16956528 0.59300005 43 41 23 255
0.0065401495 -0.16985074 0.59400004 41 37 20 255
0.0081499675 -0.16956416 0.59300005 44 42 24 255
0.0097872531 -0.16984935 0.59400004 43 41 23 255
0.011391562 -0.16956253 0.59300005 45 43 25 255
0.012990377 -0.16927557 0.59200001 43 41 23 255
0.014559018 -0.16870253 0.59000003 42 42 24 255
0.016116692 -0.16812938 0.588 39 39 21 255
0.017723681 -0.16812797 0.588 44 44 26 255
0.019429253 -0.16898422 0.59100002 42 40 22 255
0.021044353 -0.16898255 0.59100002 43 41 23 255
0.022621062 -0.16869481 0.59000003 44 42 24 255
0.024233324 -0.16869286 0.59000003 46 44 26 255
0.025757918 -0.16811894 0.588 42 39 19 255
0.0273646 -0.16811675 0.588 46 43 23 255
0.02902049 -0.16840036 0.58900005 48 44 27 255
0.030629771 -0.1683979 0.58900005 46 42 25 255
0.032293718 -0.16868123 0.59000003 45 41 24 255
0.033848122 -0.16839264 0.58900005 46 42 25 255
0.03557758 -0.1689616 0.59100002 56 50 33 255
0.037192021 -0.16895865 0.59100002 48 45 25 255
0.038872041 -0.16924144 0.59200001 45 42 22 255
0.040489044 -0.16923824 0.59200001 44 41 20 255
0.042105954 -0.16923493 0.59200001 44 41 20 255
0.043722771 -0.16923149 0.59200001 44 41 20 255
0.045339495 -0.16922794 0.59200001 41 38 17 255
0.046956111 -0.16922428 0.59200001 43 38 18 255
0.048490584 -0.16893467 0.59100002 41 36 16 255
0.050358612 -0.16978832 0.59400004 42 37 17 255
0.05206788 -0.17007011 0.59500003 40 36 19 255
0.053692266 -0.17006598 0.59500003 39 33 16 255
0.055316541 -0.17006177 0.59500003 39 33 16 255
0.056845006 -0.16977163 0.59400004 37 31 14 255
0.058564737 -0.17005298 0.59500003 47 41 25 255
0.060087502 -0.16976266 0.59400004 43 37 20 255
0.061812449 -0.1700438 0.59500003 46 40 23 255
0.063542739 -0.17032483 0.59600002 44 38 21 255
0.065387696 -0.17089157 0.59800005 45 40 20 255
0.06713137 -0.17117238 0.59900004 52 47 27 255
0.068880372 -0.17145309 0.60000002 45 38 18 255
0.070517153 -0.17144793 0.60000002 49 42 22 255
0.072274074 -0.17172845 0.60100001 43 36 16 255
0.074036315 -0.17200886 0.60200006 40 33 13 255
0.075929567 -0.17257488 0.60400003 47 40 20 255
0.077576727 -0.17256936 0.60400003 52 45 25 255
0.079354897 -0.17284948 0.60500002 45 38 18 255
0.081138387 -0.17312948 0.60600001 44 37 17 255
0.083200432 -0.1739808 0.60900003 44 37 17 255
0.084999986 -0.1742606 0.61000001 46 39 19 255
0.086946927 -0.17482601 0.61200005 56 49 29 255
0.088470228 -0.17453432 0.611 44 38 21 255
0.090282992 -0.17481394 0.61200005 42 36 19 255
0.092101038 -0.17509343 0.61300004 43 37 20 255
0.094077356 -0.17565846 0.61500001 44 37 17 255
0.095908746 -0.1759378 0.61600006 46 39 19 255
0.097745441 -0.17621708 0.61700004 41 34 13 255
0.099587411 -0.17649627 0.61800003 42 38 14 255
0.10127083 -0.17648983 0.61800003 47 43 18 255
0.1029541 -0.17648333 0.61800003 54 47 24 255
0.10497586 -0.17704792 0.62 55 48 25 255
0.10718039 -0.17789799 0.62300003 59 52 29 255
0.10975066 -0.17931905 0.62800002 62 55 34 255
0.11270298 -0.18131106 0.63500005 61 54 33 255
0.11533286 -0.18273184 0.64000005 64 57 37 255
0.11780687 -0.18386695 0.64400005 64 57 37 255
0.12048817 -0.18528746 0.64900005 53 46 26 255
0.12244306 -0.18556593 0.65000004 51 42 21 255
0.12459434 -0.18612982 0.65200001 50 41 20 255
0.12675638 -0.18669367 0.65400004 47 38 17 255
0.12873261 -0.18697201 0.65500003 45 38 17 255
0.1305149 -0.18696493 0.65500003 47 40 19 255
0.13209507 -0.18667237 0.65400004 42 35 14 255
0.13387439 -0.18666528 0.65400004 45 38 17 255
0.13586099 -0.18694364 0.65500003 48 41 18 255
0.13764276 -0.18693654 0.65500003 46 37 14 255
0.14027587 -0.18807107 0.65900004 47 38 15 255
0.14293063 -0.18920551 0.66300005 45 38 17 255
0.14560702 -0.19033994 0.66700006 52 45 22 255
0.14808403 -0.19118889 0.67000002 47 40 17 255
0.150801 -0.19232321 0.67400002 50 43 20 255
0.15308672 -0.19288683 0.67600006 46 41 20 255
0.15538321 -0.19345042 0.67800003 42 37 16 255
0.15722671 -0.1934434 0.67800003 43 38 17 255
0.1590701 -0.19343646 0.67800003 45 40 19 255
0.16091342 -0.19342957 0.67800003 45 40 19 255
0.16299672 -0.19370805 0.67900002 52 47 26 255
0.16508539 -0.19398656 0.68000001 53 48 27 255
0.16742492 -0.1945504 0.68200004 54 49 28 255
0.16927885 -0.19454379 0.68200004 48 41 20 255
0.17138366 -0.19482249 0.68300003 47 40 20 255
0.17324021 -0.19481605 0.68300003 49 42 21 255
0.17535309 -0.19509491 0.68400002 45 35 16 255
0.17747143 -0.19537389 0.68500006 50 40 21 255
0.17985691 -0.19593814 0.68700004 53 46 25 255
0.18172427 -0.19593208 0.68700004 55 48 25 255
0.18492778 -0.1973521 0.69200003 59 52 29 255
0.19004817 -0.20076844 0.70400006 100 91 68 255
0.19577917 -0.20475504 0.71800005 97 91 66 255
0.19965853 -0.20674542 0.72500002 81 74 51 255
0.20301978 -0.20816548 0.73000002 69 62 41 255
0.21202482 -0.21528868 0.75500005 69 62 41 255
0.23052281 -0.23182136 0.81300002 67 60 37 255
0.24504231 -0.24407637 0.85600007 81 74 51 255
0.25257102 -0.24920271 0.87400001 66 59 38 255
0.25640568 -0.25062248 0.87900007 76 66 47 255
0.260562 -0.25232747 0.88500005 87 77 60 255
0.26475108 -0.25403264 0.89100003 75 65 48 255
0.27017242 -0.25687841 0.90100002 59 51 34 255
0.2738328 -0.25801376 0.90500003 57 55 37 255
0.27843106 -0.26000455 0.91200006 51 48 32 255
-0.18017282 -0.17788619 0.61800003 112 100 73 255
-0.1758931 -0.17529954 0.60900003 112 102 77 255
-0.17280684 -0.17386438 0.60400003 138 133 113 255
-0.16889769 -0.17156568 0.59600002 138 136 118 255
-0.16559342 -0.16984278 0.59000003 110 109 93 255
-0.16287774 -0.16869566 0.58600003 99 98 84 255
-0.15990858 -0.16726072 0.58100003 106 104 93 255
-0.15560408 -0.16438636 0.57100004 142 140 130 255
-0.15270297 -0.16295148 0.56600004 102 101 87 255
-0.15063025 -0.16238032 0.56400001 82 80 62 255
-0.14856844 -0.16180925 0.56200004 79 77 59 255
-0.14625584 -0.16095033 0.55900002 86 84 64 255
-0.14370063 -0.15980351 0.55500001 74 72 52 255
-0.14193578 -0.15952055 0.55400002 60 58 38 255
-0.14042981 -0.1595256 0.55400002 55 53 33 255
-0.1384223 -0.15895481 0.55200005 63 61 41 255
-0.13692172 -0.15896 0.55200005 61 58 37 255
-0.1354211 -0.15896526 0.55200005 54 51 30 255
-0.1334352 -0.1583946 0.55000001 50 48 30 255
-0.13146016 -0.15782399 0.54800004 53 51 33 255
-0.12973313 -0.15754141 0.54700005 53 51 33 255
-0.12871481 -0.15812291 0.54900002 46 44 26 255
-0.12699036 -0.15784042 0.54800004 44 42 24 255
-0.12550029 -0.157846 0.54800004 41 39 21 255
-0.12355758 -0.15727553 0.546 42 40 22 255
-0.12207279 -0.15728116 0.546 47 45 27 255
-0.12080882 -0.15757494 0.54700005 49 45 28 255
-0.11932117 -0.15758067 0.54700005 49 43 26 255
-0.11783344 -0.15758643 0.54700005 45 40 20 255
-0.11655831 -0.15788031 0.54800004 48 42 25 255
-0.11527765 -0.15817425 0.54900002 47 41 24 255
-0.11399145 -0.15846822 0.55000001 46 41 21 255
-0.11229064 -0.15818596 0.54900002 44 39 19 255
-0.11099881 -0.15847999 0.55000001 41 38 18 255
-0.10950233 -0.15848589 0.55000001 43 39 22 255
-0.10780937 -0.15820363 0.54900002 42 40 22 255
-0.10650904 -0.15849769 0.55000001 49 45 28 255
-0.10520317 -0.1587918 0.551 47 43 26 255
-0.10426815 -0.15966231 0.55400002 41 37 20 255
-0.10257473 -0.15938003 0.55300003 40 36 19 255
-0.10143494 -0.15996237 0.55500001 40 36 19 255
-0.10028414 -0.16054477 0.55700004 41 39 21 255
-0.098944999 -0.16083893 0.55800003 38 36 18 255
-0.097600281 -0.16113311 0.55900002 39 35 18 255
-0.096249998 -0.16142727 0.56 36 32 15 255
-0.094894148 -0.16172144 0.56100005 36 32 15 255
-0.093699135 -0.16230386 0.56300002 38 34 17 255
-0.092165701 -0.16230972 0.56300002 38 34 17 255
-0.090954088 -0.16289215 0.565 42 38 21 255
-0.089414939 -0.16289794 0.565 44 41 21 255
-0.087875664 -0.1629037 0.565 43 40 20 255
-0.086030655 -0.16233276 0.56300002 42 39 19 255
-0.084346451 -0.16205005 0.56200004 41 39 19 255
-0.082667604 -0.1617673 0.56100005 42 40 20 255
-0.081138693 -0.16177282 0.56100005 42 40 22 255
-0.079609655 -0.1617783 0.56100005 39 37 19 255
-0.078080468 -0.1617837 0.56100005 46 42 25 255
-0.076551169 -0.16178904 0.56100005 47 43 26 255
-0.075289182 -0.16237111 0.56300002 44 38 21 255
-0.073885165 -0.16266477 0.56400001 49 41 24 255
-0.072475575 -0.16295837 0.565 47 40 20 255
-0.071060382 -0.16325194 0.56600004 43 36 16 255
-0.069639616 -0.16354541 0.56700003 44 34 15 255
-0.067973085 -0.16326195 0.56600004 44 34 17 255
-0.066663966 -0.16384375 0.56800002 40 32 15 255
-0.065573104 -0.16500247 0.57200003 37 31 14 255
-0.064348377 -0.16587266 0.57500005 33 27 10 255
-0.062997974 -0.16645436 0.57700002 31 27 10 255
-0.061423626 -0.16645899 0.57700002 29 26 10 255
-0.060160343 -0.16732907 0.58000004 32 29 13 255
-0.05867856 -0.16762204 0.58100003 37 34 18 255
-0.05699468 -0.16733794 0.58000004 35 32 18 255
-0.0552206 -0.16676518 0.57800001 43 40 24 255
-0.053550135 -0.16648085 0.57700002 42 40 22 255
-0.052065168 -0.16677344 0.57800001 43 41 23 255
-0.050661996 -0.16735452 0.58000004 41 39 21 255
-0.04916317 -0.16764696 0.58100003 39 37 19 255
-0.047740664 -0.16822787 0.583 40 38 20 255
-0.046227984 -0.16852012 0.58400005 39 36 22 255
-0.045321155 -0.17112082 0.59300005 39 36 22 255
-0.044512469 -0.17429866 0.60400003 38 35 21 255
-0.043359742 -0.17632216 0.611 32 30 19 255
-0.04175929 -0.17661417 0.61200005 15 16 4 255
-0.040087774 -0.17661744 0.61200005 17 17 7 255
-0.038353406 -0.17633201 0.611 21 19 9 255
-0.036684446 -0.17633504 0.611 22 20 9 255
-0.034900792 -0.17576073 0.60900003 21 19 8 255
-0.03312799 -0.17518629 0.60700005 27 26 12 255
-0.031314187 -0.17432308 0.60400003 29 28 12 255
-0.02956582 -0.17374831 0.60200006 30 30 12 255
-0.027874695 -0.17346205 0.60100001 32 32 14 255
-0.026145326 -0.17288703 0.59900004 37 37 19 255
-0.024426822 -0.17231184 0.597 41 39 21 255
-0.022757372 -0.17202516 0.59600002 44 42 24 255
-0.021057885 -0.17144971 0.59400004 46 44 26 255
-0.019401999 -0.17116274 0.59300005 48 46 28 255
-0.017781517 -0.17116429 0.59300005 42 40 22 255
-0.016188247 -0.17145434 0.59400004 45 43 25 255
-0.014564953 -0.17145562 0.59400004 38 36 16 255
-0.012963411 -0.17174539 0.59500003 44 42 22 255
-0.011356375 -0.17203507 0.59600002 38 37 15 255
-0.0097438451 -0.17232458 0.597 45 44 22 255
-0.0081258267 -0.17261402 0.59800005 47 46 24 255
-0.0064588999 -0.17174864 0.59500003 43 41 23 255
-0.0048164804 -0.17117181 0.59300005 45 42 26 255
-0.0031903698 -0.17088349 0.59200001 47 45 27 255
-0.0015776866 -0.171461 0.59400004 43 41 23 255
4.5855959e-05 -0.17174973 0.59500003 46 44 26 255
0.0016664342 -0.17117235 0.59300005 40 38 18 255
0.0032927054 -0.17146079 0.59400004 41 38 18 255
0.0049078837 -0.1711718 0.59300005 41 37 20 255
0.0065396018 -0.17145997 0.59400004 43 39 22 255
0.0081767701 -0.171748 0.59500003 38 36 18 255
0.0097864345 -0.17145862 0.59400004 40 38 20 255
0.01139061 -0.17116906 0.59300005 47 45 25 255
0.012989292 -0.17087939 0.59200001 48 46 28 255
0.014582478 -0.17058961 0.59100002 43 43 25 255
0.016142758 -0.17001104 0.58900005 42 42 24 255
0.017752348 -0.17000964 0.58900005 45 45 27 255
0.01942764 -0.17058538 0.59100002 45 43 25 255
0.021078212 -0.17087232 0.59200001 42 40 20 255
0.022657529 -0.17058189 0.59100002 41 39 21 255
0.024231326 -0.17029133 0.59000003 44 42 24 255
0.025755798 -0.16971201 0.588 40 37 17 255
0.027362352 -0.16970983 0.588 46 42 25 255
0.028968843 -0.16970752 0.588 46 42 25 255
0.030627267 -0.16999373 0.58900005 42 39 23 255
0.032291088 -0.17027977 0.59000003 35 33 15 255
0.033845369 -0.16998847 0.58900005 42 38 21 255
0.035454307 -0.16998568 0.58900005 47 43 26 255
0.037189014 -0.17055993 0.59100002 41 39 19 255
0.038803253 -0.17055686 0.59100002 41 39 19 255
0.040417403 -0.1705537 0.59100002 44 42 22 255
0.042031467 -0.17055041 0.59100002 42 41 19 255
0.043719288 -0.17083555 0.59200001 42 39 19 255
0.045335896 -0.17083204 0.59200001 39 36 16 255
0.046793785 -0.17025128 0.59000003 39 36 16 255
0.048404727 -0.17024752 0.59000003 45 39 22 255
0.050269891 -0.17110933 0.59300005 39 35 18 255
0.051976323 -0.17139389 0.59400004 38 34 17 255
0.053688105 -0.17167833 0.59500003 41 35 18 255
0.055219311 -0.17138559 0.59400004 41 35 18 255
0.056936327 -0.1716698 0.59500003 42 36 20 255
0.058560263 -0.1716654 0.59500003 41 35 19 255
0.060184084 -0.17166089 0.59500003 44 38 21 255
0.061911654 -0.17194477 0.59600002 47 41 24 255
0.063644566 -0.17222853 0.597 47 41 24 255
0.065382808 -0.17251222 0.59800005 45 40 20 255
0.067238443 -0.17308423 0.60000002 48 43 23 255
0.068990074 -0.17336768 0.60100001 48 43 23 255
0.070629507 -0.17336255 0.60100001 52 45 25 255
0.072268806 -0.17335734 0.60100001 45 38 18 255
0.074030958 -0.17364053 0.60200006 46 36 17 255
0.075672716 -0.17363515 0.60200006 52 42 23 255
0.077442765 -0.17391811 0.60300004 43 36 16 255
0.079480439 -0.17477781 0.60600001 47 40 20 255
0.081534341 -0.17563736 0.60900003 51 44 24 255
0.083467849 -0.17620841 0.611 49 42 22 255
0.085133433 -0.17620257 0.611 46 39 19 255
0.087083019 -0.17677344 0.61300004 50 43 23 255
0.088898577 -0.17705582 0.61400002 52 45 25 255
0.090571918 -0.17704977 0.61400002 49 43 26 255
0.092245124 -0.17704368 0.61400002 47 41 24 255
0.094071135 -0.17732584 0.61500001 44 36 19 255
0.095746771 -0.17731962 0.61500001 45 38 18 255
0.097580679 -0.17760167 0.61600006 44 37 16 255
0.099419884 -0.17788364 0.61700004 46 41 20 255
0.10110053 -0.17787726 0.61700004 46 42 18 255
0.1031142 -0.1784474 0.61900002 54 47 26 255
0.10496932 -0.17872919 0.62 50 45 24 255
0.10751785 -0.18016398 0.625 55 48 28 255
0.10991873 -0.1813104 0.62900001 62 55 35 255
0.11269619 -0.18303318 0.63500005 61 54 34 255
0.1151458 -0.18417935 0.63900006 58 50 33 255
0.11761702 -0.1853254 0.64300001 56 49 29 255
0.11992425 -0.18618315 0.64600003 57 50 30 255
0.12187095 -0.18646441 0.64700001 46 39 19 255
0.12382295 -0.18674566 0.648 48 38 19 255
0.12616789 -0.18760324 0.65100002 44 37 16 255
0.12852903 -0.18846077 0.65400004 41 34 13 255
0.13030858 -0.18845373 0.65400004 41 36 15 255
0.13228999 -0.18873484 0.65500003 41 36 15 255
0.13407204 -0.18872784 0.65500003 38 33 12 255
0.13606136 -0.18900895 0.65600002 41 34 13 255
0.13784587 -0.18900196 0.65600002 47 38 17 255
0.14026883 -0.18985933 0.65900004 56 45 24 255
0.142708 -0.19071662 0.66200006 49 40 19 255
0.14538167 -0.19186196 0.66600001 54 45 24 255
0.148077 -0.19300728 0.67000002 53 44 23 255
0.15057024 -0.19386449 0.67300004 55 46 25 255
0.15307972 -0.1947217 0.67600006 52 45 24 255
0.15514706 -0.19500278 0.67700005 45 38 17 255
0.15721978 -0.19528392 0.67800003 47 38 17 255
0.15882863 -0.19498909 0.67700005 56 47 24 255
0.16066931 -0.19498232 0.67700005 63 54 31 255
0.16274995 -0.19526362 0.67800003 65 58 35 255
0.16483594 -0.19554497 0.67900002 70 63 40 255
0.16692734 -0.19582638 0.68000001 62 55 32 255
0.16902412 -0.19610789 0.68100005 49 45 21 255
0.17112631 -0.19638944 0.68200004 45 40 19 255
0.17323387 -0.19667108 0.68300003 47 40 17 255
0.17534685 -0.19695282 0.68400002 52 43 22 255
0.17746527 -0.19723465 0.68500006 52 45 24 255
0.17958908 -0.19751653 0.68600005 54 47 26 255
0.18171835 -0.19779854 0.68700004 54 47 26 255
0.18465468 -0.19894437 0.69100004 59 52 32 255
0.18923251 -0.20181768 0.70100003 70 62 45 255
0.1955007 -0.20641828 0.71700001 78 72 55 255
0.19965284 -0.20871574 0.72500002 70 64 47 255
0.2035704 -0.21072532 0.73200005 60 54 37 255
0.21342331 -0.2187802 0.76000005 67 61 44 255
0.23306879 -0.23662214 0.82200003 70 64 47 255
0.24560885 -0.24697919 0.85800004 70 64 47 255
0.25227618 -0.25129113 0.87300003 60 54 37 255
0.25639999 -0.25301257 0.87900007 77 69 52 255
0.26055655 -0.25473413 0.88500005 83 75 58 255
0.26534009 -0.2570315 0.89300007 73 65 48 255
0.26986748 -0.25904122 0.90000004 57 51 34 255
0.27382791 -0.26047543 0.90500003 52 50 32 255
0.27751052 -0.2616221 0.90900004 58 58 40 255
-0.18155523 -0.17927241 0.61700004 118 104 80 255
-0.1787113 -0.17811386 0.61300004 111 98 74 255
-0.17617796 -0.17724596 0.61000001 115 102 79 255
-0.17251667 -0.17521591 0.60300004 142 135 115 255
-0.16889355 -0.17318588 0.59600002 121 119 101 255
-0.16558917 -0.17144652 0.59000003 102 100 89 255
-0.16287339 -0.1702884 0.58600003 91 87 76 255
-0.1593537 -0.16825853 0.57900006 103 99 88 255
-0.15559961 -0.16593808 0.57100004 147 145 134 255
-0.1524286 -0.16419883 0.565 68 67 51 255
-0.1506256 -0.16391276 0.56400001 70 70 52 255
-0.148035 -0.16275486 0.56 78 78 58 255
-0.1459894 -0.16217829 0.55800003 87 85 65 255
-0.14343683 -0.16102047 0.55400002 66 64 46 255
-0.14193082 -0.16102533 0.55400002 61 59 41 255
-0.14042476 -0.16103028 0.55400002 56 54 34 255
-0.13866794 -0.16074462 0.55300003 63 60 39 255
-0.13691653 -0.16045904 0.55200005 57 55 31 255
-0.13517052 -0.16017348 0.551 53 51 27 255
-0.13318732 -0.15959731 0.54900002 50 49 27 255
-0.13145484 -0.15931188 0.54800004 52 50 32 255
-0.12949055 -0.15873574 0.546 51 49 31 255
-0.12847491 -0.15932256 0.54800004 50 48 30 255
-0.12698485 -0.15932801 0.54800004 46 43 27 255
-0.12549473 -0.1593335 0.54800004 49 47 29 255
-0.12355198 -0.15875749 0.546 46 42 25 255
-0.12229076 -0.15905386 0.54700005 43 39 22 255
-0.12102399 -0.15935025 0.54800004 48 42 25 255
-0.11953358 -0.15935589 0.54800004 46 40 23 255
-0.11804311 -0.15936159 0.54800004 42 37 17 255
-0.11633986 -0.1590765 0.54700005 47 41 24 255
-0.11506188 -0.15937304 0.54800004 51 45 28 255
-0.11377838 -0.15966965 0.54900002 47 43 26 255
-0.11228481 -0.15967543 0.54900002 46 42 25 255
-0.11099295 -0.15997209 0.55000001 41 39 21 255
-0.10949646 -0.15997791 0.55000001 41 39 21 255
-0.10799987 -0.15998375 0.55000001 39 37 19 255
-0.10650317 -0.1599896 0.55000001 40 38 18 255
-0.10519728 -0.16028634 0.551 44 42 22 255
-0.10426223 -0.16116491 0.55400002 40 38 20 255
-0.1027543 -0.16117078 0.55400002 45 43 25 255
-0.10142903 -0.16146758 0.55500001 44 42 24 255
-0.1000982 -0.1617644 0.55600005 44 42 24 255
-0.09876179 -0.1620612 0.55700004 46 42 25 255
-0.097419806 -0.16235803 0.55800003 43 39 22 255
-0.096072264 -0.16265483 0.55900002 40 34 17 255
-0.094719142 -0.16295163 0.56 33 30 10 255
-0.093693294 -0.16383041 0.56300002 35 32 12 255
-0.092323579 -0.16412722 0.56400001 40 37 17 255
-0.090787329 -0.164133 0.56400001 42 39 19 255
-0.089092702 -0.16384771 0.56300002 40 37 17 255
-0.087558918 -0.16385342 0.56300002 40 36 19 255
-0.085872203 -0.163568 0.56200004 40 38 18 255
-0.084490947 -0.16386466 0.56300002 41 39 19 255
-0.082956769 -0.1638702 0.56300002 47 45 27 255
-0.08127784 -0.1635846 0.56200004 46 44 26 255
-0.079604238 -0.16329896 0.56100005 47 45 27 255
-0.077935927 -0.1630132 0.56 44 40 23 255
-0.076682314 -0.16360074 0.56200004 40 36 19 255
-0.07528393 -0.16389711 0.56300002 41 36 16 255
-0.073879972 -0.16419341 0.56400001 43 38 18 255
-0.072342172 -0.16419858 0.56400001 47 40 20 255
-0.070929766 -0.16449477 0.565 46 36 17 255
-0.069511801 -0.16479093 0.56600004 47 37 20 255
-0.067968167 -0.16479588 0.56600004 43 33 16 255
-0.066776477 -0.16567422 0.56900001 41 33 16 255
-0.065682925 -0.16684374 0.57300001 39 31 14 255
-0.064567432 -0.16801324 0.57700002 37 31 15 255
-0.063211642 -0.16860034 0.57900006 33 27 11 255
-0.061844815 -0.16918735 0.58100003 27 24 10 255
-0.060570691 -0.17006555 0.58400005 28 25 11 255
-0.058977094 -0.17007005 0.58400005 30 27 13 255
-0.057285119 -0.16978319 0.583 30 27 13 255
-0.055502973 -0.16920504 0.58100003 37 34 20 255
-0.053917222 -0.16920921 0.58100003 44 41 25 255
-0.052331369 -0.16921329 0.58100003 36 34 16 255
-0.050920084 -0.16979976 0.583 40 36 19 255
-0.049413174 -0.17009492 0.58400005 43 39 22 255
-0.047900695 -0.17038995 0.58500004 41 37 20 255
-0.046461802 -0.17097616 0.58700001 39 36 20 255
-0.045393996 -0.17301871 0.59400004 36 33 17 255
-0.044582635 -0.17622633 0.60500002 34 31 17 255
-0.043427259 -0.17826883 0.61200005 27 26 12 255
-0.041824184 -0.17856349 0.61300004 17 18 6 255
-0.040084571 -0.17827548 0.61200005 17 17 7 255
-0.038350318 -0.17798729 0.611 18 18 8 255
-0.036561418 -0.1774077 0.60900003 19 20 8 255
-0.034840669 -0.17711926 0.60800004 20 19 5 255
-0.0331253 -0.17683069 0.60700005 30 29 13 255
-0.031259801 -0.17566802 0.60300004 34 34 16 255
-0.0295143 -0.17508781 0.60100001 36 36 18 255
-0.027826043 -0.17479883 0.60000002 37 37 17 255
-0.026230469 -0.17509237 0.60100001 36 36 16 255
-0.02450664 -0.17451178 0.59900004 41 41 21 255
-0.022831861 -0.17422238 0.59800005 38 38 20 255
-0.021127047 -0.17364149 0.59600002 41 39 21 255
-0.019498542 -0.17364316 0.59600002 41 39 21 255
-0.01781003 -0.17306201 0.59400004 45 43 25 255
-0.016214157 -0.17335477 0.59500003 42 40 22 255
-0.014588263 -0.17335604 0.59500003 41 39 21 255
-0.013005906 -0.17393987 0.597 43 41 21 255
-0.01141259 -0.17452361 0.59900004 45 42 22 255
-0.0097919945 -0.17481586 0.60000002 40 39 17 255
-0.0081659118 -0.17510797 0.60100001 45 44 22 255
-0.0065017799 -0.17452584 0.59900004 42 40 20 255
-0.004848565 -0.17394359 0.597 41 39 19 255
-0.0032008814 -0.17306983 0.59400004 43 41 23 255
-0.0015828665 -0.17365277 0.59600002 46 44 26 255
4.6006255e-05 -0.17394418 0.597 41 39 21 255
0.0016747247 -0.17365274 0.59600002 40 38 20 255
0.0032979734 -0.17336117 0.59500003 43 41 23 255
0.0049157501 -0.17306949 0.59400004 41 37 20 255
0.0065500657 -0.17336038 0.59500003 40 36 19 255
0.0081760893 -0.17335975 0.59500003 43 39 22 255
0.0097856196 -0.17306766 0.59400004 46 44 26 255
0.011389663 -0.17277542 0.59300005 47 45 25 255
0.012988213 -0.17248304 0.59200001 44 42 24 255
0.014630614 -0.17277326 0.59300005 39 39 21 255
0.01619623 -0.17218927 0.59100002 45 43 25 255
0.017841291 -0.17247921 0.59200001 47 45 27 255
0.019458905 -0.17247769 0.59200001 45 43 23 255
0.021076474 -0.17247601 0.59200001 49 47 27 255
0.022655664 -0.17218287 0.59100002 44 42 24 255
0.024229337 -0.17188962 0.59000003 44 42 22 255
0.025797486 -0.17159623 0.58900005 43 41 23 255
0.027360113 -0.17130271 0.588 42 40 22 255
0.029015742 -0.17159176 0.58900005 46 43 27 255
0.030676771 -0.17188065 0.59000003 43 40 24 255
0.032343194 -0.17216943 0.59100002 44 41 25 255
0.03390009 -0.17187545 0.59000003 46 42 26 255
0.035451446 -0.17158133 0.58900005 43 39 22 255
0.037060183 -0.17157844 0.58900005 45 42 22 255
0.038734496 -0.17186669 0.59000003 45 41 24 255
0.040345795 -0.17186354 0.59000003 47 43 26 255
0.041957017 -0.17186029 0.59000003 37 33 16 255
0.043641977 -0.17214815 0.59100002 40 36 19 255
0.04525575 -0.17214467 0.59100002 45 41 24 255
0.046790101 -0.17184977 0.59000003 42 38 21 255
0.048318904 -0.1715548 0.58900005 37 33 16 255
0.050096441 -0.17213349 0.59100002 42 40 22 255
0.051797297 -0.17242081 0.59200001 44 40 23 255
0.053503513 -0.17270799 0.59300005 39 35 18 255
0.055122111 -0.17270382 0.59300005 41 37 20 255
