ply
format ascii 1.0
comment PCL generated
element vertex 973
property float x
property float y
property float z
property uchar red
property uchar green
property uchar blue
property uchar alpha
element camera 0
property float view_px
property float view_py
property float view_pz
property float x_axisx
property float x_axisy
property float x_axisz
property float y_axisx
property float y_axisy
property float y_axisz
property float z_axisx
property float z_axisy
property float z_axisz
property float focal
property float scalex
property float scaley
property float centerx
property float centery
property int viewportx
property int viewporty
property float k1
property float k2
end_header
0.065927297 -0.13936138 0.60200006 44 40 23 255
0.067684032 -0.13958764 0.60300004 47 43 27 255
0.069561027 -0.14004527 0.60500002 50 46 29 255
0.071213365 -0.14003985 0.60500002 41 37 21 255
0.072985962 -0.14026576 0.60600001 40 36 22 255
0.074763849 -0.14049158 0.60700005 43 39 23 255
0.076169297 -0.14002293 0.60500002 49 45 28 255
0.078078166 -0.14047998 0.60700005 41 37 20 255
0.079866394 -0.14070548 0.60800004 47 41 24 255
0.081793979 -0.14116226 0.61000001 45 40 20 255
0.083458662 -0.14115614 0.61000001 43 38 18 255
0.085123137 -0.14114991 0.61000001 47 40 20 255
0.087214254 -0.14183778 0.61300004 47 40 20 255
0.088886529 -0.14183137 0.61300004 50 43 23 255
0.090854056 -0.1422876 0.61500001 51 44 24 255
0.092681833 -0.14251237 0.61600006 52 45 25 255
0.094361693 -0.14250572 0.61600006 53 46 26 255
0.095885403 -0.14226763 0.61500001 55 48 28 255
0.097879402 -0.14272349 0.61700004 49 41 24 255
0.10004545 -0.14341053 0.62 46 38 21 255
0.10222764 -0.14409745 0.62300003 49 39 22 255
0.10409234 -0.14432165 0.62400001 56 46 29 255
0.10579277 -0.14431451 0.62400001 53 43 26 255
0.10783751 -0.14476988 0.62600005 50 40 21 255
0.10989293 -0.14522511 0.62800002 50 43 22 255
0.11160361 -0.14521778 0.62800002 62 53 30 255
0.11421628 -0.14636652 0.63300002 58 50 25 255
0.11667278 -0.1472839 0.63700002 55 47 22 255
0.11952265 -0.14866354 0.64300001 62 53 30 255
0.12183916 -0.14934944 0.64600003 65 56 33 255
0.12417179 -0.15003523 0.64900005 62 53 30 255
0.12613246 -0.15025859 0.65000004 57 48 27 255
0.12849189 -0.15094419 0.65300006 53 44 23 255
0.13086744 -0.15162969 0.65600002 44 37 16 255
0.13325912 -0.15231511 0.65900004 52 43 20 255
0.1350521 -0.15230708 0.65900004 44 37 14 255
0.13705255 -0.15253013 0.66000003 52 45 24 255
0.13905823 -0.15275314 0.66100001 56 49 29 255
0.14149535 -0.15343831 0.66400003 44 37 17 255
0.14351696 -0.15366125 0.66500002 55 48 28 255
0.14641795 -0.15480839 0.67000002 55 45 26 255
0.1491247 -0.15572438 0.67400002 61 49 32 255
0.15162902 -0.15640922 0.67700005 74 62 43 255
0.1534694 -0.15640096 0.67700005 68 59 38 255
0.1553096 -0.15639269 0.67700005 64 55 34 255
0.15714963 -0.15638445 0.67700005 48 40 23 255
0.15969399 -0.15706919 0.68000001 40 34 17 255
0.1617794 -0.15729195 0.68100005 40 34 17 255
0.16387008 -0.15751471 0.68200004 48 44 27 255
0.16572304 -0.15750653 0.68200004 39 35 18 255
0.16782154 -0.15772928 0.68300003 39 35 18 255
0.16967693 -0.15772119 0.68300003 45 42 22 255
0.17178328 -0.15794402 0.68400002 48 43 23 255
0.17364107 -0.15793599 0.68400002 47 40 20 255
0.17575537 -0.15815893 0.68500006 46 36 17 255
0.17761566 -0.158151 0.68500006 56 47 26 255
0.17999981 -0.15860488 0.68700004 79 68 47 255
0.18239474 -0.15905875 0.68900001 94 83 62 255
0.18533529 -0.15997437 0.69300002 82 69 46 255
0.18829751 -0.16088995 0.69700003 70 56 36 255
0.19155422 -0.16203637 0.70200002 64 50 30 255
0.19428682 -0.16272114 0.70500004 63 49 29 255
0.19731396 -0.16363674 0.70900005 70 56 37 255
0.19980073 -0.16409077 0.71100003 77 63 44 255
0.202582 -0.16477564 0.71400005 75 63 44 255
0.20537955 -0.16546054 0.71700001 58 48 29 255
0.20848249 -0.16637629 0.72100002 59 49 30 255
0.21160714 -0.16729207 0.72500002 59 53 36 255
0.21504809 -0.16843861 0.73000002 64 62 44 255
0.22178644 -0.17212319 0.74600005 61 59 41 255
0.23701215 -0.18226773 0.79000002 64 62 44 255
0.25338492 -0.19310375 0.83700001 63 57 40 255
0.26451492 -0.19978644 0.86600006 64 62 44 255
0.27118003 -0.20300844 0.88000005 61 59 41 255
0.2766777 -0.20530765 0.89000005 85 88 76 255
-0.17186221 -0.14572233 0.62400001 102 78 52 255
-0.16798639 -0.14386079 0.61600006 133 116 96 255
-0.16469395 -0.14246623 0.61000001 132 124 108 255
-0.16063216 -0.14037094 0.60100001 136 132 121 255
-0.1571483 -0.13874267 0.59400004 123 128 117 255
-0.15370238 -0.13711429 0.58700001 110 112 102 255
-0.15107174 -0.1361866 0.583 121 124 112 255
-0.14743714 -0.13432448 0.57500005 117 119 102 255
-0.14536802 -0.1338639 0.57300001 101 100 84 255
-0.1430587 -0.13316971 0.57000005 106 108 90 255
-0.14126211 -0.13294277 0.56900001 98 100 82 255
-0.13947085 -0.13271587 0.56800002 98 100 82 255
-0.13695638 -0.13178794 0.56400001 99 101 83 255
-0.13494378 -0.13132735 0.56200004 89 89 71 255
-0.13294187 -0.13086669 0.56 81 80 64 255
-0.13095076 -0.13040607 0.55800003 73 72 56 255
-0.12966622 -0.13064653 0.55900002 76 73 57 255
-0.12791766 -0.13041958 0.55800003 68 65 49 255
-0.12594785 -0.12995891 0.55600005 55 51 34 255
-0.12398876 -0.12949817 0.55400002 56 52 35 255
-0.12248258 -0.12950493 0.55400002 50 48 30 255
-0.12141298 -0.12997925 0.55600005 45 43 25 255
-0.11946975 -0.12951848 0.55400002 46 44 24 255
-0.11753725 -0.12905765 0.55200005 50 48 30 255
-0.11624607 -0.1292982 0.55300003 45 43 23 255
-0.11494932 -0.12953877 0.55400002 41 39 19 255
-0.11364695 -0.12977937 0.55500001 45 43 25 255
-0.11213692 -0.12978612 0.55500001 43 41 23 255
-0.11082607 -0.13002673 0.55600005 44 42 24 255
-0.10931297 -0.13003345 0.55600005 40 36 20 255
-0.10760581 -0.12980628 0.55500001 42 38 22 255
-0.10628626 -0.13004687 0.55600005 39 35 18 255
-0.10496108 -0.13028742 0.55700004 45 41 24 255
-0.10381599 -0.13076192 0.55900002 42 38 21 255
-0.10247684 -0.13100249 0.56 41 39 21 255
-0.10113207 -0.13124305 0.56100005 41 37 20 255
-0.09942656 -0.13101569 0.56 46 42 26 255
-0.097901128 -0.13102221 0.56 51 47 31 255
-0.096031345 -0.13056077 0.55800003 45 41 24 255
-0.094680369 -0.13080117 0.55900002 46 42 25 255
-0.093157127 -0.13080756 0.55900002 44 39 19 255
-0.091961555 -0.13128194 0.56100005 38 35 15 255
-0.09043248 -0.13128825 0.56100005 38 35 15 255
-0.088903219 -0.13129449 0.56100005 42 40 22 255
-0.087062292 -0.1308326 0.55900002 48 46 28 255
-0.085232086 -0.13037059 0.55700004 44 41 25 255
-0.083713181 -0.13037661 0.55700004 41 38 22 255
-0.082194097 -0.13038257 0.55700004 45 43 25 255
-0.080964513 -0.13085663 0.55900002 41 39 21 255
-0.07958173 -0.13109659 0.56 38 36 18 255
-0.077914536 -0.13086826 0.55900002 42 39 19 255
-0.076525934 -0.13110806 0.56 41 37 20 255
-0.074997768 -0.13111369 0.56 37 33 16 255
-0.073731832 -0.13158755 0.56200004 39 37 19 255
-0.072454795 -0.13206133 0.56400001 34 32 14 255
-0.071166657 -0.13253509 0.56600004 41 39 21 255
-0.069867432 -0.13300878 0.56800002 39 37 19 255
-0.068557128 -0.13348244 0.57000005 40 38 20 255
-0.067000635 -0.13348767 0.57000005 41 39 21 255
-0.065214328 -0.13302438 0.56800002 43 41 23 255
-0.063438803 -0.13256098 0.56600004 41 39 21 255
-0.061783385 -0.13233167 0.565 42 38 21 255
-0.060453136 -0.13280492 0.56700003 41 37 20 255
-0.058800139 -0.13257541 0.56600004 43 39 22 255
-0.057455912 -0.13304849 0.56800002 41 37 20 255
-0.055903766 -0.13305299 0.56800002 41 39 21 255
-0.054638542 -0.13376018 0.57100004 39 37 19 255
-0.053170852 -0.13399878 0.57200003 43 39 22 255
-0.05169756 -0.13423727 0.57300001 36 32 15 255
-0.050043672 -0.13400713 0.57200003 43 39 22 255
-0.048395131 -0.13377686 0.57100004 45 43 23 255
-0.046833936 -0.13378075 0.57100004 40 38 18 255
-0.045272615 -0.13378453 0.57100004 42 40 20 255
-0.043787714 -0.13402247 0.57200003 41 39 19 255
-0.042223413 -0.13402602 0.57200003 41 39 19 255
-0.040872231 -0.13473241 0.57500005 38 36 18 255
-0.03943618 -0.13520437 0.57700002 36 34 16 255
-0.03805469 -0.1359106 0.58000004 24 22 4 255
-0.036468048 -0.13591371 0.58000004 30 30 12 255
-0.034761015 -0.13544801 0.57800001 35 35 17 255
-0.033179644 -0.13545087 0.57800001 42 40 22 255
-0.031543508 -0.13521925 0.57700002 45 43 25 255
-0.030068543 -0.13569055 0.57900006 36 33 17 255
-0.028631739 -0.1363961 0.58200002 32 29 13 255
-0.0269926 -0.1361641 0.58100003 41 39 21 255
-0.025271414 -0.13546322 0.57800001 47 45 27 255
-0.02356657 -0.1347622 0.57500005 46 44 24 255
-0.021992823 -0.13476415 0.57500005 45 43 23 255
-0.020419013 -0.13476595 0.57500005 45 42 22 255
-0.018845137 -0.13476764 0.57500005 45 41 24 255
-0.017301245 -0.13500355 0.57600003 46 44 26 255
-0.015751828 -0.13523936 0.57700002 46 44 26 255
-0.014196887 -0.13547502 0.57800001 42 40 22 255
-0.012570954 -0.1350074 0.57600003 42 40 22 255
-0.011032284 -0.1354772 0.57800001 41 39 21 255
-0.0094826287 -0.13594685 0.58000004 40 38 20 255
-0.0079219956 -0.13641639 0.58200002 45 43 23 255
-0.0063395118 -0.1366514 0.583 48 46 28 255
-0.0047433982 -0.13665187 0.583 44 42 24 255
-0.0031580676 -0.13712101 0.58500004 42 40 22 255
-0.0015591154 -0.13735561 0.58600003 35 33 15 255
4.5317225e-05 -0.13759007 0.58700001 35 33 15 255
0.0016524103 -0.13758998 0.58700001 40 38 20 255
0.0032539451 -0.13735537 0.58600003 35 33 15 255
0.0048582866 -0.13735504 0.58600003 37 37 19 255
0.0064515839 -0.13712016 0.58500004 39 39 21 255
0.008053151 -0.13711952 0.58500004 44 42 24 255
0.0096546952 -0.13711876 0.58500004 46 44 26 255
0.011256211 -0.13711786 0.58500004 44 42 24 255
0.012857692 -0.13711682 0.58500004 41 39 21 255
0.014434419 -0.13688126 0.58400005 42 40 22 255
0.016060535 -0.13711435 0.58500004 49 45 28 255
0.017692078 -0.13734728 0.58600003 47 43 26 255
0.019263186 -0.13711132 0.58500004 44 40 24 255
0.020900091 -0.13734399 0.58600003 44 40 24 255
0.022504007 -0.13734213 0.58600003 44 41 25 255
0.024066716 -0.13710578 0.58500004 44 41 25 255
0.025667759 -0.13710366 0.58500004 42 39 23 255
0.027315337 -0.13733578 0.58600003 38 36 18 255
0.029017659 -0.13780209 0.588 39 37 19 255
0.030574581 -0.13756521 0.58700001 42 40 22 255
0.032180768 -0.13756257 0.58700001 44 41 21 255
0.033844415 -0.13779414 0.588 38 35 15 255
0.035513442 -0.13802558 0.58900005 38 33 13 255
0.037187833 -0.13825686 0.59000003 44 38 21 255
0.038867593 -0.13848802 0.59100002 43 37 20 255
0.040552709 -0.13871904 0.59200001 44 39 19 255
0.042171948 -0.1387156 0.59200001 42 37 17 255
0.043791059 -0.13871205 0.59200001 43 40 20 255
0.045410059 -0.13870837 0.59200001 47 44 24 255
0.04694948 -0.13847026 0.59100002 44 41 21 255
0.048647657 -0.13870065 0.59200001 44 42 24 255
0.05035118 -0.13893092 0.59300005 37 35 17 255
0.052060015 -0.13916102 0.59400004 43 41 23 255
0.053683802 -0.13915671 0.59400004 45 41 24 255
0.055400562 -0.13938659 0.59500003 40 36 19 255
0.057122637 -0.13961633 0.59600002 36 32 15 255
0.058948591 -0.14008018 0.59800005 42 38 21 255
0.060582716 -0.14007543 0.59800005 45 39 22 255
0.062216673 -0.14007054 0.59800005 46 42 25 255
0.063957244 -0.14029981 0.59900004 50 46 29 255
0.065703116 -0.14052892 0.60000002 43 39 22 255
0.067566521 -0.14099215 0.60200006 47 43 26 255
0.0693257 -0.141221 0.60300004 49 43 26 255
0.071207874 -0.14168395 0.60500002 50 44 27 255
0.072980367 -0.14191258 0.60600001 46 40 24 255
0.074634969 -0.14190693 0.60600001 47 41 25 255
0.07603763 -0.14143288 0.60400003 49 43 26 255
0.078072272 -0.14212953 0.60700005 50 44 27 255
0.079860397 -0.14235771 0.60800004 46 40 23 255
0.081921965 -0.14305407 0.611 45 39 22 255
0.08331567 -0.14257967 0.60900003 43 38 18 255
0.085116878 -0.14280759 0.61000001 47 40 20 255
0.086923338 -0.14303537 0.611 48 41 21 255
0.088735081 -0.14326307 0.61200005 47 40 20 255
0.090699784 -0.14372475 0.61400002 49 42 22 255
0.092524759 -0.14395225 0.61500001 48 41 21 255
0.094201796 -0.14394557 0.61500001 43 35 18 255
0.09572275 -0.14370482 0.61400002 51 43 26 255
0.09771394 -0.14416611 0.61600006 52 44 27 255
0.10019986 -0.14532937 0.62100005 53 45 28 255
0.1022206 -0.14579041 0.62300003 54 44 27 255
0.10408524 -0.14601734 0.62400001 52 42 25 255
0.10595515 -0.1462442 0.625 50 42 25 255
0.10800252 -0.14670496 0.62700003 54 46 29 255
0.10988561 -0.14693163 0.62800002 49 42 22 255
0.11177395 -0.14715827 0.62900001 56 49 28 255
0.11402838 -0.14785272 0.63200003 60 51 28 255
0.11666524 -0.14901492 0.63700002 58 49 26 255
0.11932912 -0.15017694 0.64200002 59 50 29 255
0.12164284 -0.15087101 0.64500004 62 53 32 255
0.12416399 -0.15179886 0.64900005 65 54 31 255
0.12631865 -0.15225883 0.65100002 54 45 22 255
0.128484 -0.15271872 0.65300006 50 41 18 255
0.13065998 -0.15317851 0.65500003 45 37 12 255
0.13304891 -0.15387212 0.65800005 46 37 14 255
0.13504408 -0.15409794 0.65900004 52 45 22 255
0.13725212 -0.15455753 0.66100001 50 43 20 255
0.13926052 -0.15478328 0.66200006 53 46 26 255
0.14127415 -0.155009 0.66300005 50 40 21 255
0.14307722 -0.1550009 0.66300005 56 47 26 255
0.14575419 -0.15592788 0.66700006 57 46 25 255
0.14867397 -0.15708856 0.67200005 72 60 41 255
0.15094887 -0.15754786 0.67400002 81 69 50 255
0.15323447 -0.15800712 0.67600006 72 60 41 255
0.15530136 -0.15823261 0.67700005 55 45 28 255
0.15714142 -0.15822442 0.67700005 48 40 23 255
0.15921612 -0.15844992 0.67800003 40 34 17 255
0.1612961 -0.15867543 0.67900002 42 36 19 255
0.16338134 -0.15890095 0.68000001 41 37 20 255
0.16547191 -0.15912649 0.68100005 43 39 22 255
0.16732202 -0.15911838 0.68100005 37 33 16 255
0.16892357 -0.15887667 0.68000001 41 37 20 255
0.17102186 -0.15910232 0.68100005 48 44 27 255
0.17337926 -0.15956159 0.68300003 45 39 22 255
0.17549086 -0.15978727 0.68400002 46 38 21 255
0.17760777 -0.16001299 0.68500006 51 44 24 255
0.17972998 -0.16023876 0.68600005 61 51 32 255
0.18238696 -0.16093171 0.68900001 89 79 60 255
0.18532757 -0.16185825 0.69300002 90 80 61 255
0.18801966 -0.16255121 0.69600004 62 53 32 255
0.19100083 -0.16347773 0.70000005 57 45 26 255
0.19400363 -0.16440426 0.70400006 52 42 23 255
0.1970281 -0.1653308 0.708 61 51 32 255
0.19951223 -0.16579033 0.71000004 62 53 32 255
0.20200714 -0.16624993 0.71200001 61 54 34 255
0.20508577 -0.16717656 0.71600002 57 50 29 255
0.2081861 -0.16810326 0.72000003 59 52 31 255
0.21159996 -0.16926345 0.72500002 64 61 41 255
0.21533558 -0.17065713 0.73100001 62 60 42 255
0.22207664 -0.17438528 0.74700004 65 63 45 255
0.23610477 -0.18371582 0.78700006 62 60 42 255
0.25337726 -0.19538002 0.83700001 63 60 40 255
0.26511806 -0.20260854 0.86800003 63 60 40 255
0.27178866 -0.20586868 0.88200003 65 63 45 255
0.276981 -0.20796178 0.89100003 86 88 71 255
-0.17130472 -0.14694618 0.62200004 98 75 52 255
-0.1685251 -0.14600784 0.61800003 135 121 101 255
-0.16441725 -0.14388815 0.60900003 138 132 116 255
-0.16035824 -0.14176834 0.60000002 142 140 129 255
-0.15714166 -0.14035727 0.59400004 119 121 111 255
-0.15395755 -0.13894612 0.588 118 120 110 255
-0.15106508 -0.13777123 0.583 117 120 108 255
-0.14717411 -0.13565098 0.574 107 109 92 255
-0.14485401 -0.1349486 0.57100004 84 84 66 255
-0.14255011 -0.13424619 0.56800002 108 108 90 255
-0.14075892 -0.13401648 0.56700003 107 107 89 255
-0.13897304 -0.1337868 0.56600004 110 110 92 255
-0.13694967 -0.13332073 0.56400001 104 104 86 255
-0.13517715 -0.13309106 0.56300002 98 98 80 255
-0.13340995 -0.13286139 0.56200004 81 78 62 255
-0.13141336 -0.13239528 0.56 77 74 58 255
-0.12965946 -0.13216561 0.55900002 58 56 38 255
-0.12768166 -0.1316995 0.55700004 59 57 39 255
-0.12571456 -0.13123333 0.55500001 58 56 38 255
-0.12398202 -0.13100362 0.55400002 53 51 33 255
-0.12247582 -0.13101035 0.55400002 50 46 29 255
-0.1214062 -0.1314901 0.55600005 43 41 21 255
-0.11946299 -0.13102387 0.55400002 44 41 20 255
-0.11774342 -0.13079411 0.55300003 51 48 28 255
-0.11623934 -0.13080086 0.55300003 45 42 22 255
-0.11535753 -0.13151722 0.55600005 48 44 27 255
-0.11404972 -0.13176054 0.55700004 42 38 21 255
-0.11253425 -0.13176729 0.55700004 40 36 20 255
-0.11062 -0.13130088 0.55500001 46 44 26 255
-0.10891306 -0.13107102 0.55400002 47 44 28 255
-0.10759914 -0.13131431 0.55500001 39 36 20 255
-0.10627959 -0.13155758 0.55600005 35 33 15 255
-0.10514286 -0.13203749 0.55800003 39 37 19 255
-0.10380934 -0.13228078 0.55900002 39 37 19 255
-0.10265319 -0.13276072 0.56100005 42 39 23 255
-0.10130572 -0.13300401 0.56200004 42 38 22 255
-0.099597543 -0.13277392 0.56100005 38 34 18 255
-0.097894616 -0.13254377 0.56 40 36 19 255
-0.096196979 -0.13231358 0.55900002 43 39 22 255
-0.095012687 -0.13279343 0.56100005 45 40 20 255
-0.093484052 -0.13279985 0.56100005 49 44 23 255
-0.092119128 -0.13304293 0.56200004 45 40 19 255
-0.090587392 -0.13304925 0.56200004 42 37 16 255
-0.089055456 -0.13305551 0.56200004 47 42 22 255
-0.087367617 -0.13282494 0.56100005 48 44 27 255
-0.085532039 -0.13235752 0.55900002 43 39 22 255
-0.08400774 -0.13236356 0.55900002 41 39 21 255
-0.082335725 -0.13213275 0.55800003 46 44 26 255
-0.080958635 -0.13237546 0.55900002 38 36 16 255
-0.079575904 -0.13261811 0.56 38 36 18 255
-0.077908792 -0.13238709 0.55900002 40 36 19 255
-0.076520257 -0.13262962 0.56 36 32 15 255
-0.075126097 -0.13287212 0.56100005 36 30 13 255
-0.073988661 -0.13358824 0.56400001 41 37 21 255
-0.072706245 -0.13406751 0.56600004 35 31 15 255
-0.071412697 -0.1345467 0.56800002 35 31 14 255
-0.069862098 -0.13455209 0.56800002 35 33 15 255
-0.068551861 -0.13503119 0.57000005 38 36 18 255
-0.06711299 -0.13527331 0.57100004 38 36 18 255
-0.065553695 -0.13527845 0.57100004 41 39 21 255
-0.063657999 -0.13457271 0.56800002 39 35 18 255
-0.06188789 -0.13410379 0.56600004 47 43 26 255
-0.060554978 -0.13458246 0.56800002 45 40 20 255
-0.059003238 -0.13458718 0.56800002 45 38 17 255
-0.057552483 -0.13482878 0.56900001 43 38 18 255
-0.055997707 -0.13483331 0.56900001 42 37 17 255
-0.054538473 -0.1350747 0.57000005 42 37 17 255
-0.053073615 -0.13531601 0.57100004 45 39 22 255
-0.051693372 -0.13579422 0.57300001 46 40 23 255
-0.050039608 -0.13556135 0.57200003 39 36 16 255
-0.048475932 -0.13556537 0.57200003 39 36 15 255
-0.046912108 -0.13556926 0.57200003 45 42 21 255
-0.045427453 -0.13581006 0.57300001 43 40 19 255
-0.043860648 -0.13581374 0.57300001 40 37 16 255
-0.042146105 -0.13534325 0.57100004 40 36 19 255
-0.040797763 -0.13605778 0.574 41 37 20 255
-0.039432902 -0.13677223 0.57700002 36 34 16 255
-0.038117118 -0.13772362 0.58100003 26 24 6 255
-0.036527868 -0.13772677 0.58100003 34 32 14 255
-0.03481824 -0.13725564 0.57900006 36 34 16 255
-0.033234257 -0.13725851 0.57900006 44 42 24 255
-0.031704839 -0.13749832 0.58000004 37 35 17 255
-0.030169856 -0.13773799 0.58100003 35 33 15 255
-0.028678505 -0.13821462 0.583 31 29 11 255
-0.026943855 -0.13750575 0.58000004 44 42 24 255
-0.025269264 -0.13703382 0.57800001 47 45 27 255
-0.023605544 -0.13656174 0.57600003 44 42 24 255
-0.022067435 -0.13680075 0.57700002 44 42 22 255
-0.020559298 -0.13727677 0.57900006 43 41 21 255
-0.018941838 -0.13704136 0.57800001 43 41 23 255
-0.01735983 -0.13704292 0.57800001 42 40 22 255
-0.015750473 -0.13680725 0.57700002 42 40 22 255
-0.014195667 -0.13704564 0.57800001 42 40 20 255
-0.012613518 -0.13704677 0.57800001 39 37 19 255
-0.01105042 -0.13728492 0.57900006 37 35 15 255
-0.0094654644 -0.1372858 0.57900006 45 43 23 255
-0.0079077017 -0.13776076 0.58100003 45 43 23 255
-0.0063607115 -0.13870983 0.58500004 45 43 25 255
-0.0047673956 -0.13894741 0.58600003 42 40 22 255
-0.0031685908 -0.13918486 0.58700001 36 34 16 255
-0.001561641 -0.13918506 0.58700001 36 34 16 255
4.5390501e-05 -0.13942224 0.588 33 31 13 255
0.0016522676 -0.13918506 0.58700001 35 33 15 255
0.0032536648 -0.13894774 0.58600003 39 37 19 255
0.004857867 -0.1389474 0.58600003 42 40 22 255
0.0064620548 -0.13894689 0.58600003 42 40 22 255
0.0080524581 -0.13870917 0.58500004 42 40 22 255
0.0096538635 -0.1387084 0.58500004 42 40 22 255
0.011255242 -0.1387075 0.58500004 44 42 24 255
0.012856587 -0.13870646 0.58500004 44 42 24 255
0.014433179 -0.13846818 0.58400005 39 35 19 255
0.016059157 -0.13870399 0.58500004 43 39 23 255
0.017690562 -0.13893963 0.58600003 47 43 27 255
0.019294461 -0.13893804 0.58600003 48 44 30 255
0.020898303 -0.13893631 0.58600003 43 40 24 255
0.022502087 -0.13893446 0.58600003 41 38 22 255
0.024023531 -0.13845831 0.58400005 45 42 26 255
0.025665574 -0.13869327 0.58500004 38 36 18 255
0.027313016 -0.13892809 0.58600003 42 40 22 255
0.0290152 -0.13939987 0.588 41 39 21 255
0.030624079 -0.13939734 0.588 38 36 18 255
0.032342505 -0.13986881 0.59000003 40 38 20 255
0.03395668 -0.13986602 0.59000003 46 43 23 255
0.035570752 -0.1398631 0.59000003 41 38 18 255
0.037184719 -0.13986005 0.59000003 45 40 20 255
0.038864348 -0.14009391 0.59100002 44 39 19 255
0.04054933 -0.14032763 0.59200001 48 45 25 255
0.04216845 -0.14032421 0.59200001 43 40 20 255
0.043787442 -0.14032064 0.59200001 43 40 20 255
0.045483015 -0.14055398 0.59300005 43 41 21 255
0.047025062 -0.14031315 0.59200001 42 40 20 255
0.048643675 -0.14030923 0.59200001 43 41 23 255
0.050347071 -0.14054219 0.59300005 42 40 22 255
0.052055784 -0.14077502 0.59400004 43 41 23 255
0.053769827 -0.14100771 0.59500003 39 37 19 255
0.055489194 -0.14124027 0.59600002 40 38 20 255
0.057118047 -0.14123575 0.59600002 37 33 16 255
0.059042454 -0.14194201 0.59900004 38 34 17 255
0.060679201 -0.14193723 0.59900004 42 38 21 255
0.062419813 -0.1421693 0.60000002 46 42 25 255
0.064058967 -0.14216429 0.60000002 49 45 28 255
0.065697961 -0.14215918 0.60000002 48 44 27 255
0.067449011 -0.14239089 0.60100001 47 41 24 255
0.069320321 -0.14285943 0.60300004 49 43 26 255
0.071202375 -0.1433278 0.60500002 47 39 22 255
0.07285434 -0.14332224 0.60500002 48 40 23 255
0.074506119 -0.1433166 0.60500002 49 43 26 255
0.076157726 -0.14331086 0.60500002 45 39 23 255
0.078066379 -0.14377877 0.60700005 43 39 23 255
0.079985753 -0.14424655 0.60900003 47 43 26 255
0.08178179 -0.14447734 0.61000001 44 40 23 255
0.083446294 -0.1444712 0.61000001 43 37 20 255
0.085110612 -0.14446498 0.61000001 45 38 18 255
0.086916991 -0.14469551 0.611 50 43 23 255
0.088728651 -0.14492592 0.61200005 47 40 20 255
0.090693243 -0.14539301 0.61400002 44 37 17 255
0.092518128 -0.14562324 0.61500001 47 40 19 255
0.094195113 -0.14561658 0.61500001 46 39 19 255
0.095871888 -0.14560984 0.61500001 46 39 19 255
0.097707093 -0.14583981 0.61600006 51 44 24 255
0.10003155 -0.14677991 0.62 50 40 23 255
0.10221357 -0.14748313 0.62300003 49 39 22 255
0.10391135 -0.14747608 0.62300003 47 37 20 255
0.10577845 -0.14770564 0.62400001 56 46 29 255
0.10765079 -0.14793517 0.625 52 44 27 255
0.1098783 -0.14863797 0.62800002 51 45 28 255
0.11176658 -0.14886732 0.62900001 59 52 32 255
0.11402094 -0.14956991 0.63200003 64 57 36 255
0.11629143 -0.15027241 0.63500005 52 45 24 255
0.11876391 -0.15121141 0.63900006 55 48 27 255
0.12125796 -0.1521503 0.64300001 65 54 31 255
0.1243475 -0.15379889 0.65000004 61 50 27 255
0.12669885 -0.15450089 0.65300006 57 46 23 255
0.12867284 -0.1547296 0.65400004 52 41 18 255
0.13045259 -0.15472169 0.65400004 53 45 20 255
0.1328387 -0.15542345 0.65700001 46 37 14 255
0.13462622 -0.15541548 0.65700001 54 45 24 255
0.13724408 -0.15635362 0.66100001 55 46 25 255
0.13904208 -0.15634558 0.66100001 51 42 21 255
0.14105299 -0.15657406 0.66200006 45 35 16 255
0.14306913 -0.15680248 0.66300005 54 45 24 255
0.14574604 -0.15774035 0.66700006 59 48 25 255
0.14822331 -0.15844166 0.67000002 75 64 43 255
0.15071671 -0.15914293 0.67300004 71 59 40 255
0.15299958 -0.15960766 0.67500001 61 49 30 255
0.15529314 -0.16007236 0.67700005 45 35 18 255
0.15713322 -0.16006418 0.67700005 45 37 20 255
0.15897313 -0.16005599 0.67700005 45 39 22 255
0.16128793 -0.16052067 0.67900002 41 35 18 255
0.1636135 -0.16098537 0.68100005 41 35 18 255
0.16570677 -0.16121362 0.68200004 41 35 18 255
0.16731396 -0.16096918 0.68100005 36 32 15 255
0.16891558 -0.16072479 0.68000001 39 35 18 255
0.17126501 -0.16118953 0.68200004 43 39 22 255
0.17362516 -0.16165426 0.68400002 44 38 21 255
0.17599608 -0.16211903 0.68600005 47 41 24 255
0.17759994 -0.16187486 0.68500006 48 40 23 255
0.1799842 -0.16233967 0.68700004 52 42 25 255
0.18237925 -0.16280454 0.68900001 72 62 45 255
0.18531986 -0.16374198 0.69300002 83 73 56 255
0.188012 -0.16444317 0.69600004 77 67 50 255
0.19126607 -0.16561687 0.70100003 69 59 42 255
0.19427164 -0.16655433 0.70500004 61 51 34 255
0.1972989 -0.16749178 0.70900005 58 50 33 255
0.19978581 -0.16795681 0.71100003 54 47 27 255
0.20199983 -0.16818568 0.71200001 60 53 33 255
0.20479211 -0.16888706 0.71500003 59 52 31 255
0.20788978 -0.16982469 0.71900004 56 52 28 255
0.21130101 -0.17099856 0.72400004 54 51 30 255
0.21473941 -0.17217246 0.72900003 60 58 40 255
0.22236688 -0.17665273 0.74800003 65 63 45 255
0.23669751 -0.18632826 0.78900003 60 58 40 255
0.25397512 -0.19812854 0.83900005 56 53 32 255
0.26572126 -0.20544143 0.87000006 56 53 32 255
0.27239734 -0.20873976 0.88400006 65 63 45 255
0.27728438 -0.2106213 0.89200002 88 85 69 255
-0.17076205 -0.14671879 0.61400002 98 71 48 255
-0.17047188 -0.14792007 0.61900002 100 75 53 255
-0.16797306 -0.14720976 0.61600006 147 132 112 255
-0.16387068 -0.14506553 0.60700005 142 139 123 255
-0.15981708 -0.14292119 0.59800005 126 127 115 255
-0.15660594 -0.14149374 0.59200001 113 115 105 255
-0.1536891 -0.14030525 0.58700001 119 121 111 255
-0.15079935 -0.1391167 0.58200002 112 115 103 255
-0.14691113 -0.13697195 0.57300001 96 98 81 255
-0.14434007 -0.1360223 0.56900001 84 84 66 255
-0.14229253 -0.13555075 0.56700003 99 99 79 255
-0.14050405 -0.13531828 0.56600004 89 89 69 255
-0.13847533 -0.13484675 0.56400001 103 101 81 255
-0.13645737 -0.1343752 0.56200004 103 101 83 255
-0.13469025 -0.13414276 0.56100005 93 93 75 255
-0.13316584 -0.13414943 0.56100005 78 76 58 255
-0.13140662 -0.13391699 0.56 63 61 43 255
-0.12965272 -0.13368458 0.55900002 61 59 41 255
-0.12767492 -0.133213 0.55700004 58 56 38 255
-0.12593435 -0.13298056 0.55600005 52 50 32 255
-0.12419906 -0.1327481 0.55500001 40 38 20 255
-0.12291121 -0.13299406 0.55600005 47 44 24 255
-0.12139942 -0.13300081 0.55600005 42 39 19 255
-0.11945623 -0.13252911 0.55400002 44 41 20 255
-0.11752379 -0.13205738 0.55200005 51 46 26 255
-0.11602242 -0.13206409 0.55200005 50 46 29 255
-0.11493583 -0.13254932 0.55400002 49 43 26 255
-0.1138382 -0.13303459 0.55600005 52 46 29 255
-0.11232547 -0.13304132 0.55600005 42 38 21 255
-0.11041399 -0.13256948 0.55400002 41 39 21 255
-0.1087098 -0.13233685 0.55300003 39 37 19 255
-0.1073986 -0.13258283 0.55400002 38 36 18 255
-0.10627293 -0.13306813 0.55600005 38 36 18 255
-0.10551303 -0.13403215 0.56 40 38 20 255
-0.1038027 -0.13379946 0.55900002 37 33 16 255
-0.10282954 -0.1345242 0.56200004 39 35 18 255
-0.10129912 -0.13453081 0.56200004 42 38 21 255
-0.099768505 -0.1345374 0.56200004 40 36 20 255
-0.09806291 -0.13430455 0.56100005 39 35 18 255
-0.096534677 -0.13431105 0.56100005 42 38 21 255
-0.095006257 -0.1343175 0.56100005 43 38 18 255
-0.093644284 -0.13456333 0.56200004 44 39 18 255
-0.092112787 -0.1345697 0.56200004 39 34 13 255
-0.090581097 -0.13457602 0.56200004 40 35 14 255
-0.088890776 -0.1343428 0.56100005 40 34 17 255
-0.087361455 -0.134349 0.56100005 48 44 27 255
-0.08552596 -0.13387613 0.55900002 46 42 25 255
-0.084001735 -0.13388216 0.55900002 44 40 23 255
-0.082477331 -0.13388816 0.55900002 46 44 26 255
-0.080952749 -0.13389407 0.55900002 43 41 21 255
-0.079427995 -0.13389991 0.55900002 47 44 24 255
-0.077903055 -0.13390568 0.55900002 36 32 15 255
-0.076651223 -0.1343905 0.56100005 42 36 19 255
-0.075120501 -0.13439617 0.56100005 41 35 18 255
-0.07398311 -0.13512044 0.56400001 41 35 18 255
-0.072700746 -0.13560511 0.56600004 36 30 13 255
-0.071532987 -0.13632934 0.56900001 32 28 11 255
-0.069979742 -0.13633475 0.56900001 33 31 13 255
-0.068546586 -0.13657966 0.57000005 38 36 18 255
-0.066872738 -0.13634527 0.56900001 34 32 14 255
-0.065319002 -0.13635039 0.56900001 43 41 23 255
-0.063540958 -0.13587613 0.56700003 45 41 24 255
-0.061773688 -0.13540176 0.565 39 35 18 255
-0.060443603 -0.13588589 0.56700003 48 43 23 255
-0.058998562 -0.13613027 0.56800002 45 38 17 255
-0.057547901 -0.13637456 0.56900001 42 35 15 255
-0.055993233 -0.13637911 0.56900001 40 35 15 255
-0.054534096 -0.13662323 0.57000005 40 35 15 255
-0.053069338 -0.13686725 0.57100004 44 39 19 255
-0.051598974 -0.13711117 0.57200003 44 38 21 255
-0.050035536 -0.1371153 0.57200003 38 35 15 255
-0.048556708 -0.13735904 0.57300001 42 39 18 255
-0.047072276 -0.13760267 0.574 45 42 21 255
-0.04550299 -0.13760647 0.574 44 41 20 255
-0.043857031 -0.13737042 0.57300001 39 36 16 255
-0.042290226 -0.137374 0.57300001 41 37 20 255
-0.040865447 -0.13785695 0.57500005 41 37 20 255
-0.039566286 -0.13881931 0.57900006 36 34 16 255
-0.038179532 -0.13954183 0.58200002 27 24 8 255
-0.036524802 -0.1393052 0.58100003 36 33 17 255
-0.034815315 -0.13882867 0.57900006 41 39 21 255
-0.033231456 -0.13883154 0.57900006 42 40 22 255
-0.0316475 -0.13883427 0.57900006 40 36 19 255
-0.030167298 -0.13931644 0.58100003 37 33 16 255
-0.028626885 -0.13955872 0.58200002 31 27 10 255
-0.026941566 -0.13908149 0.58000004 46 42 25 255
-0.025267111 -0.13860412 0.57800001 41 39 21 255
-0.023685485 -0.13860622 0.57800001 47 43 26 255
-0.022142034 -0.13884799 0.57900006 46 44 26 255
-0.020628549 -0.13932943 0.58100003 49 47 29 255
-0.019005751 -0.1390913 0.58000004 42 40 22 255
-0.017388372 -0.13885306 0.57900006 46 44 26 255
-0.015776414 -0.13861467 0.57800001 42 40 20 255
-0.014194444 -0.13861595 0.57800001 45 44 22 255
-0.012634252 -0.13885693 0.57900006 45 43 23 255
-0.011049467 -0.13885795 0.57900006 45 43 23 255
-0.0094646476 -0.13885884 0.57900006 38 36 16 255
-0.007907019 -0.13933925 0.58100003 45 43 23 255
-0.0063601625 -0.14029917 0.58500004 43 41 23 255
-0.0047669839 -0.14053948 0.58600003 39 37 19 255
-0.003168317 -0.14077964 0.58700001 36 34 16 255
-0.0015588459 -0.14054002 0.58600003 35 33 15 255
4.5309393e-05 -0.14077991 0.58700001 36 34 14 255
0.0016521247 -0.14077984 0.58700001 39 37 17 255
0.0032533831 -0.1405398 0.58600003 40 38 18 255
0.004857447 -0.14053944 0.58600003 43 41 21 255
0.0064614965 -0.14053896 0.58600003 45 43 23 255
0.0080517624 -0.1402985 0.58500004 40 38 20 255
0.0096530309 -0.14029774 0.58500004 46 44 26 255
0.011254271 -0.14029683 0.58500004 46 42 25 255
0.01285548 -0.1402958 0.58500004 41 37 20 255
0.014431938 -0.14005481 0.58400005 43 39 23 255
0.016030328 -0.1400535 0.58400005 46 42 26 255
0.017689042 -0.14053167 0.58600003 46 42 26 255
0.019292805 -0.14053009 0.58600003 44 41 25 255
0.020932175 -0.14076819 0.58700001 44 41 25 255
0.022538558 -0.14076631 0.58700001 47 45 27 255
0.024062613 -0.14028472 0.58500004 44 42 24 255
0.025707256 -0.14052239 0.58600003 42 40 22 255
0.027310695 -0.14052014 0.58600003 42 40 22 255
0.02901274 -0.14099734 0.588 44 42 24 255
0.030673567 -0.14123461 0.58900005 41 39 21 255
0.032394592 -0.1417115 0.59100002 42 40 22 255
0.033953816 -0.14146893 0.59000003 48 45 25 255
0.035507482 -0.14122622 0.58900005 42 39 19 255
0.037181608 -0.14146294 0.59000003 44 41 21 255
0.038861103 -0.14169951 0.59100002 41 38 18 255
0.040545952 -0.14193596 0.59200001 44 41 21 255
0.042093724 -0.14169277 0.59100002 40 37 17 255
0.043783817 -0.14192894 0.59200001 42 39 19 255
0.045402568 -0.14192528 0.59200001 38 36 16 255
0.047100626 -0.14216119 0.59300005 39 37 17 255
0.048639689 -0.14191753 0.59200001 44 42 24 255
0.050342962 -0.14215322 0.59300005 37 35 17 255
0.051963922 -0.14214903 0.59300005 40 38 20 255
0.053584754 -0.14214475 0.59300005 45 43 25 255
0.05529853 -0.14238004 0.59400004 41 39 21 255
0.057017628 -0.1426152 0.59500003 37 35 17 255
0.05893917 -0.14332962 0.59800005 45 43 25 255
0.060471773 -0.14308517 0.597 36 34 16 255
0.062206816 -0.14331996 0.59800005 37 35 17 255
0.063733645 -0.14307532 0.597 43 39 22 255
0.065473825 -0.14330989 0.59800005 44 40 23 255
0.06733153 -0.14378399 0.60000002 54 48 31 255
0.069314934 -0.14449756 0.60300004 51 46 26 255
0.071196869 -0.14497137 0.60500002 50 45 25 255
0.072848737 -0.14496583 0.60500002 47 41 24 255
0.074500427 -0.14496017 0.60500002 48 42 25 255
0.076151945 -0.14495443 0.60500002 44 40 23 255
0.077931874 -0.14518818 0.60600001 47 43 27 255
0.07997974 -0.14590098 0.60900003 42 36 19 255
0.081909746 -0.14637408 0.611 42 36 19 255
0.083713695 -0.14660747 0.61200005 43 38 18 255
0.085243866 -0.14636168 0.611 47 40 19 255
0.086910635 -0.14635538 0.611 51 44 23 255
0.088577226 -0.14634897 0.611 49 42 21 255
0.090539016 -0.14682153 0.61300004 50 43 22 255
0.092511512 -0.14729397 0.61500001 48 41 20 255
0.094188407 -0.14728731 0.61500001 43 36 15 255
0.09586513 -0.14728059 0.61500001 44 37 17 255
0.097700261 -0.14751329 0.61600006 50 41 20 255
0.10018595 -0.14870371 0.62100005 50 40 21 255
0.10220654 -0.14917561 0.62300003 45 35 18 255
0.10407104 -0.149408 0.62400001 43 33 16 255
0.10577129 -0.14940086 0.62400001 44 36 19 255
0.10747133 -0.14939368 0.62400001 54 46 29 255
0.10969605 -0.15010467 0.62700003 53 47 30 255
0.11158155 -0.15033674 0.62800002 59 51 34 255
0.1140135 -0.1512869 0.63200003 58 51 31 255
0.11610078 -0.15175816 0.634 52 45 24 255
0.11875631 -0.15294744 0.63900006 54 45 22 255
0.12162742 -0.15437588 0.64500004 57 46 23 255
0.124531 -0.15580416 0.65100002 62 51 28 255
0.12649699 -0.15603566 0.65200001 61 51 26 255
0.12846822 -0.15626712 0.65300006 57 46 23 255
0.13004577 -0.15601994 0.65200001 50 41 18 255
0.13202204 -0.15625133 0.65300006 48 41 20 255
0.13400355 -0.15648268 0.65400004 46 39 18 255
0.13640554 -0.1571925 0.65700001 42 35 14 255
0.13882369 -0.15790226 0.66000003 51 44 23 255
0.14104491 -0.15837272 0.66200006 54 47 27 255
0.14327683 -0.1588431 0.66400003 50 43 20 255
0.14573793 -0.15955266 0.66700006 56 47 24 255
0.14799394 -0.16002293 0.66900003 72 63 40 255
0.15026066 -0.1604932 0.671 56 47 26 255
0.15276474 -0.16120258 0.67400002 53 43 24 255
0.15482622 -0.16143359 0.67500001 49 39 22 255
0.15689297 -0.16166462 0.67600006 43 35 18 255
0.15873019 -0.16165651 0.67600006 45 37 20 255
0.16104229 -0.16212666 0.67800003 48 40 23 255
0.16312487 -0.16235769 0.67900002 43 36 16 255
0.16545571 -0.16282785 0.68100005 42 35 15 255
0.16706024 -0.16258071 0.68000001 42 37 17 255
0.16865921 -0.16233368 0.67900002 46 42 25 255
0.17100598 -0.16280392 0.68100005 43 39 22 255
0.17361724 -0.16351318 0.68400002 44 38 21 255
0.17598821 -0.16398342 0.68600005 44 38 21 255
0.17785141 -0.16397561 0.68600005 50 42 25 255
0.17997643 -0.16420689 0.68700004 51 44 24 255
0.18290094 -0.16515526 0.69100004 59 52 32 255
0.18557961 -0.16586462 0.69400001 80 72 55 255
0.18827453 -0.16657399 0.69700003 79 71 54 255
0.19098569 -0.1672834 0.70000005 69 61 44 255
0.19426413 -0.16847076 0.70500004 61 53 36 255
0.19701318 -0.1691802 0.708 57 49 32 255
0.19977845 -0.16988967 0.71100003 56 50 33 255
0.20199257 -0.17012134 0.71200001 63 58 38 255
0.20507136 -0.17106988 0.71600002 56 51 30 255
0.2078827 -0.17177954 0.71900004 57 52 31 255
0.21100217 -0.17272818 0.72300005 57 54 34 255
0.21443793 -0.17391576 0.72800004 67 65 47 255
0.22235991 -0.17868668 0.74800003 79 77 59 255
0.23669031 -0.18847379 0.78900003 67 65 47 255
0.2542704 -0.20064901 0.84000003 58 55 35 255
0.26571369 -0.20780744 0.87000006 58 55 35 255
0.27238989 -0.21114396 0.88400006 79 77 59 255
0.27727702 -0.21304734 0.89200002 91 88 72 255
-0.17214617 -0.1495962 0.61900002 98 74 46 255
-0.17074072 -0.14984433 0.62 104 85 63 255
-0.1674211 -0.14840072 0.61400002 137 135 117 255
-0.16278428 -0.14574856 0.60300004 143 140 126 255
-0.15927605 -0.14406307 0.59600002 129 130 118 255
-0.15633485 -0.14286098 0.59100002 128 127 113 255
-0.15368253 -0.14190057 0.58700001 130 129 115 255
-0.15053368 -0.14045666 0.58100003 122 121 107 255
-0.14690462 -0.13852914 0.57300001 97 96 80 255
-0.14458719 -0.13781036 0.57000005 94 94 76 255
-0.14253692 -0.13733335 0.56800002 90 88 68 255
-0.14074567 -0.13709813 0.56700003 81 79 59 255
-0.1384687 -0.13637932 0.56400001 111 109 89 255
-0.13645074 -0.1359023 0.56200004 97 98 76 255
-0.13492368 -0.13590893 0.56200004 86 86 66 255
-0.13315916 -0.13567376 0.56100005 81 81 61 255
-0.13139991 -0.13543858 0.56 59 59 41 255
-0.129646 -0.13520341 0.55900002 59 59 41 255
-0.12789741 -0.13496825 0.55800003 58 55 39 255
-0.12615411 -0.13473307 0.55700004 48 46 28 255
-0.1246399 -0.1347398 0.55700004 46 44 26 255
-0.12312551 -0.13474652 0.55700004 42 40 20 255
-0.12182933 -0.13499519 0.55800003 41 39 19 255
-0.11988075 -0.13451809 0.55600005 43 40 20 255
-0.11772997 -0.13379897 0.55300003 44 40 23 255
-0.11601571 -0.13356371 0.55200005 49 43 26 255
-0.11492911 -0.13405436 0.55400002 47 41 24 255
-0.11362673 -0.13430303 0.55500001 47 43 26 255
-0.11231877 -0.13455178 0.55600005 47 43 26 255
-0.1104073 -0.13407445 0.55400002 44 42 22 255
-0.10870313 -0.13383909 0.55300003 43 41 23 255
-0.10739194 -0.13408777 0.55400002 42 40 22 255
-0.10626628 -0.13457851 0.55600005 46 44 26 255
-0.10531794 -0.13531131 0.55900002 42 40 22 255
-0.10379606 -0.13531795 0.55900002 40 38 20 255
-0.10245698 -0.13556665 0.56 43 39 22 255
-0.10075179 -0.13533114 0.55900002 42 38 21 255
-0.099406905 -0.13557978 0.56 42 36 19 255
-0.098056398 -0.13582842 0.56100005 40 36 19 255
-0.096700266 -0.13607705 0.56200004 42 38 21 255
-0.095169179 -0.13608351 0.56200004 43 38 18 255
-0.093804508 -0.13633205 0.56300002 42 37 17 255
-0.092106447 -0.13609627 0.56200004 47 42 21 255
-0.090735972 -0.13634475 0.56300002 43 38 17 255
-0.089043006 -0.13610883 0.56200004 46 40 23 255
-0.087355308 -0.13587283 0.56100005 41 37 20 255
-0.085825875 -0.13587897 0.56100005 46 42 25 255
-0.084296241 -0.13588502 0.56100005 44 40 23 255
-0.082766458 -0.13589102 0.56100005 40 38 20 255
-0.08109168 -0.13565469 0.56 42 40 22 255
-0.079848424 -0.13614506 0.56200004 43 41 23 255
-0.078315385 -0.13615087 0.56200004 36 32 15 255
-0.076918788 -0.13639885 0.56300002 44 40 23 255
-0.075114891 -0.13591996 0.56100005 43 35 18 255
-0.073846385 -0.13641009 0.56300002 43 35 18 255
-0.072438374 -0.13665791 0.56400001 38 30 13 255
-0.071527556 -0.13787489 0.56900001 33 27 10 255
-0.069974393 -0.13788028 0.56900001 37 31 14 255
-0.068661571 -0.13837026 0.57100004 41 37 20 255
-0.067102611 -0.13837549 0.57100004 36 32 15 255
-0.065428711 -0.13813828 0.57000005 40 38 20 255
-0.063760109 -0.13790096 0.56900001 45 41 24 255
-0.061987493 -0.13742116 0.56700003 40 36 19 255
-0.060652014 -0.13791074 0.56900001 47 41 24 255
-0.059097745 -0.13791548 0.56900001 46 39 18 255
-0.05774558 -0.13840489 0.57100004 47 40 20 255
-0.056185544 -0.13840944 0.57100004 43 38 18 255
-0.05462537 -0.13841389 0.57100004 43 36 16 255
-0.053157985 -0.13866064 0.57200003 40 33 13 255
-0.051594794 -0.13866489 0.57200003 41 35 18 255
-0.050031468 -0.13866901 0.57200003 42 37 17 255
-0.04855274 -0.13891546 0.57300001 39 36 16 255
-0.047150426 -0.13940427 0.57500005 41 38 18 255
-0.045578513 -0.13940808 0.57500005 43 41 21 255
-0.043929942 -0.13916931 0.574 39 37 19 255
-0.04228672 -0.13893043 0.57300001 38 35 19 255
-0.040790983 -0.13917632 0.574 41 38 22 255
-0.039494652 -0.14014955 0.57800001 37 34 18 255
-0.038110744 -0.14088024 0.58100003 30 27 11 255
-0.036521744 -0.14088337 0.58100003 37 35 17 255
-0.034812383 -0.14040138 0.57900006 42 40 22 255
-0.033171263 -0.14016175 0.57800001 44 42 24 255
-0.031590167 -0.14016449 0.57800001 38 35 19 255
-0.030164745 -0.14089462 0.58100003 33 30 14 255
-0.028673638 -0.14138211 0.583 36 33 19 255
-0.027032165 -0.14114197 0.58200002 46 43 27 255
-0.025308669 -0.14041667 0.57900006 48 46 28 255
-0.023765413 -0.14066128 0.58000004 48 46 28 255
-0.022254853 -0.14114828 0.58200002 42 39 23 255
-0.020697782 -0.14139265 0.583 48 45 29 255
-0.019036883 -0.14090931 0.58100003 45 43 25 255
-0.017386878 -0.14042582 0.57900006 41 39 21 255
-0.015775057 -0.14018469 0.57800001 44 42 22 255
-0.014193221 -0.14018598 0.57800001 44 43 21 255
-0.012654983 -0.14067224 0.58000004 40 38 18 255
-0.011067595 -0.14067325 0.58000004 46 44 24 255
-0.0094965203 -0.14091668 0.58100003 43 41 21 255
-0.0079335514 -0.14140251 0.583 43 41 23 255
-0.0063813538 -0.14237331 0.58700001 41 37 20 255
-0.0047828392 -0.14261633 0.588 35 31 14 255
-0.0031734398 -0.14261667 0.588 34 32 14 255
-0.0015587111 -0.14213179 0.58600003 37 35 15 255
4.5228291e-05 -0.14213187 0.58600003 37 35 15 255
0.0016491674 -0.14213178 0.58600003 40 38 18 255
0.0032475505 -0.14188904 0.58500004 45 43 23 255
0.004857027 -0.14213122 0.58600003 45 43 23 255
0.0064499122 -0.1418882 0.58500004 43 41 21 255
0.0080235414 -0.14140247 0.583 43 41 23 255
0.0096356971 -0.14164425 0.58400005 43 39 22 255
0.011234065 -0.14164336 0.58400005 46 40 23 255
0.012876344 -0.14212739 0.58600003 49 43 26 255
0.014480114 -0.14212622 0.58600003 44 38 21 255
0.016083842 -0.14212491 0.58600003 45 39 22 255
0.017687524 -0.14212345 0.58600003 44 40 23 255
0.019324068 -0.14236437 0.58700001 42 38 21 255
0.020966036 -0.14260517 0.588 41 39 21 255
0.022575025 -0.14260331 0.588 47 45 27 255
0.024142815 -0.14235879 0.58700001 44 42 24 255
0.025705067 -0.14211416 0.58600003 44 42 22 255
0.027308373 -0.1421119 0.58600003 43 41 21 255
0.029010275 -0.14259452 0.588 41 39 19 255
0.030670967 -0.14283448 0.58900005 48 46 26 255
0.032337043 -0.14307433 0.59000003 46 44 24 255
0.033950955 -0.14307153 0.59000003 50 47 26 255
0.035564773 -0.14306861 0.59000003 46 43 22 255
0.03711547 -0.14282306 0.58900005 44 42 18 255
0.038923603 -0.14354731 0.59200001 46 43 22 255
0.040474091 -0.14330153 0.59100002 45 40 20 255
0.042232662 -0.14378303 0.59300005 42 36 19 255
0.043780185 -0.14353698 0.59200001 42 36 19 255
0.045398816 -0.14353329 0.59200001 42 36 19 255
0.047017321 -0.14352947 0.59200001 43 37 20 255
0.048635695 -0.14352554 0.59200001 43 39 22 255
0.050423734 -0.14400639 0.59400004 34 32 12 255
0.052047312 -0.1440022 0.59400004 37 35 15 255
0.05367076 -0.14399789 0.59400004 40 38 20 255
0.05538715 -0.14423589 0.59500003 42 40 22 255
0.057108864 -0.14447378 0.59600002 39 37 19 255
0.05893445 -0.14495394 0.59800005 44 42 24 255
0.060568247 -0.14494915 0.59800005 44 42 24 255
0.062305894 -0.14518666 0.59900004 36 34 16 255
0.063835368 -0.14493929 0.59800005 40 38 20 255
0.065468691 -0.14493421 0.59800005 44 40 23 255
0.067214064 -0.14517137 0.59900004 48 44 27 255
0.069079667 -0.14565076 0.60100001 48 45 25 255
0.071073703 -0.14637236 0.60400003 45 40 20 255
0.072843142 -0.14660914 0.60500002 46 41 21 255
0.074494742 -0.14660351 0.60500002 49 43 26 255
0.076146156 -0.14659776 0.60500002 46 40 23 255
0.077668816 -0.14634964 0.60400003 49 43 26 255
0.079842418 -0.14731288 0.60800004 39 33 16 255
0.081635542 -0.14754912 0.60900003 45 39 22 255
0.083570711 -0.14802754 0.611 42 37 17 255
0.085098088 -0.14777905 0.61000001 43 36 15 255
0.08690428 -0.14801499 0.611 51 44 23 255
0.08842583 -0.14776635 0.61000001 52 45 24 255
0.090384811 -0.14824438 0.61200005 46 41 20 255
0.092204064 -0.14848004 0.61300004 50 46 22 255
0.094334878 -0.14920004 0.61600006 44 39 18 255
0.09585838 -0.14895111 0.61500001 47 40 19 255
0.097693436 -0.14918652 0.61600006 46 39 19 255
0.099856362 -0.14990617 0.61900002 52 45 25 255
0.10203547 -0.15062574 0.62200004 46 38 21 255
0.10389718 -0.15086083 0.62300003 46 38 21 255
0.10559465 -0.15085371 0.62300003 47 39 23 255
0.10711971 -0.15060446 0.62200004 51 45 29 255
0.10933887 -0.15132359 0.625 57 51 34 255
0.11121888 -0.15155843 0.62600005 52 44 27 255
0.11382569 -0.15276158 0.63100004 58 51 31 255
0.11609329 -0.15348038 0.634 60 51 30 255
0.11874873 -0.15468326 0.63900006 58 49 28 255
0.12124261 -0.15564388 0.64300001 59 48 27 255
0.12414066 -0.1570885 0.64900005 57 46 23 255
0.12629515 -0.15756479 0.65100002 52 43 20 255
0.12846035 -0.15804103 0.65300006 53 44 21 255
0.13003787 -0.15779114 0.65200001 51 44 23 255
0.13201414 -0.15802528 0.65300006 52 45 24 255
0.13399564 -0.15825938 0.65400004 49 42 21 255
0.13618998 -0.15873539 0.65600002 54 47 26 255
0.13860536 -0.15945335 0.65900004 48 41 20 255
0.14103688 -0.1601712 0.66200006 51 44 23 255
0.14348453 -0.16088898 0.66500002 53 46 25 255
0.14594832 -0.16160668 0.66800004 53 46 23 255
0.14798583 -0.16184051 0.66900003 74 67 46 255
0.15025254 -0.16231623 0.671 71 64 44 255
0.15252997 -0.16279192 0.67300004 55 45 26 255
0.15481809 -0.16326757 0.67500001 47 37 20 255
0.15688486 -0.16350135 0.67600006 43 35 18 255
0.1589569 -0.16373512 0.67700005 40 32 15 255
0.16127174 -0.16421075 0.67900002 43 36 16 255
0.16335705 -0.16444451 0.68000001 44 39 19 255
0.1654477 -0.16467832 0.68100005 40 35 15 255
0.1675436 -0.16491213 0.68200004 42 39 19 255
0.16939646 -0.16490418 0.68200004 42 39 19 255
0.17150027 -0.16513807 0.68300003 41 37 20 255
0.17360941 -0.16537198 0.68400002 50 45 25 255
0.17546736 -0.16536421 0.68400002 43 38 18 255
0.17784366 -0.16583996 0.68600005 45 39 22 255
0.18023072 -0.16631575 0.68800002 49 43 26 255
0.18289329 -0.16703333 0.69100004 59 52 32 255
0.18530463 -0.16750915 0.69300002 72 64 47 255
0.18772678 -0.16798505 0.69500005 84 76 59 255
0.19070536 -0.16894439 0.69900006 75 67 50 255
0.19425669 -0.1703871 0.70500004 66 58 41 255
0.19728407 -0.17134644 0.70900005 61 53 36 255
0.19977117 -0.17182247 0.71100003 52 46 29 255
0.20255277 -0.17254023 0.71400005 53 48 28 255
0.20535065 -0.17325807 0.71700001 59 54 33 255
0.2081648 -0.17397594 0.72000003 56 52 28 255
0.21070342 -0.17445229 0.72200006 55 52 32 255
0.21472566 -0.17613679 0.72900003 67 65 47 255
0.22205581 -0.18047896 0.74700004 80 78 60 255
0.23608328 -0.19013608 0.78700006 67 65 47 255
0.25486839 -0.20341642 0.84200007 55 52 32 255
0.26631707 -0.21065654 0.87200004 62 59 39 255
0.27207437 -0.21330652 0.88300002 80 78 60 255
0.276959 -0.21523184 0.89100003 89 90 76 255
-0.17606711 -0.15322752 0.62700003 102 79 49 255
-0.17269598 -0.15176754 0.62100005 98 74 46 255
-0.17018349 -0.15104075 0.61800003 97 80 51 255
-0.1668693 -0.14958076 0.61200005 141 139 121 255
-0.16250785 -0.14714302 0.60200006 136 135 121 255
-0.15900233 -0.14543845 0.59500003 126 127 115 255
-0.15632837 -0.14446715 0.59100002 117 116 102 255
-0.15341422 -0.14325137 0.58600003 123 122 108 255
-0.15000901 -0.14154662 0.57900006 135 132 118 255
-0.14664176 -0.13984177 0.57200003 101 100 86 255
-0.14483434 -0.13960375 0.57100004 99 96 80 255
-0.14278132 -0.13912125 0.56900001 101 99 81 255
-0.14073908 -0.13863879 0.56700003 84 82 62 255
-0.13821663 -0.13766727 0.56300002 107 105 85 255
-0.13620135 -0.13718475 0.56100005 88 87 65 255
-0.13467699 -0.13719134 0.56100005 83 84 62 255
-0.13267781 -0.13670884 0.55900002 81 81 61 255
-0.130924 -0.13647088 0.55800003 62 62 44 255
-0.12917551 -0.13623296 0.55700004 51 51 33 255
-0.12789074 -0.13648421 0.55800003 58 55 39 255
-0.12614743 -0.13624628 0.55700004 56 54 36 255
-0.12440942 -0.13600835 0.55600005 46 44 26 255
-0.12289776 -0.13601506 0.55600005 44 42 22 255
-0.12160427 -0.1362664 0.55700004 41 39 19 255
-0.11987401 -0.13602847 0.55600005 44 40 23 255
-0.11793617 -0.13554585 0.55400002 47 43 26 255
-0.1162192 -0.13530786 0.55300003 45 39 22 255
-0.11471497 -0.13531454 0.55300003 40 34 17 255
-0.11321059 -0.13532121 0.55300003 39 35 18 255
-0.11190805 -0.1355726 0.55400002 41 39 21 255
-0.11020135 -0.13533454 0.55300003 40 38 18 255
-0.1090896 -0.13583066 0.55500001 45 43 23 255
