ply
format ascii 1.0
comment PCL generated
element vertex 977
property float x
property float y
property float z
property uchar red
property uchar green
property uchar blue
property uchar alpha
element camera 0
property float view_px
property float view_py
property float view_pz
property float x_axisx
property float x_axisy
property float x_axisz
property float y_axisx
property float y_axisy
property float y_axisz
property float z_axisx
property float z_axisy
property float z_axisz
property float focal
property float scalex
property float scaley
property float centerx
property float centery
property int viewportx
property int viewporty
property float k1
property float k2
end_header
0.029543394 -0.18069544 0.51500005 37 36 14 255
0.030948015 -0.18069358 0.51500005 42 41 19 255
0.032352589 -0.18069161 0.51500005 36 34 14 255
0.033757124 -0.18068957 0.51500005 40 38 20 255
0.035161603 -0.18068747 0.51500005 42 40 22 255
0.036566045 -0.18068528 0.51500005 45 43 25 255
0.037970431 -0.18068302 0.51500005 44 42 24 255
0.039298311 -0.18032983 0.514 45 43 23 255
0.040541507 -0.17962581 0.51200002 45 43 25 255
0.041691825 -0.17857084 0.509 39 37 17 255
0.043079648 -0.17856835 0.509 38 36 16 255
0.044467408 -0.17856577 0.509 40 37 17 255
0.045765027 -0.17821233 0.50800002 42 40 20 255
0.047149949 -0.17820963 0.50800002 39 37 17 255
0.048439279 -0.1778561 0.50700003 47 45 25 255
0.049723092 -0.17750251 0.50600004 47 45 25 255
0.051102392 -0.17749967 0.50600004 38 36 18 255
0.052377902 -0.17714596 0.505 36 33 13 255
0.053647909 -0.17679223 0.50400001 42 38 21 255
0.055130739 -0.17714001 0.505 40 37 17 255
0.05650707 -0.17713699 0.505 37 35 15 255
0.057997953 -0.17748466 0.50600004 44 41 21 255
0.05925953 -0.17713074 0.505 39 36 16 255
0.060875814 -0.17782909 0.50700003 41 38 18 255
0.062380139 -0.1781766 0.50800002 41 38 18 255
0.063889854 -0.17852408 0.509 44 39 19 255
0.065148458 -0.17817004 0.50800002 44 39 19 255
0.066794463 -0.17886819 0.51000005 41 36 16 255
0.068183914 -0.17886479 0.51000005 40 33 12 255
0.069573298 -0.17886142 0.51000005 42 35 14 255
0.07096263 -0.17885798 0.51000005 46 37 14 255
0.072068147 -0.17815314 0.50800002 45 36 15 255
0.073451914 -0.17814972 0.50800002 49 42 21 255
0.0746883 -0.17779559 0.50700003 43 36 15 255
0.076519318 -0.17884414 0.51000005 42 37 17 255
0.078061096 -0.17919129 0.51100004 40 35 15 255
0.079608276 -0.17953846 0.51200002 45 40 20 255
0.081002645 -0.17953494 0.51200002 47 39 22 255
0.082396939 -0.17953141 0.51200002 45 35 18 255
0.083791189 -0.17952791 0.51200002 50 40 21 255
0.085185394 -0.17952439 0.51200002 53 46 26 255
0.086748637 -0.17987151 0.51300001 59 52 32 255
0.088489108 -0.18056926 0.51500005 54 49 28 255
0.091287687 -0.18337065 0.523 47 42 21 255
0.095016137 -0.18792501 0.53600001 47 42 21 255
0.10205519 -0.19879001 0.56700003 55 50 29 255
0.11017656 -0.21140757 0.60300004 59 52 32 255
0.1164541 -0.22016826 0.62800002 53 46 26 255
0.12004533 -0.22366993 0.63800001 59 52 32 255
0.12235478 -0.22471751 0.64100003 55 50 29 255
0.12468057 -0.22576514 0.64400005 47 42 21 255
0.1268263 -0.22646216 0.64600003 40 35 14 255
0.12918195 -0.22750983 0.64900005 43 38 18 255
0.13115035 -0.22785638 0.65000004 38 33 13 255
0.13353319 -0.22890413 0.65300006 36 30 13 255
0.13593231 -0.22995184 0.65600002 32 26 9 255
0.13813783 -0.23064911 0.65800005 38 32 15 255
0.13992891 -0.23064539 0.65800005 34 30 13 255
0.14172 -0.23064175 0.65800005 31 27 10 255
0.14372918 -0.23098874 0.65900004 32 30 12 255
0.14574379 -0.23133576 0.66000003 36 34 14 255
0.14798743 -0.23203342 0.66200006 38 37 15 255
0.15001571 -0.23238067 0.66300005 40 39 15 255
0.15227842 -0.23307851 0.66500002 49 47 23 255
0.1547838 -0.23412696 0.66800004 49 47 23 255
0.15964989 -0.23868036 0.68100005 43 40 19 255
0.16411246 -0.2425328 0.69200003 34 31 10 255
0.16743562 -0.24463294 0.69800001 41 38 18 255
0.16982107 -0.24533126 0.70000005 43 40 20 255
0.17246281 -0.24638018 0.70300001 39 36 16 255
0.17487293 -0.24707882 0.70500004 41 39 19 255
0.17679249 -0.24707669 0.70500004 43 41 21 255
0.17896561 -0.24742518 0.70600003 43 43 25 255
0.18114431 -0.24777386 0.70700002 78 82 65 255
0.18488218 -0.25022545 0.71400005 143 151 136 255
-0.082147233 -0.24777755 0.70100003 93 94 80 255
-0.079435714 -0.24530746 0.69400001 87 86 72 255
-0.077320963 -0.24460468 0.69200003 73 71 53 255
-0.075435042 -0.24460876 0.69200003 71 68 52 255
-0.073336467 -0.24390577 0.69000006 65 64 48 255
-0.071248718 -0.24320273 0.68800002 60 60 42 255
-0.069373459 -0.24320658 0.68800002 58 58 40 255
-0.067498118 -0.24321035 0.68800002 54 54 36 255
-0.065527327 -0.24286059 0.68700004 56 56 38 255
-0.063469246 -0.24215719 0.68500006 42 42 24 255
-0.061511926 -0.24180721 0.68400002 46 46 28 255
-0.059559986 -0.24145712 0.68300003 47 47 29 255
-0.057613425 -0.24110699 0.68200004 60 60 40 255
-0.055263486 -0.23898906 0.67600006 55 55 35 255
-0.052234981 -0.23368911 0.66100001 49 47 27 255
-0.049669694 -0.2301567 0.65100002 42 40 20 255
-0.047526736 -0.22839186 0.64600003 36 36 16 255
-0.045481827 -0.22698042 0.64200002 40 40 22 255
-0.043663025 -0.22662953 0.64100003 36 34 16 255
-0.041914999 -0.2266321 0.64100003 34 34 16 255
-0.040292256 -0.22734168 0.64300001 32 32 14 255
-0.038478736 -0.22699052 0.64200002 38 36 18 255
-0.036727831 -0.22699282 0.64200002 40 38 20 255
-0.034704469 -0.22522715 0.63700002 43 41 21 255
-0.032863591 -0.22452208 0.63500005 45 44 22 255
-0.030935526 -0.22310972 0.63100004 41 40 18 255
-0.028473657 -0.21745422 0.61500001 45 43 25 255
-0.025445465 -0.20649478 0.58400005 65 66 54 255
-0.022953941 -0.19871734 0.56200004 90 91 79 255
-0.021077907 -0.19553639 0.55300003 86 88 71 255
-0.019357104 -0.1934161 0.54700005 80 82 65 255
-0.017799648 -0.19271009 0.54500002 92 94 76 255
-0.016193213 -0.19129676 0.54100001 86 86 68 255
-0.01469019 -0.19094415 0.54000002 76 74 56 255
-0.013192602 -0.19059142 0.53900003 68 66 46 255
-0.011722199 -0.19059223 0.53900003 68 66 46 255
-0.01019472 -0.18953212 0.53600001 60 58 38 255
-0.0086672995 -0.18811828 0.53200001 57 55 35 255
-0.0072159478 -0.18811879 0.53200001 53 52 30 255
-0.005742915 -0.18741201 0.53000003 57 55 35 255
-0.0042888927 -0.18705872 0.52900004 61 59 41 255
-0.0028403206 -0.18670532 0.528 50 48 30 255
-0.0013945496 -0.18599825 0.52600002 50 48 30 255
4.0464896e-05 -0.18599829 0.52600002 39 37 19 255
0.001467064 -0.18493742 0.523 41 38 18 255
0.0029049581 -0.18564451 0.52500004 43 40 20 255
0.0043289769 -0.18529068 0.52400005 42 39 19 255
0.0057695117 -0.18564394 0.52500004 45 42 22 255
0.0071469056 -0.18422911 0.52100003 46 44 26 255
0.0085518016 -0.18387501 0.52000004 47 45 27 255
0.0099512292 -0.18352081 0.51900005 46 44 26 255
0.011367088 -0.18352014 0.51900005 47 45 27 255
0.012782929 -0.18351936 0.51900005 44 42 24 255
0.014198753 -0.18351851 0.51900005 44 42 24 255
0.015614555 -0.18351755 0.51900005 45 41 24 255
0.016964706 -0.18280932 0.51700002 43 40 20 255
0.018339464 -0.18245462 0.51600003 40 37 17 255
0.019708741 -0.18209983 0.51500005 39 37 17 255
0.021113532 -0.18209857 0.51500005 38 36 18 255
0.022562012 -0.18245079 0.51600003 41 39 21 255
0.023969468 -0.18244934 0.51600003 40 38 20 255
0.025327709 -0.18209422 0.51500005 45 43 25 255
0.02668046 -0.18173903 0.514 40 38 18 255
0.028136989 -0.18209092 0.51500005 37 36 14 255
0.029598933 -0.18244272 0.51600003 41 39 15 255
0.031006204 -0.18244089 0.51600003 40 39 15 255
0.032413427 -0.18243895 0.51600003 36 35 13 255
0.033755071 -0.18208341 0.51500005 45 44 22 255
0.035091206 -0.18172777 0.514 37 35 15 255
0.036421847 -0.18137208 0.51300001 43 41 23 255
0.037894432 -0.1817234 0.514 42 40 20 255
0.039295971 -0.18172114 0.514 47 45 27 255
0.040539112 -0.18101172 0.51200002 43 39 22 255
0.041689381 -0.17994872 0.509 42 38 21 255
0.04307713 -0.17994624 0.509 37 33 16 255
0.04446483 -0.17994374 0.509 43 39 22 255
0.045672316 -0.17923413 0.50700003 46 43 23 255
0.047147259 -0.17958502 0.50800002 44 41 20 255
0.048341002 -0.17887531 0.50600004 43 40 19 255
0.04981856 -0.17922609 0.50700003 43 40 19 255
0.050998554 -0.17851628 0.505 37 34 14 255
0.052375011 -0.17851345 0.505 36 33 13 255
0.053644981 -0.17815709 0.50400001 43 38 18 255
0.055127755 -0.17850764 0.505 42 39 19 255
0.056392148 -0.17815121 0.50400001 44 41 21 255
0.057880256 -0.17850165 0.505 42 39 19 255
0.059256416 -0.1784986 0.505 43 40 20 255
0.060752597 -0.17884898 0.50600004 41 38 18 255
0.062131353 -0.17884584 0.50600004 44 39 19 255
0.063761085 -0.17954955 0.50800002 45 40 19 255
0.06514518 -0.17954634 0.50800002 42 37 16 255
0.066660181 -0.17989652 0.509 42 37 16 255
0.068046883 -0.17989326 0.509 44 37 16 255
0.069433525 -0.17988996 0.509 42 35 14 255
0.070820101 -0.17988664 0.509 43 36 15 255
0.071922906 -0.17917649 0.50700003 45 38 17 255
0.073303923 -0.17917316 0.50700003 42 37 16 255
0.074537568 -0.17881639 0.50600004 40 35 15 255
0.076365843 -0.17987318 0.509 43 38 18 255
0.077904895 -0.1802232 0.51000005 43 38 18 255
0.079449333 -0.18057315 0.51100004 42 35 15 255
0.080840975 -0.18056975 0.51100004 51 41 22 255
0.082393475 -0.18091971 0.51200002 49 38 17 255
0.083624087 -0.18056296 0.51100004 47 38 17 255
0.085015565 -0.18055958 0.51100004 55 48 27 255
0.086406998 -0.18055618 0.51100004 61 56 35 255
0.088313833 -0.18161277 0.514 55 50 29 255
0.090935126 -0.1840827 0.52100003 49 44 23 255
0.094835334 -0.18902577 0.53500003 45 40 20 255
0.10169149 -0.19962169 0.565 61 56 35 255
0.10980722 -0.21233712 0.60100001 60 53 32 255
0.11607918 -0.22116578 0.62600005 55 48 27 255
0.1198531 -0.22504808 0.63700002 60 53 32 255
0.12235075 -0.22645727 0.64100003 61 56 35 255
0.12467657 -0.22751321 0.64400005 49 44 23 255
0.12662601 -0.22786257 0.64500004 41 35 18 255
0.12897898 -0.22891851 0.648 41 35 18 255
0.13094474 -0.22926801 0.64900005 40 32 15 255
0.13352938 -0.23067731 0.65300006 35 29 12 255
0.13572137 -0.23138015 0.65500003 34 28 12 255
0.13792422 -0.23208302 0.65700001 34 28 11 255
0.13971266 -0.23207949 0.65700001 32 26 9 255
0.14150111 -0.23207606 0.65700001 33 27 10 255
0.14372577 -0.23277919 0.65900004 34 28 11 255
0.14551967 -0.23277596 0.65900004 37 32 12 255
0.14753714 -0.23312603 0.66000003 43 38 17 255
0.14978635 -0.23382944 0.66200006 49 44 23 255
0.15250444 -0.23523937 0.66600001 55 50 29 255
0.15593946 -0.237709 0.67300004 53 48 27 255
0.16058482 -0.24194477 0.68500006 50 45 24 255
0.16410977 -0.24441452 0.69200003 39 35 18 255
0.16719317 -0.24617803 0.69700003 39 35 18 255
0.16957606 -0.24688207 0.69900006 35 31 14 255
0.17221522 -0.24793941 0.70200002 39 35 18 255
0.17462277 -0.24864374 0.70400006 43 40 20 255
0.17679055 -0.24899504 0.70500004 45 44 22 255
0.17871037 -0.24899334 0.70500004 45 44 22 255
0.18088654 -0.24934502 0.70600003 73 77 59 255
0.18462189 -0.25181594 0.71300006 148 154 136 255
-0.082494557 -0.25074491 0.70400006 99 100 86 255
-0.079431601 -0.24718726 0.69400001 96 96 78 255
-0.07731691 -0.24647893 0.69200003 91 91 73 255
-0.075213045 -0.24577051 0.69000006 68 68 50 255
-0.073332556 -0.24577445 0.69000006 62 62 44 255
-0.071244881 -0.24506587 0.68800002 55 55 37 255
-0.06926886 -0.24471343 0.68700004 60 60 42 255
-0.067298211 -0.24436089 0.68600005 62 62 44 255
-0.065428324 -0.24436451 0.68600005 50 50 32 255
-0.063465707 -0.24401185 0.68500006 48 47 31 255
-0.061508466 -0.24365905 0.68400002 45 45 27 255
-0.059556607 -0.24330622 0.68300003 52 52 34 255
-0.057525661 -0.24259704 0.68100005 54 54 36 255
-0.055342052 -0.24117528 0.67700005 53 53 33 255
-0.05254804 -0.23690343 0.66500002 46 46 26 255
-0.049819391 -0.23263142 0.65300006 38 36 16 255
-0.047523949 -0.23014043 0.64600003 36 36 16 255
-0.045620825 -0.22943066 0.64400005 39 37 19 255
-0.043728545 -0.22872074 0.64200002 36 34 16 255
-0.041977894 -0.22872326 0.64200002 38 36 18 255
-0.040227186 -0.22872569 0.64200002 38 35 19 255
-0.038476419 -0.22872801 0.64200002 41 38 22 255
-0.036668405 -0.22837397 0.64100003 41 39 21 255
-0.034702361 -0.22695102 0.63700002 41 39 21 255
-0.03286159 -0.2262405 0.63500005 44 43 21 255
-0.030982655 -0.22517356 0.63200003 43 42 20 255
-0.028147837 -0.21662444 0.60800004 42 42 24 255
-0.025138918 -0.20558101 0.57700002 93 94 82 255
-0.022870837 -0.19952546 0.56 99 100 88 255
-0.021038486 -0.19667646 0.55200005 82 83 69 255
-0.019355899 -0.19489624 0.54700005 84 85 71 255
-0.017765878 -0.19382843 0.54400003 96 98 80 255
-0.016162267 -0.19240427 0.54000002 91 91 73 255
-0.014662066 -0.19204892 0.53900003 77 77 59 255
-0.013191774 -0.1920498 0.53900003 66 64 46 255
-0.011721461 -0.19205058 0.53900003 57 55 37 255
-0.010175057 -0.19062603 0.53500003 57 55 35 255
-0.0086830445 -0.189914 0.53300005 64 63 41 255
-0.0072154915 -0.18955816 0.53200001 58 57 35 255
-0.0057642208 -0.18955857 0.53200001 51 50 26 255
-0.0043048351 -0.18920258 0.53100002 42 41 19 255
-0.0028455199 -0.18849018 0.52900004 48 46 26 255
-0.0013971122 -0.18777768 0.52700001 46 44 26 255
4.0539257e-05 -0.18777773 0.52700001 46 44 26 255
0.0014697759 -0.18670875 0.52400005 44 42 24 255
0.0028992412 -0.1867086 0.52400005 45 41 24 255
0.004328703 -0.18670839 0.52400005 38 36 18 255
0.0057581579 -0.18670808 0.52400005 46 44 24 255
0.00716017 -0.18599501 0.52200001 47 45 27 255
0.0085677058 -0.18563822 0.52100003 49 47 29 255
0.0099697728 -0.18528132 0.52000004 46 44 26 255
0.011366372 -0.18492438 0.51900005 45 43 25 255
0.012757497 -0.18456729 0.51800001 45 43 25 255
0.014143148 -0.18421014 0.51700002 42 40 22 255
0.015583493 -0.18456553 0.51800001 42 40 22 255
0.016996458 -0.18456453 0.51800001 39 37 19 255
0.018409399 -0.18456343 0.51800001 40 37 17 255
0.019745784 -0.18384968 0.51600003 43 41 21 255
0.021112222 -0.18349212 0.51500005 42 40 20 255
0.022604343 -0.18420334 0.51700002 41 39 19 255
0.023967994 -0.18384564 0.51600003 41 39 21 255
0.025276979 -0.18313156 0.514 41 39 21 255
0.026626928 -0.18277372 0.51300001 42 40 20 255
0.028080646 -0.18312833 0.514 41 40 18 255
0.029539788 -0.18348293 0.51500005 38 36 12 255
0.03088416 -0.18312481 0.514 41 39 15 255
0.032223046 -0.18276668 0.51300001 46 44 20 255
0.033556439 -0.18240847 0.51200002 45 43 19 255
0.035020858 -0.1827627 0.51300001 42 39 18 255
0.036419705 -0.18276064 0.51300001 43 41 21 255
0.037818495 -0.18275847 0.51300001 46 43 23 255
0.039217245 -0.18275625 0.51300001 42 38 21 255
0.040615939 -0.18275395 0.51300001 44 40 23 255
0.041850787 -0.18203913 0.51100004 38 34 17 255
0.043074679 -0.18132424 0.509 38 34 17 255
0.044374961 -0.18096554 0.50800002 40 38 18 255
0.045579668 -0.18025057 0.50600004 37 35 15 255
0.046959024 -0.18024802 0.50600004 44 41 21 255
0.048338324 -0.1802454 0.50600004 44 41 20 255
0.049717575 -0.18024272 0.50600004 41 38 18 255
0.051096767 -0.18023999 0.50600004 44 39 19 255
0.052475896 -0.18023723 0.50600004 41 36 15 255
0.053748541 -0.17987821 0.505 42 37 17 255
0.055015683 -0.17951918 0.50400001 44 41 21 255
0.056277312 -0.17916009 0.50300002 41 38 18 255
0.057877261 -0.1798695 0.505 42 37 17 255
0.059253383 -0.17986654 0.505 42 37 17 255
0.06062945 -0.17986351 0.505 46 41 21 255
0.062005449 -0.17986046 0.505 44 37 16 255
0.063506916 -0.18021354 0.50600004 39 34 13 255
0.064885534 -0.18021044 0.50600004 39 34 13 255
0.066395052 -0.18056343 0.50700003 43 38 18 255
0.067776285 -0.18056026 0.50700003 48 43 23 255
0.069157451 -0.18055706 0.50700003 44 39 19 255
0.070816815 -0.18126608 0.509 41 36 16 255
0.072203323 -0.18126284 0.509 45 38 18 255
0.073589772 -0.18125959 0.509 45 40 20 255
0.074681565 -0.18054411 0.50700003 38 33 13 255
0.076362513 -0.18125303 0.509 41 34 14 255
0.077901557 -0.18160586 0.51000005 44 37 17 255
0.079601444 -0.18231471 0.51200002 42 35 15 255
0.080837622 -0.18195534 0.51100004 49 38 17 255
0.08255104 -0.18266419 0.51300001 51 40 17 255
0.083948024 -0.18266088 0.51300001 53 45 20 255
0.085511319 -0.18301363 0.514 49 42 19 255
0.086910948 -0.18301037 0.514 56 49 26 255
0.088825949 -0.18407522 0.51700002 62 55 32 255
0.091455393 -0.18656424 0.52400005 51 44 21 255
0.095186435 -0.19118935 0.537 51 44 21 255
0.10186791 -0.20151077 0.56600004 62 55 32 255
0.10998616 -0.21432403 0.60200006 55 48 25 255
0.11626073 -0.22322071 0.62700003 51 44 21 255
0.12003734 -0.22713298 0.63800001 55 48 25 255
0.12272861 -0.22890919 0.64300001 59 52 29 255
0.12467272 -0.22926143 0.64400005 51 44 21 255
0.12681855 -0.22996968 0.64600003 39 33 16 255
0.12897524 -0.23067798 0.648 37 31 14 255
0.13114282 -0.23138636 0.65000004 37 29 12 255
0.13352577 -0.23245072 0.65300006 34 28 11 255
0.13571782 -0.23315918 0.65500003 31 25 9 255
0.13792075 -0.23386769 0.65700001 35 29 13 255
0.13970929 -0.23386438 0.65700001 33 27 10 255
0.14149784 -0.23386115 0.65700001 34 28 11 255
0.14350449 -0.23421396 0.65800005 34 28 11 255
0.14529578 -0.23421094 0.65800005 36 31 11 255
0.14731063 -0.23456395 0.65900004 40 35 14 255
0.1495572 -0.235273 0.66100001 51 46 25 255
0.15295964 -0.23776186 0.66800004 55 50 29 255
0.15709533 -0.24131854 0.67800003 55 50 29 255
0.16151996 -0.2452312 0.68900001 49 44 23 255
0.16458161 -0.24700838 0.69400001 43 38 18 255
0.16719086 -0.24807389 0.69700003 36 30 13 255
0.16957392 -0.24878363 0.69900006 39 33 16 255
0.17221323 -0.24984941 0.70200002 40 36 19 255
0.17462094 -0.25055945 0.70400006 41 38 18 255
0.17703967 -0.25126967 0.70600003 40 39 17 255
0.17896239 -0.25126821 0.70600003 48 47 25 255
0.18114147 -0.25162289 0.70700002 81 83 65 255
0.18436183 -0.25340134 0.71200001 153 159 141 255
-0.082841948 -0.25372863 0.70700002 106 107 93 255
-0.079198688 -0.2483494 0.69200003 91 89 71 255
-0.076977782 -0.24727665 0.68900001 73 73 55 255
-0.074991167 -0.24692161 0.68800002 61 61 43 255
-0.073222451 -0.24728431 0.68900001 62 62 44 255
-0.071137585 -0.24657024 0.68700004 58 58 38 255
-0.069164351 -0.24621497 0.68600005 59 59 41 255
-0.067196518 -0.24585965 0.68500006 53 51 33 255
-0.065329418 -0.24586318 0.68500006 47 47 29 255
-0.063369595 -0.24550769 0.68400002 45 45 27 255
-0.061415162 -0.24515213 0.68300003 47 47 29 255
-0.059553307 -0.24515542 0.68300003 64 62 44 255
-0.057522453 -0.24444078 0.68100005 53 53 33 255
-0.055502422 -0.24372597 0.67900002 53 54 32 255
-0.052861124 -0.24013951 0.66900003 50 49 27 255
-0.050045419 -0.23547599 0.65600002 42 43 21 255
-0.047594786 -0.2322481 0.64700001 39 37 17 255
-0.045547351 -0.23081489 0.64300001 38 36 18 255
-0.043726012 -0.23045848 0.64200002 35 33 15 255
-0.041910056 -0.23010197 0.64100003 35 33 15 255
-0.040162168 -0.23010436 0.64100003 35 33 15 255
-0.0383543 -0.22974767 0.64000005 38 35 19 255
-0.036551829 -0.22939087 0.63900006 40 37 21 255
-0.034700293 -0.22867498 0.63700002 38 36 18 255
-0.032859623 -0.22795899 0.63500005 46 44 24 255
-0.030931776 -0.22652493 0.63100004 40 38 18 255
-0.027775792 -0.2153978 0.60000002 43 41 23 255
-0.024963135 -0.20570646 0.57300001 102 100 89 255
-0.022828611 -0.20068187 0.55900002 86 84 74 255
-0.020999093 -0.19781117 0.551 95 93 82 255
-0.019319333 -0.19601735 0.546 86 84 73 255
-0.017732136 -0.19494148 0.54300004 84 85 71 255
-0.016131349 -0.19350645 0.53900003 77 76 60 255
-0.014633963 -0.19314837 0.53800005 68 67 51 255
-0.013142012 -0.1927902 0.537 61 61 43 255
-0.011677246 -0.19279097 0.537 60 58 40 255
-0.010174428 -0.1920736 0.53500003 55 53 35 255
-0.0086825071 -0.19135617 0.53300005 59 58 36 255
-0.0072150449 -0.19099762 0.53200001 57 56 34 255
-0.0057638637 -0.19099802 0.53200001 53 52 30 255
-0.0042964611 -0.19028027 0.53000003 50 49 27 255
-0.0028399641 -0.18956245 0.528 43 41 21 255
-0.0013970253 -0.18920358 0.52700001 46 44 26 255
4.0459814e-05 -0.18884461 0.52600002 48 46 26 255
0.0014696846 -0.18812652 0.52400005 47 45 27 255
0.0028935284 -0.18776737 0.523 42 40 22 255
0.0043201731 -0.18776713 0.523 43 41 23 255
0.0057468121 -0.18776682 0.523 43 41 23 255
0.0071460102 -0.18704841 0.52100003 48 46 28 255
0.0085507315 -0.18668891 0.52000004 43 41 23 255
0.0099308137 -0.18597028 0.51800001 45 43 25 255
0.01136567 -0.18632868 0.51900005 43 41 23 255
0.012732084 -0.18560989 0.51700002 49 46 30 255
0.014114925 -0.18525007 0.51600003 41 39 21 255
0.015522373 -0.18524918 0.51600003 39 35 18 255
0.016962608 -0.18560719 0.51700002 37 35 17 255
0.018408274 -0.18596512 0.51800001 43 41 21 255
0.019782847 -0.18560497 0.51700002 40 39 17 255
0.021110943 -0.18488576 0.51500005 41 40 18 255
0.022471817 -0.18452542 0.514 40 39 17 255
0.023873657 -0.18452406 0.514 46 44 24 255
0.025275465 -0.18452258 0.514 43 41 21 255
0.026625335 -0.18416205 0.51300001 42 40 20 255
0.028078975 -0.18451943 0.514 42 41 19 255
0.029480679 -0.18451774 0.514 43 40 19 255
0.030882344 -0.18451598 0.514 40 38 14 255
0.032221157 -0.18415517 0.51300001 39 37 13 255
0.033554479 -0.18379429 0.51200002 41 39 15 255
0.034950566 -0.18379234 0.51200002 40 37 16 255
0.036346614 -0.1837903 0.51200002 44 41 20 255
0.037742611 -0.18378818 0.51200002 46 43 22 255
0.03921501 -0.18414496 0.51300001 41 38 18 255
0.04061364 -0.18414272 0.51300001 45 41 24 255
0.041848432 -0.18342254 0.51100004 45 42 22 255
0.042987652 -0.18234335 0.50800002 41 39 19 255
0.044285163 -0.18198203 0.50700003 44 43 21 255
0.045487091 -0.18126169 0.505 44 43 21 255
0.046770863 -0.18090025 0.50400001 46 45 23 255
0.048240189 -0.18125664 0.505 44 43 21 255
0.049616657 -0.18125403 0.505 40 37 16 255
0.051094051 -0.18161032 0.50600004 39 36 15 255
0.052369431 -0.18124869 0.505 41 36 15 255
0.053639319 -0.18088703 0.50400001 43 38 17 255
0.054794542 -0.18016647 0.50200003 43 38 18 255
0.056162566 -0.18016365 0.50200003 39 34 14 255
0.057645138 -0.18051971 0.50300002 42 35 15 255
0.059133094 -0.18087567 0.50400001 43 36 16 255
0.060506407 -0.18087275 0.50400001 41 34 14 255
0.061879657 -0.1808698 0.50400001 41 34 14 255
0.063378356 -0.18122567 0.505 41 36 16 255
0.064754218 -0.18122265 0.505 40 35 15 255
0.06613002 -0.18121959 0.505 44 39 19 255
0.06763947 -0.18157539 0.50600004 41 36 16 255
0.069154292 -0.18193111 0.50700003 43 37 20 255
0.070813626 -0.18264566 0.509 49 43 26 255
0.072200112 -0.1826425 0.509 48 40 23 255
0.073586561 -0.18263935 0.509 40 33 13 255
0.074972942 -0.18263617 0.509 39 32 12 255
0.076359279 -0.18263301 0.509 38 31 11 255
0.077745564 -0.18262984 0.509 39 32 12 255
0.079287276 -0.18298545 0.51000005 44 37 17 255
0.080676198 -0.18298228 0.51000005 50 40 21 255
0.082225971 -0.18333788 0.51100004 49 40 19 255
0.083617516 -0.18333471 0.51100004 50 41 20 255
0.085341737 -0.1840491 0.51300001 51 42 19 255
0.087076813 -0.18476346 0.51500005 60 51 28 255
0.08899454 -0.18583657 0.51800001 61 54 31 255
0.091452159 -0.18798596 0.52400005 48 41 20 255
0.095183142 -0.19264649 0.537 48 41 20 255
0.10204445 -0.20340548 0.56700003 61 54 31 255
0.11034792 -0.21667527 0.60400003 49 40 17 255
0.11644243 -0.22528124 0.62800002 49 40 17 255
0.12022176 -0.22922356 0.63900006 52 43 20 255
0.1227249 -0.23065481 0.64300001 62 55 32 255
0.12505622 -0.23172733 0.64600003 48 41 20 255
0.12740387 -0.2327999 0.64900005 39 34 14 255
0.12936975 -0.2331551 0.65000004 39 33 16 255
0.1313411 -0.23351038 0.65100002 34 30 13 255
0.13352235 -0.23422441 0.65300006 32 28 12 255
0.13550727 -0.23457982 0.65400004 32 28 12 255
0.13749763 -0.23493528 0.65500003 32 26 10 255
0.13906819 -0.23457351 0.65400004 37 31 14 255
0.1412794 -0.23528783 0.65600002 34 28 11 255
0.14350152 -0.23600227 0.65800005 38 30 13 255
0.14551373 -0.23635811 0.65900004 37 30 10 255
0.14730787 -0.23635541 0.65900004 45 38 18 255
0.14955458 -0.23707014 0.66100001 53 46 26 255
0.15341505 -0.24029553 0.67000002 56 49 29 255
0.15778799 -0.24423826 0.68100005 48 43 23 255
0.16175203 -0.24746379 0.69000006 44 38 21 255
0.16457942 -0.24889621 0.69400001 39 33 16 255
0.16670907 -0.24925286 0.69500005 39 33 16 255
0.16908681 -0.24996826 0.69700003 36 30 13 255
0.17147554 -0.25068384 0.69900006 38 32 15 255
0.17387526 -0.25139961 0.70100003 40 35 15 255
0.176286 -0.25211552 0.70300001 42 39 18 255
0.17845422 -0.25247303 0.70400006 46 46 26 255
0.18114045 -0.25354791 0.70700002 74 78 50 255
0.18461999 -0.25569895 0.71300006 143 147 129 255
-0.083072267 -0.25636724 0.70900005 104 104 94 255
-0.07930924 -0.25058565 0.69300002 90 89 75 255
-0.076973952 -0.24914305 0.68900001 70 70 52 255
-0.074987397 -0.24878523 0.68800002 76 76 56 255
-0.073218733 -0.2491505 0.68900001 63 61 41 255
-0.071237475 -0.24879254 0.68800002 59 58 36 255
-0.069261588 -0.24843447 0.68700004 58 56 36 255
-0.067291096 -0.24807639 0.68600005 50 48 30 255
-0.065325975 -0.24771819 0.68500006 50 48 30 255
-0.063366227 -0.2473599 0.68400002 46 44 26 255
-0.061321959 -0.24663991 0.68200004 56 54 36 255
-0.059462905 -0.24664313 0.68200004 64 62 42 255
-0.057434849 -0.24592295 0.68000001 57 55 35 255
-0.055417642 -0.24520269 0.67800003 59 58 36 255
-0.053095236 -0.2430357 0.67200005 53 52 30 255
-0.050424054 -0.23906024 0.66100001 47 46 24 255
-0.047812801 -0.23508464 0.65000004 44 42 22 255
-0.045757283 -0.23364054 0.64600003 37 35 15 255
-0.043791633 -0.232558 0.64300001 34 32 14 255
-0.042038426 -0.23256041 0.64300001 34 32 14 255
-0.040222518 -0.23220107 0.64200002 34 32 14 255
-0.038412012 -0.23184162 0.64100003 32 29 13 255
-0.036606912 -0.23148209 0.64000005 36 33 17 255
-0.034807216 -0.23112243 0.63900006 37 37 19 255
-0.032857701 -0.2296776 0.63500005 39 37 19 255
-0.030733891 -0.22678585 0.62700003 40 39 17 255
-0.027588997 -0.2155748 0.59600002 51 49 29 255
-0.024918092 -0.20689544 0.57200003 101 98 82 255
-0.022827256 -0.20219465 0.55900002 84 80 69 255
-0.020997839 -0.19930227 0.551 90 89 75 255
-0.019318178 -0.19749491 0.546 81 79 68 255
-0.017731072 -0.19641086 0.54300004 78 77 61 255
-0.016160306 -0.19532672 0.54000002 64 64 46 255
-0.014633083 -0.1946042 0.53800005 56 56 38 255
-0.013165693 -0.19460504 0.53800005 53 53 35 255
-0.011654795 -0.19388232 0.53600001 54 52 34 255
-0.010173813 -0.19352126 0.53500003 54 52 32 255
-0.0086982688 -0.19316012 0.53400004 55 54 32 255
-0.0072281691 -0.19279887 0.53300005 50 49 27 255
-0.005763513 -0.19243753 0.53200001 49 48 24 255
-0.0042880941 -0.19135265 0.52900004 50 49 25 255
-0.0028344132 -0.19062942 0.52700001 47 46 22 255
-0.0013942894 -0.19026782 0.52600002 48 47 25 255
4.0457347e-05 -0.19026786 0.52600002 44 43 21 255
0.0014723997 -0.18990609 0.52500004 42 40 20 255
0.0028822881 -0.18845905 0.52100003 41 39 21 255
0.0043116505 -0.18882056 0.52200001 41 39 21 255
0.0057354756 -0.18882026 0.52200001 43 41 23 255
0.0071455771 -0.18845816 0.52100003 43 41 23 255
0.0085337702 -0.18773423 0.51900005 44 42 24 255
0.0099302121 -0.18737195 0.51800001 45 43 25 255
0.011343085 -0.18737131 0.51800001 42 39 23 255
0.012731315 -0.18700887 0.51700002 42 39 23 255
0.014114074 -0.18664636 0.51600003 46 43 27 255
0.015521441 -0.18664548 0.51600003 42 38 22 255
0.0169944 -0.18736795 0.51800001 38 36 18 255
0.018442713 -0.18772861 0.51900005 43 41 23 255
0.019858195 -0.18772748 0.51900005 38 36 16 255
0.021191668 -0.18700287 0.51700002 39 38 16 255
0.022557924 -0.18663988 0.51600003 44 43 21 255
0.023918694 -0.18627682 0.51500005 44 43 21 255
0.025372323 -0.18663707 0.51600003 45 44 22 255
0.02672758 -0.18627389 0.51500005 44 43 21 255
0.028131969 -0.18627229 0.51500005 42 39 18 255
0.029536325 -0.18627065 0.51500005 40 37 16 255
0.030880561 -0.1859072 0.514 41 38 17 255
0.032282114 -0.18590543 0.514 38 35 14 255
0.0336181 -0.18554187 0.51300001 41 38 17 255
0.035016842 -0.18553995 0.51300001 46 43 22 255
0.036344565 -0.18517628 0.51200002 41 40 18 255
0.037740495 -0.18517423 0.51200002 45 44 22 255
0.039212827 -0.18553376 0.51300001 38 36 16 255
0.040532231 -0.18516994 0.51200002 39 37 19 255
0.041764248 -0.18444438 0.51000005 44 42 22 255
0.042985309 -0.18371877 0.50800002 47 45 25 255
0.044282764 -0.18335479 0.50700003 39 38 16 255
0.045574725 -0.18299076 0.50600004 40 39 17 255
0.046768375 -0.18226503 0.50400001 42 41 19 255
0.048333168 -0.18298583 0.50600004 38 37 15 255
0.049614064 -0.18262167 0.505 42 39 18 255
0.051293347 -0.18370394 0.50800002 40 37 16 255
0.052366752 -0.18261646 0.505 41 36 15 255
0.053743016 -0.18261379 0.505 41 36 15 255
0.05479179 -0.18152626 0.50200003 39 34 13 255
0.056271646 -0.18188512 0.50300002 40 33 13 255
0.057756897 -0.18224394 0.50400001 41 34 14 255
0.059130222 -0.18224113 0.50400001 39 32 11 255
0.060383454 -0.1818767 0.50300002 42 35 14 255
0.061876718 -0.1822354 0.50400001 47 40 19 255
0.063249886 -0.18223248 0.50400001 42 35 14 255
0.064623006 -0.18222955 0.50400001 44 39 19 255
0.065996058 -0.18222661 0.50400001 45 40 20 255
0.067636423 -0.18294676 0.50600004 40 35 15 255
0.069287613 -0.18366684 0.50800002 39 33 16 255
0.071088776 -0.18474847 0.51100004 40 32 15 255
0.072338864 -0.18438388 0.51000005 44 36 19 255
0.073872581 -0.18474233 0.51100004 47 40 20 255
0.075117119 -0.18437773 0.51000005 45 38 18 255
0.076506175 -0.18437465 0.51000005 38 31 11 255
0.077895179 -0.18437158 0.51000005 41 34 14 255
0.079439603 -0.18473001 0.51100004 42 37 17 255
0.080831252 -0.18472694 0.51100004 42 35 15 255
0.082222849 -0.1847239 0.51100004 53 44 23 255
0.083778039 -0.18508232 0.51200002 49 40 19 255
0.085504986 -0.18580224 0.514 51 42 19 255
0.087411858 -0.18688361 0.51700002 58 49 26 255
0.089163251 -0.18760355 0.51900005 63 54 31 255
0.091623567 -0.1897693 0.52500004 51 44 23 255
0.09517999 -0.19410376 0.537 51 44 23 255
0.10258106 -0.20602871 0.57000005 61 52 29 255
0.11107522 -0.21976051 0.60800004 53 44 21 255
0.11736593 -0.22879319 0.63300002 51 42 19 255
0.12078258 -0.23204267 0.64200002 56 47 24 255
0.12310308 -0.2331235 0.64500004 61 52 29 255
0.12524632 -0.23384291 0.64700001 51 44 23 255
0.12779304 -0.23528522 0.65100002 36 31 11 255
0.12976444 -0.23564334 0.65200001 33 29 12 255
0.13194303 -0.2363629 0.65400004 33 29 12 255
0.13392806 -0.23672116 0.65500003 32 28 12 255
0.13591851 -0.23707944 0.65600002 33 27 10 255
0.13770449 -0.23707646 0.65600002 31 25 8 255
0.13927786 -0.23671216 0.65500003 36 30 13 255
0.14127654 -0.23707075 0.65600002 37 29 12 255
0.14349875 -0.23779084 0.65800005 40 32 15 255
0.14551108 -0.23814961 0.65900004 42 35 15 255
0.1477524 -0.23886989 0.66100001 46 39 19 255
0.15023091 -0.23995166 0.66400003 55 48 28 255
0.15455762 -0.24392447 0.67500001 57 50 30 255
0.15894426 -0.24789739 0.68600005 50 42 25 255
0.16245319 -0.25042486 0.69300002 37 31 14 255
0.16457745 -0.25078434 0.69400001 43 37 21 255
0.16694714 -0.25150535 0.69600004 42 36 19 255
0.16932778 -0.25222647 0.69800001 37 31 14 255
0.1719647 -0.2533091 0.70100003 35 29 12 255
0.17412202 -0.25366923 0.70200002 40 35 15 255
0.17653565 -0.2543909 0.70400006 44 41 20 255
0.17845333 -0.25439003 0.70400006 50 50 32 255
0.18113974 -0.25547338 0.70700002 68 70 52 255
0.18461949 -0.25764105 0.71300006 140 146 129 255
-0.082834005 -0.2575596 0.70700002 96 98 90 255
-0.079191014 -0.25209886 0.69200003 69 68 52 255
-0.076970235 -0.25100961 0.68900001 78 78 60 255
-0.074874744 -0.25028464 0.68700004 70 70 52 255
-0.073002599 -0.25028822 0.68700004 64 62 44 255
-0.071026839 -0.2499274 0.68600005 62 60 42 255
-0.069157287 -0.2499309 0.68600005 51 49 31 255
-0.067287669 -0.2499343 0.68600005 52 50 32 255
-0.065417975 -0.24993762 0.68600005 50 48 30 255
-0.063362934 -0.24921222 0.68400002 60 58 40 255
-0.061318751 -0.24848673 0.68200004 66 64 44 255
-0.059372585 -0.24812552 0.68100005 61 60 38 255
-0.057347342 -0.24739984 0.67900002 56 55 33 255
-0.055332944 -0.24667408 0.67700005 58 57 33 255
-0.05332939 -0.24594821 0.67500001 59 58 34 255
-0.050802719 -0.24267168 0.66600001 48 47 25 255
-0.047957294 -0.2375731 0.65200001 44 43 21 255
-0.04561311 -0.23466063 0.64400005 40 38 18 255
-0.04372111 -0.2339343 0.64200002 38 36 18 255
-0.041970707 -0.23393664 0.64200002 34 32 14 255
-0.040220264 -0.23393892 0.64200002 36 34 16 255
-0.038409851 -0.2335767 0.64100003 38 36 18 255
-0.03660484 -0.23321441 0.64000005 32 30 12 255
-0.034750771 -0.23248759 0.63800001 40 38 20 255
-0.032804083 -0.23103188 0.634 44 42 22 255
-0.030438043 -0.22629644 0.62100005 40 39 17 255
-0.027355971 -0.21536583 0.59100002 67 65 45 255
-0.024916653 -0.20844351 0.57200003 86 84 66 255
-0.02282593 -0.2037075 0.55900002 80 78 60 255
-0.020996619 -0.20079345 0.551 72 70 52 255
-0.01931705 -0.19897251 0.546 77 75 57 255
-0.017730035 -0.19788034 0.54300004 60 58 40 255
-0.016189283 -0.19715248 0.54100001 54 54 36 255
-0.014632221 -0.19606011 0.53800005 53 53 35 255
-0.013140445 -0.19569647 0.537 52 52 32 255
-0.011610622 -0.19460392 0.53400004 54 53 31 255
-0.010173209 -0.19496898 0.53500003 50 49 25 255
-0.0086814649 -0.19424069 0.53300005 46 45 21 255
-0.0072141783 -0.1938767 0.53200001 44 43 21 255
-0.0057415045 -0.19314826 0.53000003 47 48 26 255
-0.0042797332 -0.19241966 0.528 48 47 25 255
-0.0028288662 -0.19169101 0.52600002 48 47 25 255
-0.001391556 -0.19132672 0.52500004 50 49 27 255
4.0378029e-05 -0.19132675 0.52500004 49 48 26 255
0.001472312 -0.19132671 0.52500004 43 41 21 255
0.0028876483 -0.19023328 0.52200001 43 41 23 255
0.0043113939 -0.19023307 0.52200001 47 45 27 255
0.0057241474 -0.18986835 0.52100003 44 42 22 255
0.0071314378 -0.18950354 0.52000004 50 48 30 255
0.008516822 -0.18877423 0.51800001 47 45 27 255
0.0099296244 -0.18877368 0.51800001 42 40 22 255
0.011342415 -0.18877307 0.51800001 46 44 24 255
0.012730564 -0.18840791 0.51700002 41 39 21 255
0.014140596 -0.18840715 0.51700002 40 38 20 255
0.015520528 -0.18804185 0.51600003 43 41 23 255
0.0169606 -0.18840535 0.51700002 37 35 17 255
0.018370569 -0.18840431 0.51700002 37 35 17 255
0.019818775 -0.18876763 0.51800001 40 38 20 255
0.021108463 -0.18767323 0.51500005 41 39 19 255
0.022512905 -0.18767199 0.51500005 39 37 17 255
0.023917317 -0.18767065 0.51500005 42 39 19 255
0.0253217 -0.18766925 0.51500005 40 37 17 255
0.026726052 -0.18766779 0.51500005 44 41 21 255
0.028130369 -0.18766624 0.51500005 39 36 15 255
0.029534653 -0.18766461 0.51500005 42 40 20 255
0.030938903 -0.18766293 0.51500005 37 35 15 255
0.032343112 -0.18766119 0.51500005 42 40 22 255
0.033681754 -0.18729495 0.514 45 43 25 255
0.035014905 -0.18692869 0.51300001 45 43 25 255
0.036271583 -0.186198 0.51100004 42 40 22 255
0.037738435 -0.18656038 0.51200002 42 40 20 255
0.039134264 -0.18655829 0.51200002 38 36 16 255
0.040450886 -0.18619181 0.51100004 39 37 19 255
0.041598242 -0.18509653 0.50800002 42 40 20 255
0.042983029 -0.18509431 0.50800002 45 43 23 255
0.0441931 -0.18436332 0.50600004 42 41 19 255
0.045662403 -0.18472534 0.50700003 42 41 19 255
0.046765953 -0.18362992 0.50400001 43 42 20 255
0.048330687 -0.18435621 0.50600004 41 40 18 255
0.049611542 -0.18398939 0.505 41 38 18 255
0.051088832 -0.18435122 0.50600004 41 38 18 255
0.052260451 -0.18362001 0.50400001 41 36 15 255
0.053633947 -0.1836174 0.50400001 39 34 14 255
0.054898255 -0.18325047 0.50300002 44 39 18 255
0.05638079 -0.18361211 0.50400001 41 34 13 255
0.05775414 -0.18360941 0.50400001 42 35 14 255
0.059127435 -0.18360668 0.50400001 44 37 16 255
0.060380641 -0.18323962 0.50300002 44 37 16 255
0.061751112 -0.18323684 0.50300002 48 41 20 255
0.063121527 -0.18323402 0.50300002 45 40 19 255
0.064620107 -0.18359546 0.50400001 40 35 15 255
0.065993145 -0.18359259 0.50400001 42 37 17 255
0.067767143 -0.18468255 0.50700003 43 38 18 255
0.06928464 -0.18504387 0.50800002 39 31 14 255
0.070807546 -0.18540518 0.509 37 29 12 255
0.07219401 -0.18540226 0.509 39 31 14 255
0.073725007 -0.18576355 0.51000005 41 34 14 255
0.075114101 -0.18576059 0.51000005 42 35 14 255
0.076503158 -0.18575762 0.51000005 43 38 17 255
0.077892162 -0.18575466 0.51000005 43 38 17 255
0.079125665 -0.18538746 0.509 40 35 14 255
0.080670066 -0.18574877 0.51000005 41 34 13 255
0.081898049 -0.18538159 0.509 47 40 20 255
0.083284177 -0.18537869 0.509 51 44 24 255
0.085002966 -0.18610416 0.51100004 49 42 21 255
0.086732604 -0.18682964 0.51300001 52 45 24 255
0.088816687 -0.18828352 0.51700002 64 57 37 255
0.091271549 -0.19046569 0.523 48 43 23 255
0.095176972 -0.19556123 0.537 48 43 23 255
0.10293781 -0.20830421 0.57200003 56 49 29 255
0.11180264 -0.22286767 0.61200005 49 42 21 255
0.11773333 -0.23124005 0.63500005 49 42 21 255
0.12077918 -0.23378581 0.64200002 52 45 24 255
0.12329057 -0.23523912 0.64600003 56 49 29 255
0.12563019 -0.23632833 0.64900005 48 43 23 255
0.12798609 -0.23741753 0.65200001 36 30 13 255
0.12996028 -0.23777854 0.65300006 33 29 12 255
0.1317382 -0.23777552 0.65300006 33 29 12 255
0.13372056 -0.23813666 0.65400004 34 30 13 255
0.13550119 -0.23813377 0.65400004 34 28 11 255
0.13749175 -0.2384951 0.65500003 36 30 13 255
0.13906249 -0.23812832 0.65400004 33 27 10 255
0.14105855 -0.23848985 0.65500003 36 30 13 255
0.14306004 -0.23885147 0.65600002 40 33 13 255
0.14528786 -0.23957734 0.65800005 45 38 18 255
0.14797361 -0.24103145 0.66200006 55 48 28 255
0.15090749 -0.24284981 0.66700006 59 52 32 255
0.15547141 -0.24721687 0.67900002 56 49 29 255
0.15940566 -0.25049171 0.68800002 42 34 17 255
0.16268577 -0.25267446 0.69400001 39 31 14 255
0.16457579 -0.25267282 0.69400001 42 34 17 255
0.16670574 -0.25303543 0.69500005 36 30 13 255
0.16884124 -0.25339824 0.69600004 41 35 18 255
0.17171821 -0.2548534 0.70000005 39 33 16 255
0.17362495 -0.25485244 0.70000005 39 36 16 255
0.17578258 -0.25521576 0.70100003 43 41 21 255
0.17769226 -0.25521517 0.70100003 50 50 32 255
0.18062693 -0.2566711 0.70500004 78 81 67 255
0.18461929 -0.25958353 0.71300006 140 145 133 255
-0.0825959 -0.25874132 0.70500004 92 94 86 255
-0.079301775 -0.25434086 0.69300002 73 74 60 255
-0.077078335 -0.25324339 0.69000006 62 64 46 255
-0.075089149 -0.25287989 0.68900001 63 63 45 255
-0.07299909 -0.25214934 0.68700004 56 56 38 255
-0.07112693 -0.25215277 0.68700004 59 57 37 255
-0.069254704 -0.25215614 0.68700004 56 54 36 255
-0.067480497 -0.25252649 0.68800002 56 54 36 255
-0.065510072 -0.25216272 0.68700004 53 51 33 255
-0.063452385 -0.25143182 0.68500006 67 65 47 255
-0.06140554 -0.2507008 0.68300003 63 61 41 255
-0.059456721 -0.2503368 0.68200004 61 60 38 255
-0.057344373 -0.24923855 0.67900002 56 55 33 255
-0.055411786 -0.24887438 0.67800003 59 58 34 255
-0.053405598 -0.24814306 0.67600006 55 55 29 255
-0.051105134 -0.24594329 0.67000002 49 48 24 255
-0.048248935 -0.24080674 0.65600002 48 47 25 255
-0.045752309 -0.23713838 0.64600003 43 41 21 255
-0.043786846 -0.23603947 0.64300001 41 39 21 255
-0.041968428 -0.23567466 0.64200002 34 32 14 255
-0.04021807 -0.2356769 0.64200002 35 33 15 255
-0.038407739 -0.23531191 0.64100003 35 33 15 255
-0.036602817 -0.23494686 0.64000005 34 32 14 255
-0.034803309 -0.23458172 0.63900006 39 37 17 255
-0.03280225 -0.23274802 0.634 40 39 17 255
-0.030289298 -0.22687598 0.61800003 36 35 13 255
-0.027354432 -0.21696548 0.59100002 97 96 74 255
-0.024958804 -0.21035881 0.57300001 87 85 65 255
-0.02286547 -0.2055876 0.56 78 76 58 255
-0.020995423 -0.20228472 0.551 65 63 43 255
-0.019315947 -0.20045024 0.546 65 63 45 255
-0.017729022 -0.19934992 0.54300004 59 57 39 255
-0.016188351 -0.19861659 0.54100001 56 54 36 255
-0.014658576 -0.19788325 0.53900003 56 54 34 255
-0.013164157 -0.1975169 0.53800005 53 52 30 255
-0.011653434 -0.19678333 0.53600001 47 47 21 255
-0.010210649 -0.19715109 0.537 51 51 25 255
-0.008697249 -0.19605024 0.53400004 46 46 20 255
-0.0072273202 -0.19568357 0.53300005 45 44 20 255
-0.0057411715 -0.19458252 0.53000003 49 48 24 255
-0.0042875893 -0.19421567 0.52900004 44 43 21 255
-0.0028340793 -0.19348159 0.52700001 44 43 21 255
-0.0013967758 -0.19348171 0.52700001 47 46 24 255
4.0606399e-05 -0.19384888 0.528 46 44 24 255
0.001480639 -0.19384883 0.528 43 41 21 255
0.0028985436 -0.19238019 0.52400005 42 40 20 255
0.0043111439 -0.1916457 0.52200001 43 41 23 255
0.0057128291 -0.19091114 0.52000004 42 40 22 255
0.007144738 -0.19127789 0.52100003 43 41 23 255
0.0085492115 -0.19091032 0.52000004 45 43 25 255
0.0099865543 -0.19127691 0.52100003 45 43 25 255
0.011363654 -0.19054204 0.51900005 40 38 18 255
0.012754453 -0.19017421 0.51800001 45 42 22 255
0.014112433 -0.18943921 0.51600003 44 40 23 255
0.015549715 -0.18980546 0.51700002 44 42 24 255
0.016992433 -0.19017167 0.51800001 40 38 20 255
0.018405052 -0.19017069 0.51800001 40 38 20 255
0.019779392 -0.1898025 0.51700002 39 37 19 255
0.021148253 -0.18943423 0.51600003 41 39 19 255
0.022555344 -0.18943299 0.51600003 42 40 20 255
0.023915974 -0.18906461 0.51500005 37 34 14 255
0.025320284 -0.18906325 0.51500005 43 40 20 255
0.026776453 -0.1894289 0.51600003 43 40 20 255
0.028183429 -0.18942739 0.51600003 45 42 22 255
0.029590368 -0.18942581 0.51600003 38 36 16 255
0.030937204 -0.18905708 0.51500005 36 34 14 255
0.032341346 -0.18905537 0.51500005 41 39 21 255
0.033614404 -0.18831939 0.51300001 47 45 27 255
0.03501302 -0.18831757 0.51300001 40 38 20 255
0.036269639 -0.18758149 0.51100004 38 36 18 255
0.037810124 -0.18831369 0.51300001 37 35 15 255
0.039132196 -0.18794462 0.51200002 39 37 17 255
0.040527921 -0.18794255 0.51200002 40 38 20 255
0.041677952 -0.18683921 0.509 44 42 24 255
0.043065418 -0.18683703 0.509 44 41 21 255
0.044365495 -0.18646775 0.50800002 42 40 20 255
0.045750141 -0.18646547 0.50800002 40 39 17 255
0.046949174 -0.18572906 0.50600004 42 41 19 255
0.048328277 -0.1857267 0.50600004 43 42 20 255
0.049609087 -0.18535723 0.505 42 39 19 255
0.05098537 -0.18535481 0.505 40 38 18 255
0.052257918 -0.18498529 0.50400001 40 37 17 255
0.053737789 -0.18534981 0.505 41 36 16 255
0.055004787 -0.18498023 0.50400001 43 38 18 255
0.056490015 -0.18534467 0.505 38 33 12 255
0.057751462 -0.18497503 0.50400001 41 34 13 255
0.059124731 -0.18497238 0.50400001 43 36 15 255
0.060377911 -0.18460269 0.50300002 45 38 17 255
0.061748348 -0.1846 0.50300002 45 38 17 255
0.063118756 -0.18459728 0.50300002 40 35 14 255
0.064617306 -0.18496153 0.50400001 41 34 13 255
0.066121258 -0.18532571 0.505 43 38 18 255
0.06776429 -0.1860569 0.50700003 40 35 15 255
0.069145389 -0.1860541 0.50700003 39 32 12 255
0.070665553 -0.18641824 0.50800002 39 31 14 255
0.072191112 -0.18678235 0.509 41 33 16 255
0.073722102 -0.1871465 0.51000005 40 35 15 255
0.075258479 -0.18751058 0.51100004 39 34 13 255
0.076500252 -0.18714078 0.51000005 42 37 16 255
0.077889271 -0.18713795 0.51000005 41 36 15 255
0.079278238 -0.18713509 0.51000005 41 36 15 255
0.080667175 -0.18713225 0.51000005 42 35 14 255
0.08205609 -0.18712944 0.51000005 48 41 20 255
0.083444953 -0.18712664 0.51000005 47 40 19 255
0.085000113 -0.18749076 0.51100004 51 44 23 255
0.086729772 -0.18822178 0.51300001 59 52 31 255
0.088642083 -0.18931974 0.51600003 54 49 29 255
0.091094226 -0.19151837 0.52200001 48 43 23 255
0.095174111 -0.19701895 0.537 48 43 23 255
0.10347467 -0.21095774 0.57500005 59 52 31 255
0.11234748 -0.2256299 0.61500001 51 44 23 255
0.11810089 -0.23369806 0.63700002 48 41 20 255
0.12077596 -0.23552924 0.64200002 54 47 26 255
0.12328739 -0.2369936 0.64600003 58 53 32 255
0.12543347 -0.23772426 0.648 48 43 23 255
0.12778673 -0.23882185 0.65100002 33 29 12 255
0.12975828 -0.2391858 0.65200001 34 30 13 255
0.13193703 -0.23991664 0.65400004 33 29 12 255
0.1339222 -0.24028072 0.65500003 30 26 9 255
0.13570565 -0.24027805 0.65500003 37 31 14 255
0.13748913 -0.24027547 0.65500003 34 28 11 255
0.13948523 -0.24063984 0.65600002 35 29 12 255
0.14105612 -0.24027064 0.65500003 35 29 12 255
0.14327581 -0.24100204 0.65700001 43 36 16 255
0.14528565 -0.24136674 0.65800005 45 38 18 255
0.14841859 -0.24356563 0.66400003 53 46 26 255
0.15181048 -0.24613141 0.671 54 47 27 255
0.15661441 -0.25089818 0.68400002 46 39 19 255
0.16009903 -0.25346419 0.69100004 42 35 15 255
0.16291861 -0.25492987 0.69500005 39 31 14 255
0.16481149 -0.2549285 0.69500005 41 35 18 255
0.16694437 -0.25529411 0.69600004 38 32 15 255
0.16908275 -0.25565988 0.69700003 41 35 18 255
0.17196262 -0.25712621 0.70100003 42 36 19 255
0.17387226 -0.25712556 0.70100003 40 37 17 255
0.17603281 -0.25749189 0.70200002 40 38 18 255
0.17769195 -0.25712481 0.70100003 48 47 31 255
0.18062682 -0.25859195 0.70500004 70 71 57 255
0.1846194 -0.26152647 0.71300006 148 153 142 255
-0.082357928 -0.25991243 0.70300001 101 101 93 255
-0.079069354 -0.25547931 0.69100004 74 73 57 255
-0.076963119 -0.25474331 0.68900001 69 69 51 255
-0.07497672 -0.25437701 0.68800002 59 59 41 255
-0.07288944 -0.25364092 0.68600005 56 56 38 255
-0.070813 -0.25290474 0.68400002 59 59 41 255
-0.068848208 -0.25253826 0.68300003 57 57 39 255
-0.067084946 -0.25291121 0.68400002 52 52 34 255
-0.065316185 -0.25328413 0.68500006 53 51 33 255
-0.063356645 -0.25291741 0.68400002 63 61 43 255
-0.061312608 -0.25218093 0.68200004 61 59 41 255
-0.059192225 -0.25107458 0.67900002 60 58 40 255
-0.057257045 -0.25070769 0.67800003 51 49 31 255
-0.055408977 -0.25071046 0.67800003 64 62 44 255
-0.053560864 -0.25071323 0.67800003 56 54 34 255
-0.051407594 -0.24923672 0.67400002 55 53 33 255
-0.048614167 -0.24443202 0.66100001 51 49 29 255
-0.04596239 -0.23999692 0.64900005 38 36 16 255
-0.04392074 -0.23852007 0.64500004 36 34 16 255
-0.041966211 -0.23741287 0.64200002 35 33 13 255
-0.040215932 -0.23741503 0.64200002 36 34 14 255
-0.038345765 -0.23667747 0.64000005 36 34 14 255
-0.036600847 -0.23667948 0.64000005 35 33 13 255
-0.03474696 -0.23594172 0.63800001 36 35 13 255
-0.03280047 -0.23446427 0.634 39 38 16 255
-0.030287646 -0.22854888 0.61800003 38 37 15 255
-0.027352933 -0.21856524 0.59100002 105 104 80 255
-0.025000986 -0.21227966 0.574 91 90 68 255
-0.022905035 -0.20747323 0.56100005 64 63 41 255
-0.020994259 -0.20377614 0.551 62 61 39 255
-0.019314874 -0.20192808 0.546 54 53 31 255
-0.017728033 -0.20081963 0.54300004 55 53 33 255
-0.016187446 -0.20008087 0.54100001 55 53 35 255
-0.014657754 -0.19934206 0.53900003 55 53 35 255
-0.013138948 -0.19860315 0.537 54 53 31 255
-0.011609297 -0.19749431 0.53400004 51 49 24 255
-0.010172047 -0.19786477 0.53500003 51 49 24 255
-0.0086967582 -0.19749546 0.53400004 45 45 19 255
-0.0072269114 -0.19712608 0.53300005 45 45 19 255
-0.0057516773 -0.19638672 0.53100002 49 49 23 255
-0.0042954516 -0.19601719 0.53000003 46 45 21 255
-0.0028446738 -0.19564754 0.52900004 41 40 18 255
-0.0013993467 -0.19527778 0.528 44 42 22 255
4.0604093e-05 -0.19527782 0.528 50 48 30 255
0.0014805549 -0.19527778 0.528 39 37 19 255
0.0029039104 -0.19416815 0.52500004 47 45 27 255
0.0043191575 -0.19342825 0.523 43 41 23 255
0.0057125054 -0.19231845 0.52000004 43 43 25 255
0.0071443338 -0.19268794 0.52100003 44 44 26 255
0.0085487282 -0.19231766 0.52000004 40 38 18 255
0.0099668242 -0.19231714 0.52000004 41 39 19 255
0.01134112 -0.19157685 0.51800001 42 41 19 255
0.012729115 -0.19120635 0.51700002 39 36 15 255
0.014138989 -0.19120561 0.51700002 45 42 22 255
0.015548846 -0.19120479 0.51700002 47 46 24 255
0.016958682 -0.19120388 0.51700002 43 41 21 255
0.018368499 -0.19120291 0.51700002 41 39 21 255
0.019740039 -0.19083203 0.51600003 42 40 20 255
0.0211061 -0.1904611 0.51500005 42 40 20 255
0.022510394 -0.19045992 0.51500005 43 40 20 255
0.023868226 -0.19008882 0.514 39 36 16 255
0.025269736 -0.1900875 0.514 39 36 16 255
0.02667122 -0.1900861 0.514 42 40 20 255
0.02812729 -0.19045448 0.51500005 41 39 19 255
0.029531434 -0.19045293 0.51500005 39 37 17 255
0.030935548 -0.19045132 0.51500005 38 36 16 255
0.032276824 -0.19007984 0.514 40 38 20 255
0.033612628 -0.18970834 0.51300001 43 41 23 255
