ply
format ascii 1.0
comment PCL generated
element vertex 951
property float x
property float y
property float z
property uchar red
property uchar green
property uchar blue
property uchar alpha
element camera 0
property float view_px
property float view_py
property float view_pz
property float x_axisx
property float x_axisy
property float x_axisz
property float y_axisx
property float y_axisy
property float y_axisz
property float z_axisx
property float z_axisy
property float z_axisz
property float focal
property float scalex
property float scaley
property float centerx
property float centery
property int viewportx
property int viewporty
property float k1
property float k2
end_header
-0.1020709 -0.078309767 0.565 50 48 30 255
-0.10053053 -0.078315072 0.565 52 50 32 255
-0.098989896 -0.078320354 0.565 46 44 26 255
-0.097448997 -0.07832557 0.565 50 48 30 255
-0.09624733 -0.078608021 0.56700003 46 44 26 255
-0.094533436 -0.078474529 0.56600004 51 49 31 255
-0.09298902 -0.078479618 0.56600004 50 48 30 255
-0.091444343 -0.078484662 0.56600004 62 60 42 255
-0.090217076 -0.078766987 0.56800002 49 47 27 255
-0.088666424 -0.078771941 0.56800002 47 46 24 255
-0.087115534 -0.078776844 0.56800002 51 50 28 255
-0.085714996 -0.078920379 0.56900001 56 54 34 255
-0.084308758 -0.079063877 0.57000005 73 71 51 255
-0.08246126 -0.078791171 0.56800002 68 66 46 255
-0.080909356 -0.078795835 0.56800002 65 63 43 255
-0.079217471 -0.078661703 0.56700003 62 62 42 255
-0.077941753 -0.078943707 0.56900001 62 62 42 255
-0.076520614 -0.079086922 0.57000005 56 54 34 255
-0.075356789 -0.079507604 0.57300001 58 57 35 255
-0.073789991 -0.07951197 0.57300001 56 53 32 255
-0.072222933 -0.079516262 0.57300001 53 50 29 255
-0.070655659 -0.079520486 0.57300001 45 43 19 255
-0.069088161 -0.079524636 0.57300001 50 46 22 255
-0.067402586 -0.079389922 0.57200003 53 48 27 255
-0.065837368 -0.079393908 0.57200003 42 39 19 255
-0.064496651 -0.079675443 0.574 43 40 20 255
-0.06303516 -0.079818107 0.57500005 43 39 22 255
-0.061461072 -0.079821885 0.57500005 43 41 23 255
-0.060199238 -0.080242068 0.57800001 39 37 19 255
-0.058616515 -0.080245689 0.57800001 44 42 24 255
-0.057132285 -0.080388092 0.57900006 49 47 27 255
-0.055354562 -0.080113865 0.57700002 53 52 30 255
-0.053867184 -0.080256097 0.57800001 52 51 29 255
-0.052374147 -0.080398247 0.57900006 50 49 27 255
-0.051314015 -0.081234634 0.58500004 61 58 37 255
-0.050135855 -0.081932135 0.59000003 60 59 37 255
-0.048847865 -0.082490712 0.59400004 49 47 27 255
-0.04737879 -0.082771488 0.59600002 42 40 20 255
-0.045821819 -0.082913309 0.597 40 36 19 255
-0.044259209 -0.083055042 0.59800005 34 32 14 255
-0.042690944 -0.083196685 0.59900004 32 30 12 255
-0.041048519 -0.083199352 0.59900004 34 30 13 255
-0.039405935 -0.083201915 0.59900004 33 31 13 255
-0.037826248 -0.083343275 0.60000002 33 31 13 255
-0.036060039 -0.083067827 0.59800005 35 33 15 255
-0.034304664 -0.08279226 0.59600002 32 32 14 255
-0.032505319 -0.082377672 0.59300005 37 37 17 255
-0.030826448 -0.082240775 0.59200001 36 36 16 255
-0.029202277 -0.08224272 0.59200001 43 43 25 255
-0.027624583 -0.082383476 0.59300005 46 44 26 255
-0.026128978 -0.082802005 0.59600002 46 44 26 255
-0.024657907 -0.083359376 0.60000002 44 40 23 255
-0.023049731 -0.083499856 0.60100001 42 38 21 255
-0.021329151 -0.083223425 0.59900004 37 33 16 255
-0.019619469 -0.082946882 0.597 39 35 18 255
-0.017980928 -0.082948104 0.597 40 36 19 255
-0.016397066 -0.08322712 0.59900004 43 39 22 255
-0.014777533 -0.083367079 0.60000002 47 43 27 255
-0.013261873 -0.084201671 0.60600001 49 45 28 255
-0.011770641 -0.085453019 0.61500001 60 54 37 255
-0.010229952 -0.086704277 0.62400001 62 58 41 255
-0.0085852137 -0.087399639 0.62900001 68 63 43 255
-0.006902087 -0.087955937 0.63300002 60 55 34 255
-0.0051724962 -0.088095292 0.634 57 53 29 255
-0.0034373954 -0.088234536 0.63500005 52 48 24 255
-0.0016967902 -0.088373646 0.63600004 52 47 26 255
4.954452e-05 -0.088929519 0.64000005 46 41 21 255
0.001812196 -0.089207351 0.64200002 50 46 29 255
0.0035858224 -0.089485094 0.64400005 47 43 26 255
0.0053621018 -0.089623742 0.64500004 44 40 23 255
0.0071438514 -0.089762285 0.64600003 41 37 20 255
0.0089448672 -0.090039663 0.648 46 43 23 255
0.010773377 -0.090455852 0.65100002 48 44 27 255
0.012656906 -0.091149829 0.65600002 50 46 29 255
0.014567836 -0.091843687 0.66100001 54 50 34 255
0.016431807 -0.092120558 0.66300005 59 53 37 255
0.018361753 -0.092675209 0.66700006 59 53 37 255
0.020313585 -0.093229711 0.671 48 42 26 255
0.022254279 -0.093645148 0.67400002 51 45 28 255
0.024175594 -0.09392152 0.67600006 47 43 26 255
0.026069282 -0.094058812 0.67700005 47 43 26 255
0.028133366 -0.094751723 0.68200004 57 54 33 255
0.030224785 -0.095444493 0.68700004 57 54 33 255
0.032343525 -0.096137092 0.69200003 51 49 25 255
0.034440104 -0.096690647 0.69600004 61 59 35 255
0.03687185 -0.098077551 0.70600003 63 61 37 255
0.039853062 -0.10071453 0.72500002 63 61 37 255
0.043515492 -0.10474037 0.75400001 63 61 37 255
0.046671841 -0.10723788 0.77200001 72 69 48 255
0.049168371 -0.10806827 0.77800006 74 73 51 255
0.0519614 -0.10945407 0.78800005 69 67 47 255
0.054809079 -0.11083967 0.79800004 59 57 39 255
0.057782814 -0.11236393 0.80900002 60 57 41 255
0.060519993 -0.11333241 0.81600004 58 56 38 255
0.06321843 -0.11416181 0.82200003 50 48 30 255
0.065869875 -0.11485214 0.82700002 54 50 33 255
0.068301328 -0.11512569 0.82900006 53 49 32 255
0.070743494 -0.11539907 0.83100003 43 39 22 255
0.073196366 -0.11567231 0.83300006 47 41 24 255
0.075659946 -0.11594539 0.83500004 56 48 31 255
0.078320913 -0.11649602 0.83900005 45 39 22 255
0.080811344 -0.11676881 0.84100002 48 42 25 255
0.083510101 -0.11731911 0.84500003 49 41 24 255
0.085824206 -0.11731391 0.84500003 44 38 22 255
0.088450938 -0.11772508 0.84800005 45 41 27 255
0.090986744 -0.11799727 0.85000002 47 43 29 255
0.093642965 -0.11840811 0.85300004 51 48 34 255
0.096090265 -0.11854118 0.85400003 49 46 32 255
0.098888479 -0.11909054 0.85800004 51 48 32 255
0.10253418 -0.12061126 0.86900002 64 61 45 255
0.10841285 -0.12462988 0.89800006 64 61 45 255
0.11346211 -0.12753771 0.91900003 82 79 63 255
0.11685915 -0.12850234 0.92600006 72 73 59 255
-0.18894662 -0.090322919 0.64100003 207 217 216 255
-0.18399666 -0.088778913 0.63000005 210 220 219 255
-0.17939553 -0.087375663 0.62 199 207 204 255
-0.17542177 -0.086254165 0.61200005 101 109 102 255
-0.17205909 -0.085414432 0.60600001 106 115 104 255
-0.16816638 -0.084292717 0.59800005 150 157 145 255
-0.16570941 -0.083875716 0.59500003 130 135 121 255
-0.16271694 -0.083176732 0.59000003 100 101 87 255
-0.15975146 -0.082477696 0.58500004 96 95 79 255
-0.15681292 -0.081778578 0.58000004 101 100 84 255
-0.15497196 -0.081643425 0.57900006 93 92 76 255
-0.15340118 -0.081649296 0.57900006 95 95 77 255
-0.15183023 -0.081655174 0.57900006 104 105 83 255
-0.14922099 -0.081096932 0.57500005 100 99 77 255
-0.14740369 -0.080961771 0.574 82 80 60 255
-0.14559162 -0.080826603 0.57300001 91 91 71 255
-0.14428751 -0.080973566 0.574 76 76 58 255
-0.14272912 -0.080979481 0.574 68 68 50 255
-0.14117052 -0.080985405 0.574 75 75 57 255
-0.13936846 -0.080850244 0.57300001 65 65 47 255
-0.13757163 -0.08071506 0.57200003 70 68 50 255
-0.13577999 -0.080579862 0.57100004 69 67 49 255
-0.13446371 -0.080726899 0.57200003 70 68 50 255
-0.13314176 -0.080873944 0.57300001 72 70 52 255
-0.13135487 -0.080738723 0.57200003 66 64 44 255
-0.12957317 -0.080603473 0.57100004 54 52 32 255
-0.12734824 -0.080185838 0.56800002 51 50 28 255
-0.12580384 -0.080191687 0.56800002 52 51 29 255
-0.12404045 -0.080056332 0.56700003 52 50 30 255
-0.12271433 -0.080203332 0.56800002 53 53 33 255
-0.12074257 -0.079926722 0.56600004 54 56 38 255
-0.118992 -0.079791255 0.565 46 48 30 255
-0.11745451 -0.079796977 0.565 47 47 29 255
-0.11612196 -0.079943947 0.56600004 44 42 24 255
-0.11437879 -0.079808377 0.565 53 51 33 255
-0.11284055 -0.079814039 0.565 46 42 25 255
-0.11149905 -0.079960957 0.56600004 51 47 30 255
-0.10995755 -0.07996656 0.56600004 60 58 40 255
-0.10822425 -0.07983084 0.565 55 53 35 255
-0.10668497 -0.079836383 0.565 65 63 45 255
-0.10495932 -0.079700567 0.56400001 55 53 35 255
-0.10360561 -0.079847343 0.565 49 47 29 255
-0.10206554 -0.079852767 0.565 54 52 34 255
-0.10052521 -0.079858154 0.565 60 58 40 255
-0.099159807 -0.080004849 0.56600004 67 67 49 255
-0.097443759 -0.079868786 0.565 55 53 35 255
-0.095902652 -0.079874039 0.565 49 47 29 255
-0.094194263 -0.079737857 0.56400001 50 48 30 255
-0.092491068 -0.079601616 0.56300002 57 55 37 255
-0.091116183 -0.079748094 0.56400001 54 52 34 255
-0.089735582 -0.079894543 0.565 51 49 29 255
-0.088349275 -0.080040954 0.56600004 48 46 26 255
-0.086803898 -0.080045909 0.56600004 51 49 29 255
-0.085408881 -0.080192223 0.56700003 60 58 38 255
-0.084156051 -0.080479942 0.56900001 61 59 41 255
-0.082311369 -0.080201834 0.56700003 63 61 41 255
-0.080904692 -0.080348007 0.56800002 59 59 39 255
-0.07935258 -0.080352664 0.56800002 59 59 39 255
-0.077937208 -0.08049874 0.56900001 55 55 35 255
-0.076516137 -0.080644764 0.57000005 59 58 36 255
-0.074957848 -0.080649234 0.57000005 62 61 39 255
-0.07365685 -0.080936626 0.57200003 61 60 38 255
-0.072218642 -0.081082478 0.57300001 51 48 27 255
-0.070898056 -0.081369795 0.57500005 56 53 32 255
-0.069325157 -0.081374019 0.57500005 53 48 27 255
-0.067634188 -0.081236631 0.574 46 43 22 255
-0.065948479 -0.081099153 0.57300001 42 39 19 255
-0.064380385 -0.081103146 0.57300001 46 42 25 255
-0.062921688 -0.081248589 0.574 47 43 26 255
-0.061457314 -0.081393972 0.57500005 50 48 30 255
-0.060091387 -0.081680842 0.57700002 40 38 20 255
-0.058511492 -0.081684515 0.57700002 44 42 24 255
-0.056931399 -0.081688114 0.57700002 55 53 33 255
-0.05525519 -0.081550054 0.57600003 55 54 32 255
-0.053770632 -0.08169505 0.57700002 52 51 29 255
-0.052370872 -0.081981584 0.57900006 55 52 32 255
-0.051223084 -0.082692824 0.58400005 50 47 27 255
-0.049962748 -0.083262421 0.588 54 51 31 255
-0.048680313 -0.083831973 0.59200001 57 55 35 255
-0.047216807 -0.084118254 0.59400004 51 47 30 255
-0.045742154 -0.084404461 0.59600002 45 41 24 255
-0.044182371 -0.084548958 0.597 35 31 14 255
-0.04254568 -0.084551744 0.597 30 28 10 255
-0.041045886 -0.084837712 0.59900004 31 29 11 255
-0.039403401 -0.084840305 0.59900004 34 32 14 255
-0.037886854 -0.085126087 0.60100001 33 31 13 255
-0.036178306 -0.084986851 0.60000002 30 28 10 255
-0.034417551 -0.084705852 0.59800005 32 32 14 255
-0.03261283 -0.084283091 0.59500003 33 33 13 255
-0.030876515 -0.084001862 0.59300005 37 37 19 255
-0.029200379 -0.083862156 0.59200001 38 38 20 255
-0.027622787 -0.084005699 0.59300005 40 38 20 255
-0.0260396 -0.084149122 0.59400004 43 41 23 255
-0.024491917 -0.084434107 0.59600002 46 42 25 255
-0.022894822 -0.084577337 0.597 46 42 25 255
-0.021256542 -0.084578797 0.597 42 38 21 255
-0.019618183 -0.084580153 0.597 38 34 17 255
-0.017979747 -0.08458139 0.597 39 35 18 255
-0.016368616 -0.08472421 0.59800005 42 38 22 255
-0.01477656 -0.085008591 0.60000002 48 44 28 255
-0.013195351 -0.085434578 0.60300004 49 45 28 255
-0.011693313 -0.08656887 0.611 50 46 29 255
-0.010180098 -0.087986447 0.62100005 57 53 36 255
-0.0085846465 -0.089120544 0.62900001 61 57 40 255
-0.0068798256 -0.089404434 0.63100004 56 53 33 255
-0.0051558395 -0.089546524 0.63200003 58 54 30 255
-0.0034209299 -0.089546815 0.63200003 51 47 23 255
-0.0016913426 -0.089830354 0.634 46 41 20 255
4.9463841e-05 -0.090538852 0.63900006 47 42 22 255
0.0018120764 -0.090963848 0.64200002 45 39 22 255
0.0035855847 -0.091247045 0.64400005 44 38 21 255
0.0053534354 -0.091246754 0.64400005 40 36 19 255
0.0071212645 -0.091246344 0.64400005 42 39 19 255
0.0089166714 -0.091529176 0.64600003 42 39 19 255
0.010739572 -0.091953576 0.64900005 52 46 29 255
0.012636778 -0.092802905 0.65500003 58 52 35 255
0.014566876 -0.093652099 0.66100001 61 55 39 255
0.016455509 -0.094076119 0.66400003 60 53 40 255
0.018388072 -0.094641693 0.66800004 59 52 39 255
0.02031225 -0.095065445 0.671 53 47 31 255
0.022219799 -0.09534739 0.67300004 48 42 25 255
0.024102487 -0.095487535 0.67400002 48 44 27 255
0.026029069 -0.095769219 0.67600006 51 47 30 255
0.028131524 -0.096617445 0.68200004 55 53 33 255
0.030178819 -0.097182207 0.68600005 54 51 31 255
0.032247946 -0.097746797 0.69000006 56 53 33 255
0.034289423 -0.098169602 0.69300002 60 57 37 255
0.03676502 -0.099725515 0.70400006 62 57 36 255
0.039740551 -0.10241444 0.72300005 60 57 36 255
0.043454971 -0.10666122 0.75300002 62 57 36 255
0.046547931 -0.1090663 0.77000004 62 59 38 255
0.049102008 -0.11005467 0.77700001 68 65 45 255
0.05189212 -0.1114678 0.78700006 69 66 46 255
0.054874241 -0.11316396 0.79900002 64 60 43 255
0.057850547 -0.11471825 0.81000006 62 60 42 255
0.060516141 -0.1155642 0.81600004 57 55 37 255
0.063214414 -0.11640996 0.82200003 54 52 34 255
0.065786056 -0.11697229 0.82600003 53 49 32 255
0.068214633 -0.11725125 0.82800007 49 45 28 255
0.070653923 -0.11753005 0.83000004 47 41 24 255
0.073103905 -0.11780867 0.83200002 46 40 23 255
0.075655207 -0.11822876 0.83500004 50 45 25 255
0.078129336 -0.1185071 0.83700001 51 46 26 255
0.080614157 -0.1187853 0.83900005 49 44 24 255
0.083307281 -0.11934648 0.84300005 50 45 24 255
0.085717343 -0.11948279 0.84400004 44 38 21 255
0.088445492 -0.12004365 0.84800005 45 39 22 255
0.090874135 -0.12017965 0.84900004 46 40 24 255
0.093527481 -0.12059863 0.85200006 46 42 28 255
0.096084431 -0.12087591 0.85400003 48 44 30 255
0.098997742 -0.12157764 0.85900003 53 49 35 255
0.102646 -0.12312835 0.87000006 59 54 43 255
0.1081649 -0.12680157 0.89600003 63 59 48 255
0.11308498 -0.12962525 0.91600007 77 73 62 255
0.11697839 -0.13117492 0.92700005 75 75 65 255
-0.1877615 -0.091495372 0.63700002 207 217 216 255
-0.18369858 -0.090352342 0.62900001 206 216 215 255
-0.17967889 -0.089209206 0.62100005 204 213 208 255
-0.17512915 -0.08777862 0.611 100 108 101 255
-0.1714853 -0.086778931 0.60400003 99 106 95 255
-0.16844167 -0.086066499 0.59900004 135 140 128 255
-0.16626045 -0.085785083 0.597 104 109 97 255
-0.16298683 -0.08492887 0.59100002 107 108 96 255
-0.15974556 -0.084072553 0.58500004 111 112 100 255
-0.15734777 -0.083647326 0.58200002 105 104 90 255
-0.1552337 -0.083365791 0.58000004 95 97 80 255
-0.15366021 -0.083371744 0.58000004 94 96 78 255
-0.15156205 -0.083090194 0.57800001 86 86 66 255
-0.14921509 -0.08266487 0.57500005 79 78 56 255
-0.14739777 -0.082527049 0.574 81 79 59 255
-0.1455857 -0.082389228 0.57300001 75 75 55 255
-0.14453293 -0.082682788 0.57500005 67 69 51 255
-0.14272317 -0.082544975 0.574 73 75 57 255
-0.14116454 -0.082550973 0.574 72 74 56 255
-0.1391193 -0.082269326 0.57200003 61 61 43 255
-0.13756567 -0.082275309 0.57200003 62 60 42 255
-0.13577405 -0.082137458 0.57100004 65 63 45 255
-0.13445775 -0.082287289 0.57200003 66 64 46 255
-0.1326711 -0.082149416 0.57100004 69 67 49 255
-0.13111928 -0.082155392 0.57100004 61 59 39 255
-0.12911341 -0.081873573 0.56900001 53 51 31 255
-0.12689398 -0.081447825 0.56600004 49 47 27 255
-0.12557651 -0.081597626 0.56700003 49 48 24 255
-0.12403461 -0.081603535 0.56700003 59 58 36 255
-0.12249246 -0.081609413 0.56700003 55 55 35 255
-0.12052342 -0.081327386 0.565 49 51 33 255
-0.1189862 -0.081333213 0.565 47 49 31 255
-0.11744876 -0.081339024 0.565 45 44 28 255
-0.11591104 -0.081344798 0.565 50 49 33 255
-0.11437308 -0.081350558 0.565 53 51 33 255
-0.11283488 -0.081356302 0.565 55 53 33 255
-0.11129639 -0.081362009 0.565 53 50 29 255
-0.1095634 -0.081223674 0.56400001 57 55 35 255
-0.10802712 -0.081229299 0.56400001 52 50 30 255
-0.1064906 -0.081234902 0.56400001 51 49 29 255
-0.1051399 -0.081384502 0.565 50 48 30 255
-0.10360012 -0.081390038 0.565 48 46 28 255
-0.10187946 -0.081251472 0.56400001 48 46 28 255
-0.100164 -0.081112854 0.56300002 65 62 46 255
-0.098804079 -0.08126232 0.56400001 64 64 46 255
-0.097438447 -0.081411764 0.565 68 66 48 255
-0.095897384 -0.081417091 0.565 58 56 38 255
-0.094022058 -0.081134148 0.56300002 53 51 33 255
-0.092321664 -0.080995232 0.56200004 54 52 34 255
-0.091111086 -0.081288628 0.56400001 50 48 28 255
-0.089571722 -0.081293739 0.56400001 51 49 29 255
-0.088188186 -0.081442922 0.565 48 46 26 255
-0.086798944 -0.081592105 0.56600004 52 50 32 255
-0.0855546 -0.081885383 0.56800002 52 50 32 255
-0.084151193 -0.082034461 0.56900001 49 47 29 255
-0.082306609 -0.081750959 0.56700003 44 44 26 255
-0.080757543 -0.081755742 0.56700003 54 54 34 255
-0.079347923 -0.081904642 0.56800002 55 55 35 255
-0.077932611 -0.082053512 0.56900001 52 52 32 255
-0.076511592 -0.08220233 0.57000005 55 53 33 255
-0.074821874 -0.082062639 0.56900001 56 54 34 255
-0.073394917 -0.082211331 0.57000005 56 54 34 255
-0.071962252 -0.08235997 0.57100004 55 52 31 255
-0.070770465 -0.082797021 0.574 49 46 25 255
-0.069200374 -0.08280129 0.574 49 46 25 255
-0.06763006 -0.082805499 0.574 44 41 20 255
-0.065829352 -0.082521081 0.57200003 45 42 22 255
-0.064264067 -0.082525112 0.57200003 41 38 18 255
-0.062808186 -0.082673334 0.57300001 44 40 23 255
-0.061560366 -0.083110072 0.57600003 47 45 27 255
-0.060087644 -0.083258182 0.57700002 43 41 23 255
-0.058609232 -0.08340621 0.57800001 47 45 27 255
-0.057026487 -0.083409861 0.57800001 53 51 31 255
-0.055251703 -0.083124794 0.57600003 59 58 36 255
-0.05376723 -0.083272584 0.57700002 48 45 25 255
-0.052367538 -0.083564617 0.57900006 53 50 30 255
-0.051132113 -0.08414524 0.583 59 54 34 255
-0.049704663 -0.084437147 0.58500004 57 52 32 255
-0.048430521 -0.085017674 0.58900005 48 44 27 255
-0.047134288 -0.085598148 0.59300005 51 47 30 255
-0.045739207 -0.086034209 0.59600002 45 41 24 255
-0.044253524 -0.086325847 0.59800005 34 30 13 255
-0.042614184 -0.086328678 0.59800005 30 28 10 255
-0.041043214 -0.086475775 0.59900004 31 29 11 255
-0.039335057 -0.086334042 0.59800005 31 29 11 255
-0.037821345 -0.086625323 0.60000002 28 26 8 255
-0.036175936 -0.086627752 0.60000002 33 31 13 255
-0.034472845 -0.086485706 0.59900004 30 30 12 255
-0.032720301 -0.086199149 0.597 35 35 17 255
-0.030978611 -0.085912488 0.59500003 37 37 19 255
-0.029395739 -0.086058885 0.59600002 39 37 19 255
-0.027714116 -0.085916393 0.59500003 40 38 20 255
-0.026081709 -0.085918181 0.59500003 48 46 28 255
-0.024408115 -0.085775465 0.59400004 49 45 28 255
-0.022816608 -0.085921451 0.59500003 46 42 25 255
-0.021219527 -0.086067334 0.59600002 43 39 22 255
-0.019649735 -0.086357519 0.59800005 39 35 18 255
-0.018038779 -0.086503193 0.59900004 41 37 20 255
-0.016422264 -0.086648755 0.60000002 44 40 24 255
-0.014800198 -0.086794227 0.60100001 46 42 26 255
-0.013172588 -0.086939588 0.60200006 47 43 27 255
-0.011654258 -0.087951355 0.60900003 49 45 29 255
-0.010163024 -0.089540705 0.62 51 47 31 255
-0.0085977204 -0.090985551 0.63000005 52 48 31 255
-0.0068793646 -0.091130495 0.63100004 59 55 38 255
-0.0051473365 -0.091130905 0.63100004 52 48 24 255
-0.0034152879 -0.091131188 0.63100004 51 47 23 255
-0.0016938967 -0.091709055 0.63500005 48 43 22 255
4.9305712e-05 -0.091997951 0.63700002 47 41 24 255
0.0018034881 -0.092286751 0.63900006 45 39 22 255
0.0035686428 -0.092575409 0.64100003 43 37 20 255
0.0053447639 -0.092863947 0.64300001 45 41 24 255
0.0071207876 -0.093007967 0.64400005 41 36 16 255
0.00888847 -0.093007416 0.64400005 45 39 22 255
0.01070576 -0.093440019 0.64700001 49 43 26 255
0.012635934 -0.094594583 0.65500003 57 51 34 255
0.014565902 -0.095460184 0.66100001 62 56 39 255
0.016503971 -0.096181229 0.66600001 64 56 39 255
0.018414371 -0.096613295 0.66900003 60 52 35 255
0.020341167 -0.097045243 0.67200005 52 46 29 255
0.022218322 -0.097188227 0.67300004 52 46 29 255
0.024100883 -0.097331084 0.67400002 51 47 30 255
0.026027342 -0.097618215 0.67600006 51 47 30 255
0.028088417 -0.09833844 0.68100005 51 49 31 255
0.030220812 -0.099202901 0.68700004 49 45 28 255
0.032199085 -0.099489622 0.68900001 57 53 36 255
0.034386113 -0.10035377 0.69500005 57 54 34 255
0.036762595 -0.10165095 0.70400006 62 57 37 255
0.039737936 -0.10439179 0.72300005 59 56 36 255
0.043394413 -0.10857621 0.75200003 59 56 36 255
0.046605326 -0.11131649 0.77100003 61 58 38 255
0.049225185 -0.11246836 0.77900004 66 63 43 255
0.051954675 -0.11376439 0.78800005 73 70 50 255
0.054939348 -0.11549332 0.80000001 63 60 40 255
0.057846799 -0.11693328 0.81000006 61 57 40 255
0.060438067 -0.11765122 0.81500006 52 50 32 255
0.063210338 -0.11865768 0.82200003 53 49 32 255
0.065702192 -0.11908656 0.82500005 51 47 30 255
0.06829264 -0.1196596 0.82900006 55 49 32 255
0.0706494 -0.11979946 0.83000004 47 41 24 255
0.073099248 -0.1200835 0.83200002 45 38 18 255
0.075741 -0.12065606 0.83600003 49 42 21 255
0.07821773 -0.12093979 0.83800006 54 49 29 255
0.080705144 -0.12122337 0.84000003 48 43 23 255
0.083203226 -0.1215068 0.84200007 46 41 21 255
0.085711986 -0.12179009 0.84400004 45 41 24 255
0.088335685 -0.1222175 0.84700006 52 46 29 255
0.090975516 -0.12264474 0.85000002 50 44 27 255
0.093411922 -0.12278329 0.85100001 45 39 23 255
0.095966011 -0.12306596 0.85300004 50 46 32 255
0.098761193 -0.12363701 0.85700005 58 53 42 255
0.10252175 -0.12536198 0.86900002 65 61 50 255
0.10791691 -0.12896194 0.89400005 71 67 56 255
0.11295468 -0.13198441 0.91500002 75 71 60 255
0.11684517 -0.13356408 0.92600006 76 76 66 255
-0.18687113 -0.092792235 0.634 207 216 218 255
-0.18223228 -0.091334693 0.62400001 208 217 219 255
-0.17909415 -0.090608902 0.61900002 193 200 197 255
-0.17454991 -0.089151129 0.60900003 84 90 82 255
-0.17091151 -0.088132389 0.60200006 121 126 115 255
-0.16787328 -0.08740636 0.597 138 141 129 255
-0.1656975 -0.08711955 0.59500003 113 116 104 255
-0.16270506 -0.086393438 0.59000003 114 115 103 255
-0.16001266 -0.085813701 0.58600003 114 115 103 255
-0.15788251 -0.085526824 0.58400005 92 93 81 255
-0.15576302 -0.085239917 0.58200002 100 101 87 255
-0.15391913 -0.085099481 0.58100003 93 92 76 255
-0.15155606 -0.084666073 0.57800001 86 84 64 255
-0.14946859 -0.084379137 0.57600003 88 86 66 255
-0.14764857 -0.084238678 0.57500005 79 80 58 255
-0.1455797 -0.083951674 0.57300001 71 71 51 255
-0.14427556 -0.084104232 0.574 70 72 54 255
-0.14246851 -0.083963759 0.57300001 72 74 54 255
-0.14066666 -0.083823271 0.57200003 63 65 45 255
-0.13862687 -0.083536223 0.57000005 66 64 44 255
-0.13707867 -0.083542258 0.57000005 62 61 39 255
-0.13529249 -0.08340171 0.56900001 61 59 39 255
-0.13374656 -0.083407752 0.56900001 78 76 56 255
-0.13220041 -0.08341378 0.56900001 81 79 59 255
-0.13042443 -0.083273202 0.56800002 60 58 40 255
-0.12888052 -0.0832792 0.56800002 57 55 37 255
-0.12711221 -0.083138578 0.56700003 67 65 45 255
-0.12579203 -0.083291203 0.56800002 63 62 40 255
-0.12424742 -0.083297186 0.56800002 60 59 37 255
-0.12227052 -0.083009832 0.56600004 54 55 33 255
-0.12051755 -0.082869083 0.565 50 50 30 255
-0.11876977 -0.082728297 0.56400001 54 52 34 255
-0.11744291 -0.082880847 0.565 55 53 35 255
-0.1157001 -0.082740009 0.56400001 64 62 44 255
-0.11416488 -0.082745835 0.56400001 55 53 35 255
-0.11262942 -0.082751632 0.56400001 51 48 28 255
-0.11109369 -0.082757398 0.56400001 50 48 28 255
-0.10955771 -0.082763128 0.56400001 49 48 26 255
-0.10802148 -0.082768835 0.56400001 48 46 26 255
-0.10648498 -0.082774498 0.56400001 43 41 21 255
-0.10494823 -0.082780138 0.56400001 40 38 20 255
-0.10341123 -0.082785733 0.56400001 46 44 26 255
-0.10169333 -0.0826445 0.56300002 49 47 29 255
-0.10015854 -0.082650006 0.56300002 49 47 29 255
-0.098798655 -0.082802273 0.56400001 61 59 41 255
-0.097433068 -0.082954526 0.565 59 57 39 255
-0.095552616 -0.082666248 0.56300002 53 51 33 255
-0.09401679 -0.082671568 0.56300002 61 59 41 255
-0.092316456 -0.082529992 0.56200004 57 55 37 255
-0.091105916 -0.082828917 0.56400001 52 50 32 255
-0.089407802 -0.082687229 0.56300002 55 53 33 255
-0.088027045 -0.082839206 0.56400001 47 45 27 255
-0.086793929 -0.083138049 0.56600004 43 41 23 255
-0.085700236 -0.08358375 0.56900001 50 47 31 255
-0.083998382 -0.083441831 0.56800002 52 49 33 255
-0.082301758 -0.083299831 0.56700003 50 47 31 255
-0.080752768 -0.083304681 0.56700003 55 53 35 255
-0.0793432 -0.083456382 0.56800002 59 57 39 255
-0.07792794 -0.083608031 0.56900001 51 49 31 255
-0.076104328 -0.083318807 0.56700003 52 50 32 255
-0.074554376 -0.083323382 0.56700003 49 47 29 255
-0.073004194 -0.083327882 0.56700003 54 51 31 255
-0.07183183 -0.083773226 0.57000005 48 45 25 255
-0.070519552 -0.084071554 0.57200003 48 45 25 255
-0.069075555 -0.084222846 0.57300001 47 44 23 255
-0.067508057 -0.0842271 0.57300001 49 46 26 255
-0.065825261 -0.084084265 0.57200003 43 40 20 255
-0.064260051 -0.08408834 0.57200003 41 36 16 255
-0.062694632 -0.084092341 0.57200003 45 41 24 255
-0.061449617 -0.084537327 0.57500005 41 37 20 255
-0.059979711 -0.084688209 0.57600003 46 44 24 255
-0.05850412 -0.084839016 0.57700002 49 47 27 255
-0.056825545 -0.084695674 0.57600003 52 51 29 255
-0.055248175 -0.084699281 0.57600003 44 43 19 255
-0.053577427 -0.08455573 0.57500005 49 46 25 255
-0.052273724 -0.085000321 0.57800001 52 47 27 255
-0.050953414 -0.085444868 0.58100003 61 56 36 255
-0.049531519 -0.085742265 0.583 60 55 35 255
-0.048098497 -0.08603961 0.58500004 58 53 33 255
-0.046733811 -0.086483948 0.588 52 49 29 255
-0.045506004 -0.087222412 0.59300005 48 45 25 255
-0.044176623 -0.087813713 0.597 41 38 18 255
-0.04268264 -0.088110775 0.59900004 34 32 14 255
-0.040971998 -0.08796645 0.59800005 31 29 11 255
-0.039332461 -0.087969117 0.59800005 34 32 14 255
-0.03775581 -0.088118792 0.59900004 32 30 12 255
-0.036173534 -0.088268362 0.60000002 34 32 14 255
-0.034470554 -0.08812362 0.59900004 30 30 12 255
-0.032772928 -0.087978758 0.59800005 33 33 15 255
-0.031028602 -0.08768665 0.59600002 35 33 13 255
-0.029443091 -0.087835811 0.597 40 38 20 255
-0.027712256 -0.087543473 0.59500003 39 37 19 255
-0.026036128 -0.087398157 0.59400004 41 37 20 255
-0.024406472 -0.087399863 0.59400004 43 39 22 255
-0.022853415 -0.08769574 0.59600002 44 40 23 255
-0.021324899 -0.08813867 0.59900004 46 42 25 255
-0.019681267 -0.088140056 0.59900004 38 34 17 255
-0.018037559 -0.088141337 0.59900004 37 33 16 255
-0.016393786 -0.088142514 0.59900004 42 39 23 255
-0.014774572 -0.088290714 0.60000002 45 41 27 255
-0.013127936 -0.088291675 0.60000002 47 43 27 255
-0.011615198 -0.089322597 0.60700005 45 41 24 255
-0.010113163 -0.090794884 0.61700004 46 42 25 255
-0.0085834889 -0.092561387 0.62900001 51 47 30 255
-0.0068788971 -0.092856236 0.63100004 57 53 36 255
-0.0051469868 -0.092856653 0.63100004 52 49 29 255
-0.003420468 -0.093004093 0.63200003 49 46 26 255
-0.0016937817 -0.093445748 0.63500005 46 44 24 255
4.9224967e-05 -0.093592964 0.63600004 45 41 24 255
0.0017977209 -0.093740053 0.63700002 42 40 22 255
0.0035572664 -0.094034195 0.63900006 42 38 21 255
0.0053360891 -0.094475359 0.64200002 44 40 23 255
0.0071092467 -0.094622098 0.64300001 46 40 23 255
0.0088878665 -0.094768703 0.64400005 46 40 23 255
0.010738124 -0.095503815 0.64900005 46 40 23 255
0.012654366 -0.096533097 0.65600002 55 47 30 255
0.014542881 -0.097120792 0.66000003 61 53 36 255
0.016453296 -0.097708344 0.66400003 60 52 35 255
0.01835808 -0.098148607 0.66700006 57 49 32 255
0.020339793 -0.098883025 0.67200005 53 45 28 255
0.022183811 -0.098881587 0.67200005 50 42 25 255
0.024135014 -0.099321432 0.67500001 57 49 32 255
0.026064089 -0.099614017 0.67700005 53 45 28 255
0.028127773 -0.10034788 0.68200004 52 46 29 255
0.030130809 -0.10078731 0.68500006 51 45 28 255
0.032150194 -0.10122661 0.68800002 57 52 32 255
0.034284867 -0.10196003 0.69300002 58 53 33 255
0.036707923 -0.10342892 0.70300001 63 58 38 255
0.039625369 -0.10607456 0.72100002 62 59 39 255
0.043218423 -0.11019113 0.74900001 62 59 39 255
0.046541788 -0.11327756 0.77000004 64 61 41 255
0.049285114 -0.11474549 0.78000003 65 62 42 255
0.052083101 -0.11621318 0.79000002 66 63 43 255
0.055004396 -0.11782775 0.80100006 74 71 51 255
0.057771578 -0.11900081 0.80900002 60 57 37 255
0.060359955 -0.11973237 0.81400001 55 51 34 255
0.063052423 -0.12061086 0.82000005 51 47 30 255
0.065697916 -0.12134204 0.82500005 52 46 29 255
0.068205826 -0.12177888 0.82800007 55 49 32 255
0.07055971 -0.12192143 0.82900006 56 49 29 255
0.073006675 -0.12221088 0.83100003 49 42 21 255
0.075464353 -0.12250019 0.83300006 49 42 21 255
0.078026056 -0.12293641 0.83600003 47 40 19 255
0.080507852 -0.12322539 0.83800006 50 45 25 255
0.083099119 -0.12366126 0.84100002 47 42 22 255
0.085706547 -0.12409698 0.84400004 46 41 21 255
0.088330097 -0.12453252 0.84700006 44 39 19 255
0.090755738 -0.12467385 0.84800005 44 38 21 255
0.09318655 -0.12481506 0.84900004 44 40 23 255
0.095847525 -0.12525015 0.85200006 46 42 25 255
0.098870285 -0.12612605 0.85800004 50 46 29 255
0.10251541 -0.12773672 0.86900002 61 58 44 255
0.10778955 -0.13125794 0.89300007 70 67 53 255
0.11257744 -0.13404377 0.91200006 77 73 62 255
0.11658568 -0.13580039 0.92400002 76 76 66 255
-0.18598074 -0.094072603 0.63100004 207 216 218 255
-0.18281023 -0.093333326 0.62600005 202 211 213 255
-0.17879874 -0.092146672 0.61800003 201 209 206 255
-0.17397064 -0.090512566 0.60700005 67 73 65 255
-0.17005377 -0.089325666 0.59900004 122 125 113 255
-0.16730487 -0.088735178 0.59500003 140 141 127 255
-0.16485602 -0.088293798 0.59200001 103 104 92 255
-0.16242328 -0.087852411 0.58900005 100 101 89 255
-0.15973359 -0.087261818 0.58500004 109 108 94 255
-0.15760611 -0.086969532 0.583 89 90 76 255
-0.15575697 -0.086826421 0.58200002 83 85 68 255
-0.15417798 -0.086832516 0.58200002 90 92 74 255
-0.15181223 -0.086391024 0.57900006 92 92 74 255
-0.14972201 -0.086098693 0.57700002 93 93 73 255
-0.14764251 -0.08580634 0.57500005 83 84 62 255
-0.14557365 -0.085513972 0.57300001 71 73 53 255
-0.14401813 -0.085520066 0.57300001 68 70 50 255
-0.14221381 -0.085376918 0.57200003 64 66 46 255
-0.14041469 -0.085233763 0.57100004 69 71 51 255
-0.13862079 -0.085090593 0.57000005 66 65 43 255
-0.13731308 -0.085245989 0.57100004 63 62 38 255
-0.1355242 -0.085102804 0.57000005 64 63 39 255
-0.13350545 -0.084810279 0.56800002 68 67 45 255
-0.13172969 -0.084667049 0.56700003 63 61 41 255
-0.12995915 -0.084523782 0.56600004 50 48 30 255
-0.1286476 -0.084679194 0.56700003 51 49 31 255
-0.12733038 -0.084834605 0.56800002 62 60 42 255
-0.12578601 -0.084840663 0.56800002 68 66 46 255
-0.12402268 -0.084697343 0.56700003 63 61 41 255
-0.12204853 -0.08440458 0.565 52 50 30 255
-0.12051161 -0.084410571 0.565 48 46 26 255
-0.11876386 -0.084267132 0.56400001 52 50 32 255
-0.11743701 -0.084422484 0.565 58 56 38 255
-0.1154891 -0.08412955 0.56300002 60 56 39 255
-0.11395664 -0.084135443 0.56300002 52 48 31 255
-0.11242391 -0.084141284 0.56300002 48 45 25 255
-0.11069398 -0.083997659 0.56200004 49 47 27 255
-0.10935771 -0.084152907 0.56300002 46 44 24 255
-0.10801575 -0.084308162 0.56400001 47 45 25 255
-0.10647929 -0.084313892 0.56400001 48 46 28 255
-0.10494258 -0.084319592 0.56400001 46 44 26 255
-0.10322227 -0.084175743 0.56300002 50 48 30 255
-0.10168777 -0.084181353 0.56300002 51 49 31 255
-0.099975131 -0.084037401 0.56200004 46 44 26 255
-0.098618016 -0.08419247 0.56300002 48 46 28 255
-0.097082749 -0.084197938 0.56300002 54 50 33 255
-0.095547237 -0.084203385 0.56300002 54 50 33 255
-0.094178446 -0.084358342 0.56400001 55 51 34 255
-0.0926397 -0.084363684 0.56400001 57 55 37 255
-0.091262206 -0.084518559 0.565 52 50 32 255
-0.089402631 -0.084224619 0.56300002 49 47 27 255
-0.088177979 -0.084528998 0.565 52 50 30 255
-0.086788848 -0.084683768 0.56600004 50 48 30 255
-0.085695185 -0.085137725 0.56900001 45 43 25 255
-0.083993405 -0.084993131 0.56800002 47 45 27 255
-0.082441993 -0.084998108 0.56800002 43 40 24 255
-0.081032746 -0.085152678 0.56900001 47 45 27 255
-0.0794781 -0.085157529 0.56900001 60 58 40 255
-0.077786282 -0.085012652 0.56800002 45 43 25 255
-0.076099686 -0.084867679 0.56700003 40 36 19 255
-0.074681289 -0.085022002 0.56800002 47 43 26 255
-0.073128439 -0.085026562 0.56800002 55 50 30 255
-0.071827389 -0.085330464 0.57000005 46 43 23 255
-0.070268616 -0.085334897 0.57000005 47 41 24 255
-0.068830162 -0.085488968 0.57100004 49 46 25 255
-0.067268208 -0.085493259 0.57100004 47 44 24 255
-0.065821111 -0.085647188 0.57200003 45 41 24 255
-0.06425599 -0.085651323 0.57200003 45 40 20 255
-0.06269066 -0.085655376 0.57200003 46 42 25 255
-0.061338834 -0.085958846 0.574 45 41 24 255
-0.059871748 -0.086112507 0.57500005 44 42 22 255
-0.058398973 -0.086266093 0.57600003 42 40 20 255
-0.056920528 -0.086419605 0.57700002 46 44 24 255
-0.055340506 -0.086423256 0.57700002 49 48 26 255
-0.053667109 -0.08627703 0.57600003 47 44 24 255
-0.052179884 -0.086430289 0.57700002 49 44 24 255
-0.05077469 -0.086733267 0.57900006 52 45 25 255
-0.049443312 -0.087185971 0.58200002 56 49 29 255
-0.047930896 -0.087339006 0.583 55 50 30 255
-0.04657178 -0.087791584 0.58600003 52 49 29 255
-0.045426253 -0.088693544 0.59200001 46 43 23 255
-0.044173688 -0.089445643 0.597 41 39 19 255
-0.042679798 -0.089748211 0.59900004 40 38 20 255
-0.041037776 -0.089751028 0.59900004 31 29 11 255
-0.039264053 -0.089454055 0.597 34 32 14 255
-0.037690248 -0.089606494 0.59800005 36 34 16 255
-0.036110818 -0.089758836 0.59900004 36 34 16 255
-0.034583315 -0.090060927 0.60100001 33 31 13 255
-0.032825515 -0.089763507 0.59900004 35 33 15 255
-0.031130619 -0.089615829 0.59800005 39 37 17 255
-0.029441094 -0.089468025 0.597 33 31 13 255
-0.027710376 -0.089170255 0.59500003 41 39 21 255
-0.026034355 -0.089022227 0.59400004 42 38 21 255
-0.024486979 -0.089323692 0.59600002 47 43 26 255
-0.022890197 -0.089475192 0.597 50 46 29 255
-0.021323444 -0.089776471 0.59900004 45 41 24 255
-0.019647067 -0.089628004 0.59800005 37 33 16 255
-0.018036325 -0.089779176 0.59900004 33 29 12 255
-0.016420029 -0.089930251 0.60000002 40 36 20 255
-0.014773559 -0.089931324 0.60000002 43 39 22 255
-0.013148911 -0.090082176 0.60100001 45 41 24 255
-0.011595264 -0.090832472 0.60600001 45 41 24 255
-0.010096078 -0.092332125 0.61600006 49 45 28 255
-0.0085556088 -0.093981549 0.62700003 54 50 33 255
-0.006878424 -0.094581664 0.63100004 60 56 39 255
-0.005162945 -0.094881855 0.63300002 58 55 35 255
-0.0034310559 -0.095032044 0.634 49 46 26 255
-0.0016963321 -0.095332012 0.63600004 46 44 24 255
4.9298967e-05 -0.095481962 0.63700002 52 50 32 255
0.001797597 -0.095481895 0.63700002 39 37 19 255
0.0035514547 -0.095631599 0.63800001 42 38 21 255
0.0053190999 -0.09593109 0.64000005 45 41 24 255
0.007097702 -0.096230432 0.64200002 43 39 22 255
0.0088872556 -0.09652967 0.64400005 40 34 17 255
0.010737386 -0.097278439 0.64900005 48 40 23 255
0.012634209 -0.098176964 0.65500003 52 44 27 255
0.014519849 -0.098775573 0.65900004 55 47 30 255
0.01642739 -0.099374056 0.66300005 55 47 30 255
0.018301778 -0.099672623 0.66500002 63 55 38 255
0.020308133 -0.10057058 0.671 53 45 28 255
0.022182295 -0.10071901 0.67200005 50 42 25 255
0.024133364 -0.10116705 0.67500001 52 44 27 255
0.026062312 -0.10146508 0.67700005 52 44 27 255
0.028084613 -0.10206271 0.68100005 58 50 33 255
0.030084774 -0.10251031 0.68400002 55 49 32 255
0.032101285 -0.10295779 0.68700004 53 48 28 255
0.034282543 -0.10385472 0.69300002 57 52 32 255
0.036653228 -0.10520105 0.70200002 56 53 33 255
0.039512787 -0.10774603 0.71900004 62 59 39 255
0.042984724 -0.11163943 0.74500006 62 59 39 255
0.046478223 -0.11523279 0.76900005 68 65 45 255
0.049281802 -0.11687784 0.78000003 74 71 51 255
0.052079611 -0.11837284 0.79000002 75 73 53 255
0.055000726 -0.12001744 0.80100006 61 58 38 255
0.05776773 -0.12121231 0.80900002 62 58 41 255
0.060281798 -0.12180767 0.81300002 60 56 39 255
0.062894464 -0.12255268 0.81800002 56 50 33 255
0.065534309 -0.12329748 0.82300001 53 47 30 255
0.06811896 -0.12389228 0.82700002 52 44 27 255
0.070469968 -0.12403752 0.82800007 49 42 22 255
0.072914056 -0.12433239 0.83000004 47 40 19 255
0.075368837 -0.1246271 0.83200002 45 38 17 255
0.077927649 -0.12507145 0.83500004 49 44 24 255
0.080502629 -0.12551562 0.83800006 48 43 23 255
0.083192565 -0.12610942 0.84200007 52 47 27 255
0.085701033 -0.12640348 0.84400004 45 41 24 255
0.088220164 -0.12669739 0.84600002 45 42 22 255
0.090642944 -0.1268414 0.84700006 42 38 21 255
0.093180634 -0.12713501 0.84900004 43 39 22 255
0.095728956 -0.12742846 0.85100001 47 43 26 255
0.098748833 -0.12832071 0.85700005 56 52 36 255
0.10250897 -0.13011107 0.86900002 60 57 41 255
0.10766213 -0.13354805 0.89200002 68 65 49 255
0.11232358 -0.13623601 0.91000003 74 73 59 255
0.11607379 -0.13772593 0.92000002 86 87 75 255
-0.18887469 -0.096392952 0.63500005 205 214 216 255
-0.18509039 -0.095336497 0.62800002 204 216 217 255
-0.18222001 -0.094735421 0.62400001 205 217 218 255
-0.17850325 -0.093678832 0.61700004 199 207 204 255
-0.17396455 -0.092166655 0.60700005 70 77 66 255
-0.17004772 -0.090958007 0.59900004 144 147 133 255
-0.16701764 -0.09020482 0.59400004 127 129 112 255
-0.16457148 -0.089755312 0.59100002 113 114 100 255
-0.16214141 -0.089305781 0.588 110 113 99 255
-0.15945448 -0.088704348 0.58400005 101 103 86 255
-0.15705939 -0.088254757 0.58100003 92 96 79 255
-0.15521564 -0.088108957 0.58000004 82 86 68 255
-0.15390696 -0.088267013 0.58100003 92 97 76 255
-0.15180609 -0.087969318 0.57900006 86 89 67 255
-0.14997536 -0.08782354 0.57800001 88 91 69 255
-0.14763638 -0.087373853 0.57500005 89 90 66 255
-0.14582156 -0.087228052 0.574 79 80 58 255
-0.14401199 -0.087082252 0.57300001 78 79 57 255
-0.14220767 -0.086936451 0.57200003 76 77 55 255
-0.14016265 -0.086638629 0.57000005 68 69 47 255
-0.13837147 -0.086492777 0.56900001 61 60 36 255
-0.13682598 -0.086498946 0.56900001 69 69 43 255
-0.13528028 -0.0865051 0.56900001 65 64 40 255
-0.13326432 -0.086207196 0.56700003 58 57 35 255
-0.13149127 -0.086061284 0.56600004 63 61 43 255
-0.12995307 -0.086067408 0.56600004 54 52 34 255
-0.12886837 -0.086377673 0.56800002 46 44 26 255
-0.12732427 -0.086383812 0.56800002 56 54 36 255
-0.12577991 -0.086389937 0.56800002 68 66 46 255
-0.12401661 -0.086243957 0.56700003 63 62 40 255
-0.12182649 -0.085793696 0.56400001 51 50 26 255
-0.12029231 -0.085799739 0.56400001 49 47 23 255
-0.11875787 -0.085805766 0.56400001 48 45 24 255
-0.11722321 -0.085811771 0.56400001 46 43 22 255
-0.11548319 -0.085665599 0.56300002 47 44 24 255
-0.11395074 -0.085671544 0.56300002 43 41 23 255
-0.11241805 -0.085677467 0.56300002 46 44 26 255
-0.11068814 -0.085531183 0.56200004 52 50 32 255
-0.1093519 -0.085689217 0.56300002 46 44 26 255
-0.10800996 -0.085847266 0.56400001 44 44 26 255
-0.10647355 -0.08585307 0.56400001 55 55 37 255
-0.10493687 -0.085858837 0.56400001 46 46 28 255
-0.10303328 -0.085560091 0.56200004 44 44 26 255
-0.10168215 -0.085718006 0.56300002 48 46 28 255
-0.10014743 -0.085723646 0.56300002 50 48 30 255
-0.098787621 -0.085881509 0.56400001 57 54 34 255
-0.097077258 -0.085734792 0.56300002 48 44 27 255
-0.095372088 -0.085588001 0.56200004 50 46 29 255
-0.094006076 -0.085745744 0.56300002 48 44 27 255
-0.092634335 -0.085903443 0.56400001 45 41 25 255
-0.091095388 -0.0859088 0.56400001 53 51 33 255
-0.089238614 -0.085609443 0.56200004 44 42 24 255
-0.088016741 -0.08591935 0.56400001 49 47 27 255
-0.086477041 -0.085924543 0.56400001 53 51 31 255
-0.085238293 -0.086234391 0.56600004 46 44 26 255
-0.083544768 -0.086087093 0.565 49 47 29 255
-0.082291879 -0.086396858 0.56700003 41 39 21 255
-0.080885425 -0.086554207 0.56800002 53 50 34 255
-0.07947325 -0.086711496 0.56900001 50 46 29 255
-0.077781506 -0.086563952 0.56800002 45 41 24 255
-0.076229192 -0.086568713 0.56800002 40 36 19 255
-0.074808136 -0.086725831 0.56900001 50 45 25 255
-0.07312388 -0.086578034 0.56800002 49 44 24 255
-0.071696877 -0.08673501 0.56900001 46 41 21 255
-0.070140921 -0.086739488 0.56900001 43 38 18 255
-0.06858474 -0.086743899 0.56900001 54 47 27 255
-0.066910535 -0.086595759 0.56800002 51 46 26 255
-0.065471716 -0.086752459 0.56900001 54 49 29 255
-0.06402722 -0.0869091 0.57000005 49 44 24 255
-0.062686615 -0.087218136 0.57200003 43 40 20 255
-0.061228018 -0.087374642 0.57300001 41 39 19 255
-0.059659623 -0.087378576 0.57300001 43 41 21 255
-0.058192406 -0.087534927 0.574 39 37 19 255
-0.056719523 -0.08769121 0.57500005 45 43 25 255
-0.05524097 -0.087847404 0.57600003 50 48 28 255
-0.053570412 -0.087698482 0.57500005 50 47 27 255
-0.052086014 -0.087854519 0.57600003 48 43 23 255
-0.050683632 -0.088162996 0.57800001 48 43 22 255
-0.049355082 -0.088623941 0.58100003 53 48 28 255
-0.047927696 -0.088932268 0.583 48 43 23 255
-0.046489194 -0.089240544 0.58500004 44 41 21 255
-0.045269746 -0.090006381 0.59000003 45 43 23 255
-0.044022735 -0.090772182 0.59500003 49 47 27 255
-0.042605672 -0.091232806 0.59800005 40 38 20 255
-0.041035 -0.091388218 0.59900004 34 32 12 255
-0.039327156 -0.091238387 0.59800005 34 32 14 255
-0.037813731 -0.091546163 0.60000002 37 35 17 255
-0.036168639 -0.091548696 0.60000002 32 30 12 255
-0.034580953 -0.091703713 0.60100001 36 34 16 255
-0.032878067 -0.091553442 0.60000002 32 30 12 255
-0.031128488 -0.091250479 0.59800005 34 32 14 255
-0.02938976 -0.09094736 0.59600002 38 36 18 255
-0.027755037 -0.090949342 0.59600002 38 36 18 255
-0.026120214 -0.090951212 0.59600002 40 38 20 255
-0.024526374 -0.091105565 0.597 42 38 21 255
-0.022926956 -0.09125983 0.59800005 41 37 20 255
-0.02128637 -0.091261372 0.59800005 41 37 20 255
-0.019612849 -0.091110177 0.597 37 33 16 255
-0.017974855 -0.091111481 0.597 34 30 13 255
-0.016364159 -0.091265313 0.59800005 39 35 18 255
-0.014747911 -0.091419019 0.59900004 39 35 18 255
-0.013147996 -0.091725223 0.60100001 42 37 17 255
-0.011575324 -0.09233658 0.60500002 46 41 20 255
-0.010062597 -0.093710944 0.61400002 49 46 26 255
-0.0085277231 -0.095390461 0.625 53 50 30 255
-0.0068452442 -0.095848881 0.62800002 57 54 34 255
-0.0051381174 -0.096154556 0.63000005 55 52 32 255
-0.0034199937 -0.096460111 0.63200003 48 45 25 255
-0.0016935468 -0.096918166 0.63500005 48 44 27 255
4.9295526e-05 -0.097223483 0.63700002 46 42 25 255
0.0018002935 -0.097376041 0.63800001 44 40 23 255
0.0035512068 -0.097375847 0.63800001 42 38 21 255
0.0053104185 -0.097528182 0.63900006 37 33 16 255
0.0070750974 -0.097680368 0.64000005 48 44 27 255
0.0088866353 -0.098290302 0.64400005 46 40 23 255
0.010736638 -0.09905275 0.64900005 47 41 24 255
0.012652615 -0.10012027 0.65600002 50 44 27 255
0.014496809 -0.10042458 0.65800005 58 52 35 255
0.016401472 -0.10103397 0.66200006 52 46 29 255
0.018300507 -0.10149061 0.66500002 56 50 33 255
0.020306725 -0.10240496 0.671 53 47 30 255
0.022180758 -0.1025561 0.67200005 45 39 22 255
0.024131695 -0.10301232 0.67500001 47 41 24 255
0.026022019 -0.10316319 0.67600006 54 48 31 255
0.028041437 -0.10377172 0.68000001 52 46 29 255
0.029950762 -0.10392233 0.68100005 53 47 30 255
0.032052353 -0.10468318 0.68600005 56 50 33 255
0.034181256 -0.10544388 0.69100004 59 54 34 255
0.036546294 -0.10681479 0.70000005 59 56 36 255
0.039290275 -0.10910104 0.71500003 62 59 39 255
0.042808708 -0.11321807 0.74200004 62 59 39 255
0.046354182 -0.11702958 0.76700002 62 59 39 255
0.04921528 -0.11885726 0.77900004 70 67 47 255
0.05201016 -0.12037954 0.78900003 71 68 48 255
0.054859679 -0.12190159 0.79900002 65 62 42 255
0.057692438 -0.12327086 0.80800003 60 57 37 255
0.060277745 -0.12402967 0.81300002 60 57 37 255
0.062813364 -0.12463573 0.81700003 59 52 31 255
0.065370679 -0.12524159 0.82100004 55 48 27 255
0.067867324 -0.12569477 0.82400006 53 48 28 255
0.070295081 -0.12599522 0.82600003 54 47 27 255
0.072821379 -0.12644804 0.82900006 49 42 22 255
0.075273283 -0.12674816 0.83100003 47 42 22 255
0.077922516 -0.12735316 0.83500004 50 44 27 255
0.080401286 -0.12765296 0.83700001 45 40 20 255
0.083187126 -0.12841012 0.84200007 47 42 22 255
0.085593924 -0.12855709 0.84300005 43 40 20 255
0.088214442 -0.12900889 0.84600002 46 43 23 255
0.090530068 -0.12900305 0.84600002 45 42 22 255
0.093174629 -0.12945455 0.84900004 49 46 26 255
0.095610343 -0.12960093 0.85000002 48 45 25 255
0.098627314 -0.1305095 0.85600007 45 43 25 255
0.10226656 -0.13218014 0.86700004 57 55 37 255
0.10741394 -0.13567987 0.89000005 68 66 48 255
0.11169939 -0.13795958 0.90500003 81 80 66 255
0.11543573 -0.13947679 0.91500002 105 108 96 255
-0.19058964 -0.098116778 0.63500005 205 215 214 255
-0.18857102 -0.097968444 0.634 204 213 215 255
-0.18508418 -0.097047493 0.62800002 206 215 217 255
-0.18308979 -0.096899204 0.62700003 204 213 215 255
-0.17878635 -0.095514521 0.61800003 203 211 208 255
-0.17424498 -0.093975142 0.60800004 69 76 65 255
-0.17004159 -0.092590183 0.59900004 144 147 133 255
-0.16729268 -0.091978014 0.59500003 108 112 95 255
-0.16428688 -0.0912112 0.59000003 98 101 89 255
-0.16185956 -0.090753548 0.58700001 107 110 96 255
-0.15890229 -0.089986637 0.58200002 93 95 78 255
-0.15678295 -0.089683525 0.58000004 84 88 70 255
-0.15467426 -0.089380406 0.57800001 87 92 71 255
-0.15310609 -0.089386575 0.57800001 83 88 67 255
-0.15127553 -0.089238107 0.57700002 80 83 59 255
-0.1497097 -0.089244328 0.57700002 80 83 59 255
-0.1476302 -0.088941194 0.57500005 72 73 49 255
-0.14606942 -0.08894743 0.57500005 75 76 54 255
-0.14400579 -0.088644259 0.57300001 96 97 75 255
-0.14220145 -0.088495784 0.57200003 84 84 64 255
-0.14015645 -0.088192582 0.57000005 74 72 52 255
-0.13860846 -0.088198803 0.57000005 73 72 50 255
-0.13706027 -0.088205047 0.57000005 62 61 37 255
-0.13574958 -0.088366039 0.57100004 65 64 42 255
-0.13349314 -0.087907977 0.56800002 61 59 39 255
-0.1314851 -0.087604642 0.56600004 59 57 39 255
-0.12971731 -0.08745604 0.565 44 42 24 255
-0.12840848 -0.087617025 0.56600004 47 45 27 255
-0.12709396 -0.087778017 0.56700003 57 55 37 255
-0.12555233 -0.087784193 0.56700003 56 55 33 255
-0.12379177 -0.087635539 0.56600004 52 51 29 255
-0.12182041 -0.087331995 0.56400001 48 47 23 255
-0.12049951 -0.087492958 0.565 50 48 23 255
-0.11896238 -0.08749906 0.565 47 45 20 255
-0.11742501 -0.087505139 0.565 45 43 19 255
-0.1158874 -0.087511189 0.565 46 44 20 255
-0.11414715 -0.087362334 0.56400001 54 52 32 255
-0.11301111 -0.087678157 0.56600004 51 49 31 255
-0.11127307 -0.08752922 0.565 48 46 28 255
-0.10954024 -0.08738023 0.56400001 46 44 26 255
-0.10781261 -0.087231204 0.56300002 51 51 33 255
-0.10646772 -0.087392017 0.56400001 61 59 41 255
-0.10493109 -0.087397851 0.56400001 50 50 32 255
-0.10302755 -0.087093711 0.56200004 47 45 27 255
-0.10167646 -0.08725442 0.56300002 50 48 30 255
-0.099963918 -0.087105133 0.56200004 53 51 33 255
-0.098606877 -0.087265782 0.56300002 56 53 33 255
-0.0970717 -0.087271385 0.56300002 51 47 30 255
-0.09536659 -0.087121934 0.56200004 43 39 22 255
-0.094000615 -0.087282471 0.56300002 49 45 28 255
-0.0924647 -0.087287933 0.56300002 47 43 27 255
-0.091090031 -0.087448388 0.56400001 52 48 31 255
-0.089233324 -0.08714363 0.56200004 45 41 24 255
-0.088167533 -0.087614119 0.565 50 47 27 255
-0.086778492 -0.087774456 0.56600004 49 47 27 255
-0.085233144 -0.087779671 0.56600004 47 45 27 255
-0.083539702 -0.087629698 0.565 47 45 27 255
-0.082286857 -0.087944984 0.56700003 54 51 35 255
-0.081022851 -0.088260241 0.56900001 55 52 36 255
-0.07946834 -0.088265203 0.56900001 46 44 26 255
-0.077776678 -0.088114984 0.56800002 41 37 20 255
-0.076224439 -0.088119797 0.56800002 41 37 20 255
