ply
format ascii 1.0
comment PCL generated
element vertex 972
property float x
property float y
property float z
property uchar red
property uchar green
property uchar blue
property uchar alpha
element camera 0
property float view_px
property float view_py
property float view_pz
property float x_axisx
property float x_axisy
property float x_axisz
property float y_axisx
property float y_axisy
property float y_axisz
property float z_axisx
property float z_axisy
property float z_axisz
property float focal
property float scalex
property float scaley
property float centerx
property float centery
property int viewportx
property int viewporty
property float k1
property float k2
end_header
-0.047405813 -0.2717509 0.64500004 48 47 19 255
-0.045789879 -0.2725943 0.64700001 45 42 14 255
-0.044026945 -0.27259508 0.64700001 43 39 15 255
-0.042329319 -0.2730172 0.648 45 41 16 255
-0.040501036 -0.2725966 0.64700001 50 48 24 255
-0.038618319 -0.27175471 0.64500004 54 49 28 255
-0.036746487 -0.27091274 0.64300001 50 45 24 255
-0.034994386 -0.27091342 0.64300001 51 46 25 255
-0.033293981 -0.27133542 0.64400005 54 49 29 255
-0.031637084 -0.27217874 0.64600003 50 45 25 255
-0.029923024 -0.27260065 0.64700001 45 42 22 255
-0.028203506 -0.27302256 0.648 46 43 23 255
-0.026356131 -0.27218047 0.64600003 46 44 26 255
-0.024595797 -0.272181 0.64600003 45 43 23 255
-0.022800099 -0.27176017 0.64500004 43 42 20 255
-0.021042468 -0.27176061 0.64500004 44 43 21 255
-0.019314729 -0.2721824 0.64600003 44 43 21 255
-0.017554356 -0.27218276 0.64600003 43 40 20 255
-0.015818425 -0.27260447 0.64700001 50 47 27 255
-0.014011868 -0.27176213 0.64500004 44 41 21 255
-0.012254203 -0.2717624 0.64500004 67 62 42 255
-0.010496533 -0.27176267 0.64500004 63 60 39 255
-0.0087524038 -0.27218419 0.64600003 74 71 50 255
-0.006970353 -0.27134174 0.64400005 84 79 58 255
-0.0052234936 -0.27176318 0.64500004 79 74 54 255
-0.0034765557 -0.27260593 0.64700001 70 65 44 255
-0.0017160678 -0.27302736 0.648 61 57 33 255
4.9871051e-05 -0.27344871 0.64900005 56 52 28 255
0.001815656 -0.2730273 0.648 49 47 23 255
0.0035870448 -0.27344862 0.64900005 47 43 18 255
0.0053391252 -0.27260584 0.64700001 50 46 22 255
0.0071132341 -0.27302703 0.648 44 39 18 255
0.0088653872 -0.27260554 0.64700001 43 38 17 255
0.010661366 -0.27344799 0.64900005 46 41 21 255
0.012449089 -0.27386904 0.65000004 52 47 27 255
0.014242259 -0.27429008 0.65100002 45 42 22 255
0.016040871 -0.2747111 0.65200001 47 44 23 255
0.017844928 -0.27513209 0.65300006 44 39 18 255
0.019654429 -0.27555305 0.65400004 45 38 18 255
0.021436591 -0.2755526 0.65400004 54 44 25 255
0.023254249 -0.27597347 0.65500003 69 59 40 255
0.025115574 -0.27681562 0.65700001 69 60 39 255
0.027069697 -0.27850041 0.66100001 76 68 43 255
0.028958255 -0.27934253 0.66300005 73 67 40 255
0.030764896 -0.27934194 0.66300005 72 70 38 255
0.032620654 -0.27976263 0.66400003 54 51 23 255
0.03448185 -0.28018329 0.66500002 56 49 26 255
0.036457635 -0.28144658 0.66800004 47 40 19 255
0.038392458 -0.28228852 0.67000002 48 41 18 255
0.040338174 -0.28313047 0.67200005 46 37 14 255
0.042232014 -0.28355101 0.67300004 46 37 14 255
0.044131298 -0.28397155 0.67400002 45 38 17 255
0.04596781 -0.28397074 0.67400002 44 39 18 255
0.047946174 -0.2848126 0.67600006 43 38 17 255
0.049935412 -0.2856544 0.67800003 45 40 20 255
0.051935539 -0.28649616 0.68000001 47 39 22 255
0.053788353 -0.2864953 0.68000001 44 37 17 255
0.055968456 -0.28817976 0.68400002 45 38 18 255
0.05800125 -0.28902149 0.68600005 51 41 22 255
0.060132194 -0.29028454 0.68900001 52 42 23 255
0.061919488 -0.28986236 0.68800002 43 34 13 255
0.063886769 -0.29028282 0.68900001 44 35 14 255
0.065764032 -0.29028192 0.68900001 61 52 31 255
0.067837641 -0.29112369 0.69100004 64 55 34 255
0.069821246 -0.29154417 0.69200003 64 55 34 255
0.071913905 -0.29238594 0.69400001 58 51 30 255
0.074017465 -0.29322773 0.69600004 49 43 26 255
0.07613191 -0.29406956 0.69800001 50 44 27 255
0.078145467 -0.2944901 0.69900006 38 34 17 255
0.08027897 -0.29533193 0.70100003 44 42 24 255
0.082306139 -0.29575253 0.70200002 45 41 24 255
0.084338754 -0.2961731 0.70300001 46 40 23 255
0.086376831 -0.29659379 0.70400006 43 37 20 255
0.088545762 -0.29743576 0.70600003 46 38 21 255
0.090597473 -0.29785651 0.70700002 43 35 18 255
0.092785493 -0.2986986 0.70900005 48 38 21 255
0.094984442 -0.2995407 0.71100003 57 45 28 255
0.097330607 -0.30080423 0.71400005 72 60 43 255
0.099693127 -0.30206776 0.71700001 81 69 50 255
0.10235556 -0.30417398 0.72200006 65 53 34 255
0.10461181 -0.30501637 0.72400004 57 45 26 255
0.10717338 -0.30670142 0.72800004 51 41 24 255
0.10975678 -0.30838656 0.73200005 43 35 18 255
0.11297268 -0.31175694 0.74000001 40 34 17 255
0.11669838 -0.31639132 0.75100005 41 37 20 255
0.1206422 -0.3214471 0.76300001 43 41 23 255
0.12368642 -0.32397524 0.76900005 42 40 22 255
0.12627266 -0.32523957 0.77200001 63 61 43 255
0.1295405 -0.32818928 0.77900004 85 85 67 255
0.1325085 -0.33029646 0.78400004 68 69 45 255
0.13498861 -0.33113995 0.78600001 61 60 38 255
0.13608393 -0.32861313 0.78000003 52 52 34 255
0.13767821 -0.32735038 0.77700001 31 30 14 255
0.13943614 -0.32650909 0.77500004 24 22 11 255
0.14118324 -0.32566789 0.77300006 21 19 8 255
0.14273416 -0.32440555 0.77000004 23 21 10 255
0.1442688 -0.32314339 0.76700002 24 23 9 255
0.14597802 -0.32230267 0.76500005 28 27 13 255
0.14767647 -0.32146212 0.76300001 24 25 11 255
0.14936408 -0.32062173 0.76100004 29 28 14 255
0.15123993 -0.32020289 0.76000005 30 27 13 255
0.15250528 -0.31852025 0.75600004 30 27 13 255
0.15436228 -0.3181017 0.75500005 31 28 12 255
0.15579961 -0.31684077 0.75200003 31 29 11 255
0.15806036 -0.3172653 0.75300002 35 32 16 255
0.15947618 -0.31600475 0.75000006 34 31 15 255
0.16152187 -0.31600836 0.75000006 32 32 14 255
0.16313154 -0.31516954 0.74800003 33 33 15 255
0.16473049 -0.31433097 0.74600005 33 31 13 255
0.1663187 -0.31349257 0.74400002 33 31 13 255
0.168575 -0.31391853 0.74500006 38 36 18 255
0.17083699 -0.31434476 0.74600005 34 32 14 255
0.17264116 -0.31392848 0.74500006 33 31 13 255
0.17420562 -0.31309107 0.74300003 39 37 19 255
0.17575939 -0.31225392 0.74100006 38 36 16 255
0.17802225 -0.31268123 0.74200004 37 37 19 255
0.1798055 -0.31226602 0.74100006 37 35 15 255
0.18207432 -0.31269398 0.74200004 40 38 18 255
0.18335639 -0.31143647 0.73900002 38 36 18 255
0.18562578 -0.31186503 0.74000001 38 36 18 255
0.18764727 -0.31187245 0.74000001 40 37 17 255
0.1896691 -0.31188023 0.74000001 38 35 15 255
0.19169125 -0.31188834 0.74000001 38 35 15 255
0.19345193 -0.31147534 0.73900002 37 34 14 255
0.195472 -0.31148413 0.73900002 37 35 17 255
0.19749238 -0.31149328 0.73900002 37 35 17 255
0.19951314 -0.31150281 0.73900002 41 39 21 255
0.20180696 -0.31193426 0.74000001 37 35 17 255
0.20355575 -0.31152299 0.73900002 34 32 14 255
0.20529947 -0.31111217 0.73800004 34 32 14 255
0.2067572 -0.31028008 0.73600006 42 40 22 255
0.20848806 -0.30986995 0.73500001 37 35 17 255
0.21021388 -0.30946022 0.73400003 41 39 21 255
0.2122238 -0.3094725 0.73400003 38 36 18 255
0.21394233 -0.30906361 0.73300004 39 37 17 255
0.21595043 -0.30907673 0.73300004 37 35 15 255
0.21766169 -0.30866867 0.73200005 40 39 15 255
0.21966809 -0.30868271 0.73200005 46 44 19 255
0.22228061 -0.30954063 0.73400003 47 46 22 255
0.22673815 -0.3129296 0.74200004 56 55 33 255
-0.32451382 -0.34359628 0.80700004 44 47 53 255
-0.31707364 -0.33801842 0.79400003 55 57 39 255
-0.31208667 -0.33499703 0.78700006 51 49 29 255
-0.30792758 -0.3328284 0.78200006 49 48 26 255
-0.30497068 -0.33193794 0.78000003 47 46 24 255
-0.30241439 -0.33147407 0.77900004 51 50 26 255
-0.30025041 -0.33143666 0.77900004 46 45 21 255
-0.29847032 -0.33182555 0.78000003 47 46 22 255
-0.29630607 -0.33178985 0.78000003 43 43 17 255
-0.29414305 -0.33175498 0.78000003 44 43 19 255
-0.29235551 -0.33214623 0.78100002 46 45 23 255
-0.29019204 -0.332113 0.78100002 42 40 20 255
-0.28876728 -0.33293095 0.78300005 39 39 19 255
-0.28660053 -0.33289924 0.78300005 37 35 17 255
-0.28552461 -0.33414364 0.78600001 31 29 11 255
-0.28371218 -0.33453849 0.78700006 31 29 11 255
-0.28189525 -0.33493397 0.78800005 31 29 11 255
-0.28007379 -0.3353301 0.78900003 31 29 11 255
-0.2782478 -0.33572698 0.79000002 32 30 12 255
-0.27676672 -0.33654937 0.79200006 29 27 9 255
-0.27492884 -0.3369475 0.79300004 34 32 14 255
-0.27343032 -0.33777112 0.79500002 31 27 10 255
-0.27123928 -0.33774567 0.79500002 36 32 15 255
-0.26938757 -0.33814567 0.79600006 35 33 13 255
-0.26685983 -0.33769676 0.79500002 38 36 16 255
-0.26500428 -0.33809805 0.79600006 37 36 14 255
-0.26215351 -0.33722576 0.79400003 37 35 15 255
-0.259642 -0.33677897 0.79300004 37 35 15 255
-0.2571367 -0.33633283 0.79200006 41 39 19 255
-0.25495955 -0.33631197 0.79200006 36 34 16 255
-0.252464 -0.33586711 0.79100001 38 36 16 255
-0.24997459 -0.3354229 0.79000002 42 40 22 255
-0.24749143 -0.33497936 0.78900003 30 30 12 255
-0.24563622 -0.33538547 0.79000002 32 32 14 255
-0.243468 -0.33536756 0.79000002 29 29 11 255
-0.24160585 -0.33577472 0.79100001 29 27 9 255
-0.23943612 -0.33575791 0.79100001 33 31 13 255
-0.23756696 -0.33616608 0.79200006 30 26 9 255
-0.23450397 -0.33487695 0.78900003 31 28 8 255
-0.23145801 -0.33358854 0.78600001 41 38 17 255
-0.22813731 -0.33187628 0.78200006 46 44 20 255
-0.22512802 -0.33058903 0.77900004 41 40 16 255
-0.22213565 -0.32930237 0.77600002 38 37 13 255
-0.21859318 -0.32716757 0.77100003 41 40 16 255
-0.21535933 -0.32545772 0.76700002 44 43 21 255
-0.21242587 -0.32417277 0.76400006 42 41 19 255
-0.20978455 -0.32331261 0.76200002 44 43 21 255
-0.20688204 -0.32202864 0.75900006 45 43 23 255
-0.20345667 -0.31989661 0.75400001 44 42 22 255
-0.20032614 -0.31818941 0.75000006 45 43 23 255
-0.19721785 -0.31648269 0.74600005 48 46 28 255
-0.19413178 -0.31477642 0.74200004 50 48 30 255
-0.19003229 -0.31137374 0.73400003 50 48 30 255
-0.18674541 -0.30924422 0.72900003 44 42 24 255
-0.18323272 -0.30669099 0.72300005 47 45 25 255
-0.1807559 -0.30583492 0.72100002 47 45 25 255
-0.17829034 -0.30497921 0.71900004 47 45 25 255
-0.17583594 -0.30412385 0.71700001 50 48 28 255
-0.17339277 -0.30326885 0.71500003 48 45 24 255
-0.17072095 -0.30199 0.71200001 53 51 26 255
-0.16830285 -0.30113569 0.71000004 56 53 25 255
-0.16519292 -0.29900923 0.70500004 54 53 25 255
-0.16211052 -0.29688317 0.70000005 64 63 39 255
-0.15859792 -0.29390922 0.69300002 60 59 35 255
-0.15534984 -0.29135972 0.68700004 54 53 29 255
-0.1519113 -0.28838646 0.68000001 56 55 33 255
-0.14917319 -0.28668582 0.67600006 54 53 29 255
-0.14711086 -0.28625762 0.67500001 52 52 26 255
-0.14548461 -0.28667793 0.67600006 53 52 30 255
-0.14300311 -0.28540206 0.67300004 46 46 20 255
-0.14095761 -0.2849746 0.67200005 48 47 23 255
-0.13850367 -0.28369918 0.66900003 45 44 20 255
-0.13667913 -0.28369617 0.66900003 43 42 18 255
-0.13465317 -0.28326935 0.66800004 46 45 21 255
-0.13303044 -0.28369075 0.66900003 46 45 21 255
-0.13101014 -0.28326428 0.66800004 50 49 25 255
-0.12938219 -0.28368601 0.66900003 45 44 20 255
-0.12736757 -0.2832599 0.66800004 44 43 19 255
-0.12554646 -0.28325793 0.66800004 43 40 19 255
-0.12335496 -0.28240803 0.66600001 51 48 28 255
-0.12153946 -0.28240642 0.66600001 47 46 24 255
-0.11972404 -0.2824049 0.66600001 41 40 18 255
-0.11808575 -0.28282759 0.66700006 44 43 21 255
-0.11609342 -0.28240231 0.66600001 38 37 15 255
-0.11410661 -0.28197715 0.66500002 42 41 17 255
-0.11195648 -0.28112814 0.66300005 44 43 21 255
-0.10998342 -0.28070325 0.66200006 41 41 21 255
-0.10817929 -0.28070247 0.66200006 42 42 22 255
-0.10637521 -0.28070185 0.66200006 52 52 32 255
-0.1044132 -0.28027725 0.66100001 52 50 30 255
-0.1024567 -0.27985281 0.66000003 51 49 29 255
-0.10035318 -0.27900442 0.65800005 50 49 27 255
-0.098410361 -0.2785801 0.65700001 55 54 32 255
-0.096325979 -0.27773187 0.65500003 65 63 43 255
-0.0945412 -0.27773178 0.65500003 64 62 42 255
-0.092614837 -0.27730772 0.65400004 55 53 33 255
-0.090832815 -0.27730778 0.65400004 54 52 32 255
-0.088778496 -0.27645981 0.65200001 55 54 32 255
-0.086868539 -0.27603596 0.65100002 68 67 45 255
-0.085094765 -0.2760362 0.65100002 64 63 39 255
-0.083193019 -0.27561247 0.65000004 53 52 28 255
-0.081421986 -0.2756128 0.65000004 54 53 31 255
-0.079528429 -0.27518916 0.64900005 50 48 30 255
-0.077760145 -0.27518961 0.64900005 56 54 36 255
-0.075991854 -0.27519006 0.64900005 60 58 40 255
-0.074223578 -0.27519053 0.64900005 55 53 35 255
-0.072232008 -0.27434301 0.64700001 47 47 29 255
-0.070469193 -0.27434358 0.64700001 58 58 40 255
-0.068706363 -0.27434418 0.64700001 50 50 32 255
-0.067047007 -0.2747688 0.648 47 45 27 255
-0.065281443 -0.27476943 0.648 49 46 26 255
-0.063417874 -0.27434605 0.64700001 58 55 34 255
-0.061559748 -0.27392271 0.64600003 55 52 32 255
-0.059799626 -0.27392337 0.64600003 54 50 33 255
-0.058039498 -0.27392408 0.64600003 54 52 34 255
-0.056366485 -0.2743488 0.64700001 48 47 31 255
-0.054603614 -0.27434948 0.64700001 57 54 38 255
-0.0526774 -0.27350214 0.64500004 54 52 34 255
-0.050841026 -0.27307883 0.64400005 56 54 34 255
-0.049010076 -0.27265543 0.64300001 50 47 26 255
-0.047331575 -0.2730802 0.64400005 50 48 24 255
-0.045647603 -0.27350491 0.64500004 48 44 19 255
-0.04389013 -0.2735056 0.64500004 48 44 20 255
-0.042132642 -0.27350628 0.64500004 45 41 16 255
-0.040500343 -0.27435499 0.64700001 54 50 25 255
-0.038677517 -0.27393159 0.64600003 51 47 22 255
-0.036860127 -0.27350816 0.64500004 50 46 21 255
-0.035048179 -0.27308476 0.64400005 50 46 21 255
-0.033345066 -0.27350935 0.64500004 55 50 29 255
-0.031636491 -0.27393398 0.64600003 50 47 26 255
-0.029922459 -0.27435857 0.64700001 43 40 20 255
-0.028159443 -0.27435911 0.64700001 43 41 23 255
-0.02635562 -0.27393556 0.64600003 46 44 26 255
-0.024557238 -0.27351198 0.64500004 42 40 22 255
-0.022764299 -0.27308837 0.64400005 45 43 23 255
-0.0209768 -0.2726647 0.64300001 44 43 21 255
-0.019254543 -0.27308917 0.64400005 42 40 20 255
-0.017526828 -0.27351359 0.64500004 44 41 21 255
-0.01584255 -0.27478606 0.648 52 49 29 255
-0.014055026 -0.2743623 0.64700001 52 49 29 255
-0.012291946 -0.27436253 0.64700001 70 65 45 255
-0.010496313 -0.27351463 0.64500004 75 71 47 255
-0.0087657692 -0.27436292 0.64700001 71 67 43 255
-0.0069918525 -0.27393904 0.64600003 68 63 42 255
-0.0052476781 -0.27478725 0.648 78 73 52 255
-0.0034818558 -0.27478737 0.648 54 51 31 255
-0.0017213279 -0.27563551 0.65000004 46 43 22 255
4.9946844e-05 -0.27563557 0.65000004 48 45 25 255
0.0018156178 -0.2747874 0.648 44 42 22 255
0.0035703881 -0.27393925 0.64600003 42 39 18 255
0.0053307614 -0.27393916 0.64600003 49 46 26 255
0.007102109 -0.2743631 0.64700001 47 43 26 255
0.0088789025 -0.27478698 0.648 41 37 20 255
0.010677571 -0.27563491 0.65000004 45 39 22 255
0.012467984 -0.2760587 0.65100002 46 40 23 255
0.014241965 -0.27605847 0.65100002 46 40 23 255
0.016040543 -0.27648222 0.65200001 45 40 20 255
0.017844565 -0.27690595 0.65300006 47 42 22 255
0.019654032 -0.27732965 0.65400004 43 35 18 255
0.021468939 -0.27775329 0.65500003 46 38 21 255
0.023289289 -0.27817693 0.65600002 53 46 26 255
0.025153311 -0.2790246 0.65800005 54 47 26 255
0.027028222 -0.27987218 0.66000003 70 61 38 255
0.028914025 -0.28071982 0.66200006 71 63 38 255
0.030764315 -0.28114331 0.66300005 75 69 42 255
0.032620046 -0.2815668 0.66400003 61 55 28 255
0.034533065 -0.28241429 0.66600001 57 49 24 255
0.036402404 -0.28283775 0.66700006 51 42 19 255
0.038334474 -0.28368518 0.66900003 50 41 18 255
0.040277436 -0.28453261 0.671 46 38 13 255
0.042231288 -0.28538007 0.67300004 46 40 15 255
0.044130556 -0.28580341 0.67400002 46 40 15 255
0.046035256 -0.28622675 0.67500001 46 39 16 255
0.048016328 -0.28707412 0.67700005 47 40 19 255
0.050008282 -0.28792146 0.67900002 43 38 17 255
0.051934749 -0.28834474 0.68000001 45 38 18 255
0.053787552 -0.288344 0.68000001 46 39 19 255
0.055804007 -0.28919137 0.68200004 46 39 19 255
0.058000442 -0.29088676 0.68600005 45 35 16 255
0.06004411 -0.29173404 0.68800002 49 39 20 255
0.061828684 -0.2913093 0.68700004 49 40 19 255
0.06370052 -0.29130858 0.68700004 49 39 20 255
0.06576325 -0.29215589 0.68900001 48 38 19 255
0.067738689 -0.29257923 0.69000006 59 49 30 255
0.069719583 -0.29300255 0.69100004 69 62 42 255
0.071809538 -0.29384995 0.69300002 71 63 46 255
0.074016742 -0.29512137 0.69600004 61 55 38 255
0.07613121 -0.29596877 0.69800001 55 50 30 255
0.078144789 -0.2963922 0.69900006 47 44 24 255
0.080163807 -0.29681563 0.70000005 45 43 23 255
0.082188286 -0.29723912 0.70100003 45 43 23 255
0.084338181 -0.29808667 0.70300001 39 36 16 255
0.086253598 -0.29808623 0.70300001 40 36 19 255
0.088294454 -0.29850984 0.70400006 42 36 19 255
0.090468884 -0.2993575 0.70600003 42 34 17 255
0.092785127 -0.30062929 0.70900005 56 46 29 255
0.094984122 -0.30147707 0.71100003 69 57 40 255
0.097194038 -0.30232495 0.71300006 76 64 47 255
0.099692948 -0.30402088 0.71700001 66 56 37 255
0.10221368 -0.30571693 0.72100002 59 49 32 255
0.10446727 -0.30656502 0.72300005 52 44 27 255
0.10687899 -0.30783716 0.72600001 41 33 16 255
0.10960697 -0.30995747 0.73100001 40 34 17 255
0.11282024 -0.31334993 0.73900002 42 36 19 255
0.11638793 -0.3175905 0.74900001 45 39 22 255
0.12032641 -0.32267931 0.76100004 50 44 27 255
0.12336528 -0.32522404 0.76700002 38 34 17 255
0.12594622 -0.3264969 0.77000004 36 34 16 255
0.12887613 -0.3286179 0.77500004 85 85 67 255
0.13234043 -0.3320111 0.78300005 83 83 63 255
0.13516144 -0.33370838 0.78700006 33 33 13 255
0.13625962 -0.33116552 0.78100002 55 55 37 255
0.13785678 -0.32989493 0.77800006 30 29 13 255
0.13943765 -0.32862443 0.77500004 22 19 5 255
0.14100225 -0.32735404 0.77200001 24 20 9 255
0.14255062 -0.3260839 0.76900005 20 18 7 255
0.14408271 -0.32481384 0.76600003 26 24 13 255
0.14578938 -0.32396802 0.76400006 27 26 12 255
0.14767879 -0.32354638 0.76300001 24 25 11 255
0.1493666 -0.32270089 0.76100004 25 26 12 255
0.15104365 -0.32185563 0.75900006 31 30 16 255
0.15210469 -0.3197383 0.75400001 29 28 12 255
0.153752 -0.31889334 0.75200003 32 30 12 255
0.15559573 -0.31847268 0.75100005 32 30 12 255
0.15785396 -0.31890032 0.75200003 33 31 13 255
0.15969253 -0.31848004 0.75100005 35 33 15 255
0.16152583 -0.31806004 0.75000006 38 36 18 255
0.16313572 -0.3172161 0.74800003 37 35 17 255
0.16495574 -0.31679657 0.74700004 35 33 15 255
0.16677044 -0.31637716 0.74600005 35 33 15 255
0.16857992 -0.31595808 0.74500006 34 32 14 255
0.17084217 -0.31638744 0.74600005 33 31 13 255
0.17264661 -0.31596887 0.74500006 34 32 14 255
0.17421132 -0.31512639 0.74300003 37 35 17 255
0.17576537 -0.31428421 0.74100006 39 37 17 255
0.17802852 -0.3147147 0.74200004 37 37 17 255
0.17981207 -0.3142972 0.74100006 36 35 13 255
0.18208121 -0.31472829 0.74200004 35 34 12 255
0.18311545 -0.31303889 0.73800004 38 36 16 255
0.18513156 -0.31304643 0.73800004 42 40 20 255
0.18740153 -0.3134785 0.73900002 42 39 18 255
0.18967728 -0.3139109 0.74000001 41 38 17 255
0.19195883 -0.31434372 0.74100006 41 38 17 255
0.19346078 -0.31350419 0.73900002 39 36 15 255
0.19574572 -0.31393775 0.74000001 39 37 17 255
0.19750196 -0.31352317 0.73900002 38 36 18 255
0.19952309 -0.31353319 0.73900002 35 33 15 255
0.20127191 -0.31311935 0.73800004 39 37 19 255
0.20301558 -0.31270584 0.73700005 34 32 14 255
0.20475423 -0.31229272 0.73600006 34 32 12 255
0.20676874 -0.31230432 0.73600006 36 34 14 255
0.20849998 -0.31189194 0.73500001 42 40 20 255
0.20965342 -0.3106313 0.73200005 40 38 20 255
0.21136911 -0.31021971 0.73100001 39 37 19 255
0.21337172 -0.31023291 0.73100001 37 35 15 255
0.21537483 -0.31024659 0.73100001 43 41 21 255
0.21767581 -0.31068519 0.73200005 44 43 19 255
0.21968266 -0.31069982 0.73200005 48 46 22 255
0.22229572 -0.31156385 0.73400003 51 50 26 255
0.22644833 -0.31455094 0.74100006 50 49 27 255
-0.32536268 -0.3467088 0.80900002 42 49 38 255
-0.31791529 -0.34109357 0.79600006 56 58 41 255
-0.31212816 -0.3371945 0.78700006 54 52 34 255
-0.30836168 -0.33543941 0.78300005 56 54 34 255
-0.30500993 -0.33411402 0.78000003 54 52 32 255
-0.30284095 -0.33407474 0.78000003 47 47 27 255
-0.30028784 -0.33360809 0.77900004 39 39 19 255
-0.29850695 -0.33399886 0.78000003 46 46 26 255
-0.29596192 -0.33353409 0.77900004 42 43 21 255
-0.2938008 -0.33349839 0.77900004 46 46 26 255
-0.29164085 -0.33346349 0.77900004 40 40 20 255
-0.29022533 -0.33428553 0.78100002 39 39 19 255
-0.28843102 -0.3346802 0.78200006 36 36 16 255
-0.28663227 -0.33507562 0.78300005 38 36 18 255
-0.28519237 -0.33589959 0.78500003 32 30 12 255
-0.28374255 -0.33672428 0.78700006 32 30 12 255
-0.28228262 -0.33754951 0.78900003 32 30 12 255
-0.28045771 -0.33794761 0.79000002 29 27 9 255
-0.27792376 -0.33749089 0.78900003 33 31 13 255
-0.27644479 -0.33831808 0.79100001 27 25 7 255
-0.27460897 -0.33871824 0.79200006 33 31 13 255
-0.27345651 -0.33997428 0.79500002 30 28 10 255
-0.27160603 -0.34037566 0.79600006 31 27 10 255
-0.26941243 -0.34035006 0.79600006 32 30 12 255
-0.26721972 -0.34032518 0.79600006 33 31 11 255
-0.26502782 -0.34030092 0.79600006 38 36 16 255
-0.26250654 -0.33984986 0.79500002 38 36 16 255
-0.26031902 -0.33982694 0.79500002 37 35 15 255
-0.25748292 -0.33894986 0.79300004 38 36 16 255
-0.25530237 -0.33892825 0.79300004 39 37 19 255
-0.25216508 -0.33762521 0.79000002 39 37 19 255
-0.24999426 -0.33760491 0.79000002 35 33 15 255
-0.24751045 -0.33715788 0.78900003 41 39 21 255
-0.24565473 -0.33756611 0.79000002 32 32 14 255
-0.24348594 -0.33754754 0.79000002 28 28 10 255
-0.24162325 -0.33795679 0.79100001 31 29 11 255
-0.23945299 -0.33793932 0.79100001 35 32 16 255
-0.23728332 -0.33792239 0.79100001 31 29 11 255
-0.23481701 -0.33747882 0.79000002 27 25 7 255
-0.23206222 -0.33660862 0.78800005 38 36 16 255
-0.22844371 -0.33445755 0.78300005 43 42 20 255
-0.22543114 -0.33316144 0.78000003 38 37 13 255
-0.22214924 -0.33143878 0.77600002 42 42 16 255
-0.21888976 -0.32971671 0.77200001 42 41 17 255
-0.21537188 -0.32756823 0.76700002 46 45 23 255
-0.212716 -0.32670152 0.76500005 44 43 21 255
-0.20952083 -0.32498121 0.76100004 43 41 21 255
-0.20662057 -0.32368842 0.75800002 47 44 24 255
-0.20346734 -0.32196921 0.75400001 46 43 22 255
-0.20060347 -0.32067749 0.75100005 42 40 16 255
-0.19722763 -0.31853223 0.74600005 48 47 23 255
-0.19387949 -0.3163875 0.74100006 50 49 25 255
-0.19004121 -0.31338933 0.73400003 45 44 22 255
-0.18675391 -0.31124565 0.72900003 43 42 20 255
-0.18349427 -0.30910239 0.72400004 44 43 21 255
-0.18051295 -0.30738652 0.72000003 47 46 24 255
-0.17780177 -0.30609795 0.71700001 51 48 28 255
-0.17559777 -0.30566359 0.71600002 51 47 30 255
-0.17339949 -0.30522954 0.71500003 51 48 28 255
-0.17072739 -0.30394205 0.71200001 60 58 34 255
-0.16783486 -0.30222806 0.708 57 55 30 255
-0.16473009 -0.30008754 0.70300001 58 58 30 255
-0.16165285 -0.29794741 0.69800001 61 60 36 255
-0.1586031 -0.2958076 0.69300002 65 64 42 255
-0.15535474 -0.29324126 0.68700004 61 60 38 255
-0.15236273 -0.29110214 0.68200004 65 64 42 255
-0.14983955 -0.28981695 0.67900002 54 54 28 255
-0.14755088 -0.28895888 0.67700005 52 54 28 255
-0.14570373 -0.28895468 0.67700005 57 56 32 255
-0.14321925 -0.28767025 0.67400002 56 56 30 255
-0.14096108 -0.2868129 0.67200005 54 53 29 255
-0.13850692 -0.28552893 0.66900003 52 50 26 255
-0.13647789 -0.28509885 0.66800004 47 46 22 255
-0.13465603 -0.28509572 0.66800004 47 46 22 255
-0.133232 -0.28594634 0.67000002 49 48 24 255
-0.13140491 -0.2859436 0.67000002 50 48 24 255
-0.12957796 -0.28594097 0.67000002 45 43 19 255
-0.12756044 -0.28551176 0.66900003 43 41 17 255
-0.12554847 -0.28508276 0.66800004 45 41 17 255
-0.12335682 -0.2842271 0.66600001 46 43 22 255
-0.12154119 -0.28422523 0.66600001 41 40 18 255
-0.11990538 -0.28465018 0.66700006 42 41 19 255
-0.11808718 -0.28464854 0.66700006 43 42 20 255
-0.11626904 -0.28464702 0.66700006 45 44 22 255
-0.1141078 -0.28379211 0.66500002 44 43 21 255
-0.11212638 -0.28336409 0.66400003 44 43 21 255
-0.10998437 -0.28250951 0.66200006 39 38 16 255
-0.10818012 -0.28250846 0.66200006 48 46 26 255
-0.10637593 -0.28250757 0.66200006 49 48 26 255
-0.1045718 -0.28250679 0.66200006 48 47 25 255
-0.10230199 -0.28122586 0.65900004 51 49 29 255
-0.10035361 -0.28079849 0.65800005 51 50 28 255
-0.098410703 -0.28037125 0.65700001 54 52 32 255
-0.096326239 -0.27951738 0.65500003 54 52 32 255
-0.094397038 -0.27909032 0.65400004 57 55 37 255
-0.092614934 -0.27909005 0.65400004 54 52 34 255
-0.090832844 -0.27908987 0.65400004 62 60 40 255
-0.08891464 -0.27866304 0.65300006 59 57 37 255
-0.086868443 -0.2778095 0.65100002 57 56 34 255
-0.084963903 -0.27738282 0.65000004 52 51 27 255
-0.083192803 -0.27738288 0.65000004 50 49 25 255
-0.081421725 -0.27738303 0.65000004 51 50 28 255
-0.079650655 -0.27738324 0.65000004 54 52 32 255
-0.077999413 -0.27781019 0.65100002 53 51 31 255
-0.076108553 -0.27738377 0.65000004 60 58 38 255
-0.074223146 -0.27695736 0.64900005 52 50 32 255
-0.072231553 -0.27610418 0.64700001 46 44 26 255
-0.070468694 -0.27610457 0.64700001 48 46 28 255
-0.068812028 -0.27653176 0.648 51 51 33 255
-0.067046456 -0.2765322 0.648 51 49 31 255
-0.065079398 -0.2756792 0.64600003 56 53 32 255
-0.063319273 -0.27567974 0.64600003 59 56 35 255
-0.061654437 -0.27610701 0.64700001 53 50 29 255
-0.059891578 -0.27610755 0.64700001 49 46 26 255
-0.058038875 -0.27568138 0.64600003 55 53 35 255
-0.056278724 -0.27568191 0.64600003 53 50 34 255
-0.054434191 -0.27525574 0.64500004 50 49 33 255
-0.05267676 -0.27525634 0.64500004 51 49 31 255
-0.050919328 -0.27525693 0.64500004 55 54 32 255
-0.049161881 -0.27525753 0.64500004 53 52 30 255
-0.047404431 -0.27525809 0.64500004 54 53 29 255
-0.045646973 -0.27525866 0.64500004 49 47 23 255
-0.043889504 -0.27525923 0.64500004 48 45 24 255
-0.042132027 -0.27525982 0.64500004 55 51 26 255
-0.040374544 -0.27526036 0.64500004 57 53 28 255
-0.038676921 -0.27568766 0.64600003 50 46 21 255
-0.036859553 -0.27526149 0.64500004 52 48 23 255
-0.035156462 -0.27568877 0.64600003 51 45 20 255
-0.033344526 -0.2752625 0.64500004 50 46 22 255
-0.03163597 -0.27568975 0.64600003 47 42 21 255
-0.029875709 -0.27569026 0.64600003 43 40 20 255
-0.028158966 -0.27611747 0.64700001 44 42 24 255
-0.026395964 -0.27611789 0.64700001 45 43 25 255
-0.024594884 -0.27569154 0.64600003 41 39 19 255
-0.022799246 -0.27526519 0.64500004 46 44 24 255
-0.021074295 -0.27569228 0.64600003 47 45 25 255
-0.019284094 -0.27526587 0.64500004 52 50 30 255
-0.01755368 -0.27569294 0.64600003 49 47 29 255
-0.015817814 -0.27612001 0.64700001 40 38 20 255
-0.014033045 -0.27569351 0.64600003 54 52 34 255
-0.01227272 -0.27569374 0.64600003 70 67 47 255
-0.010496118 -0.27526715 0.64500004 68 65 44 255
-0.0087791532 -0.27654761 0.648 59 57 33 255
-0.0070241913 -0.27697456 0.64900005 55 51 27 255
-0.0052637765 -0.27740145 0.65000004 57 52 31 255
-0.0034925365 -0.27740151 0.65000004 45 42 22 255
-0.0017212955 -0.27740154 0.65000004 45 42 22 255
4.9869061e-05 -0.27697483 0.64900005 46 42 25 255
0.0018127818 -0.27612123 0.64700001 44 42 24 255
0.0035758477 -0.27612117 0.64700001 44 42 22 255
0.0053389119 -0.27612108 0.64700001 41 39 19 255
0.0071349056 -0.2774013 0.65000004 37 35 17 255
0.0088924393 -0.27697441 0.64900005 39 37 19 255
0.010677373 -0.27740103 0.65000004 39 35 18 255
0.012448601 -0.27740079 0.65000004 44 40 23 255
0.014241703 -0.27782732 0.65100002 41 35 18 255
0.016040249 -0.27825382 0.65200001 45 39 22 255
0.017816916 -0.27825356 0.65200001 46 41 21 255
0.019653678 -0.2791068 0.65400004 46 38 21 255
0.021468556 -0.27953321 0.65500003 50 43 23 255
0.02328888 -0.27995959 0.65600002 49 42 22 255
0.025152873 -0.28081274 0.65800005 51 43 26 255
0.027027754 -0.28166583 0.66000003 51 42 21 255
0.028957207 -0.28294569 0.66300005 62 53 30 255
0.0308102 -0.28337198 0.66400003 75 69 44 255
0.032717753 -0.28422502 0.66600001 67 61 36 255
0.034584358 -0.28465128 0.66700006 51 42 19 255
0.036456395 -0.28507751 0.66800004 51 44 21 255
0.038276579 -0.28507698 0.66800004 46 39 16 255
0.040216796 -0.28592989 0.67000002 50 44 19 255
0.042230655 -0.28720963 0.67300004 47 41 16 255
0.044195388 -0.28806254 0.67500001 44 38 13 255
0.046102799 -0.28848872 0.67600006 47 40 17 255
0.048015662 -0.28891489 0.67700005 42 35 12 255
0.049933963 -0.28934103 0.67800003 47 40 17 255
0.051934075 -0.29019392 0.68000001 46 39 18 255
0.053945079 -0.2910468 0.68200004 47 40 19 255
0.055885147 -0.29147294 0.68300003 45 38 17 255
0.057915214 -0.29232585 0.68500006 48 38 19 255
0.059956159 -0.29317871 0.68700004 45 35 16 255
0.061828021 -0.29317814 0.68700004 44 34 15 255
0.063885309 -0.29403105 0.68900001 43 35 18 255
0.065858051 -0.29445723 0.69000006 46 38 21 255
0.067738071 -0.29445666 0.69000006 52 44 27 255
0.069718972 -0.29488286 0.69100004 54 47 27 255
0.071808949 -0.29573584 0.69300002 60 52 35 255
0.074228868 -0.29786909 0.69800001 68 63 43 255
0.07623975 -0.29829538 0.69900006 67 62 41 255
0.078256078 -0.29872167 0.70000005 54 51 30 255
0.08027786 -0.29914802 0.70100003 49 48 26 255
0.082305104 -0.2995744 0.70200002 40 39 17 255
0.084457777 -0.30042762 0.70400006 41 38 18 255
0.086498655 -0.30085409 0.70500004 37 33 16 255
0.088419586 -0.30085388 0.70500004 43 39 22 255
0.090468667 -0.30128047 0.70600003 51 43 26 255
0.092654079 -0.30213389 0.708 66 56 39 255
0.094850428 -0.30298734 0.71000004 74 62 43 255
0.097057685 -0.30384085 0.71200001 68 56 37 255
0.099553943 -0.30554792 0.71600002 46 34 15 255
0.10193028 -0.30682838 0.71900004 45 35 16 255
0.10432298 -0.3081089 0.72200006 42 34 17 255
0.10687928 -0.30981621 0.72600001 44 36 19 255
0.10960736 -0.31195039 0.73100001 44 36 19 255
0.11266807 -0.31493819 0.73800004 43 35 18 255
0.11623315 -0.3192063 0.74800003 51 43 26 255
0.12001091 -0.32390133 0.75900006 56 48 31 255
0.12336612 -0.32731622 0.76700002 45 39 22 255
0.12578362 -0.32817078 0.76900005 32 28 11 255
0.12854466 -0.32987896 0.77300006 45 43 25 255
0.13149659 -0.33201402 0.77800006 82 80 60 255
0.13499109 -0.33542955 0.78600001 81 79 61 255
0.13678457 -0.33457768 0.78400004 80 78 60 255
0.13821286 -0.33287245 0.78000003 34 31 15 255
0.13961942 -0.33116734 0.77600002 26 23 9 255
0.14118692 -0.32988915 0.77300006 25 21 10 255
0.14273816 -0.32861111 0.77000004 23 19 8 255
0.14427313 -0.32733318 0.76700002 21 20 6 255
0.14579187 -0.32605547 0.76400006 27 26 12 255
0.14768147 -0.32563144 0.76300001 25 26 12 255
0.14936948 -0.32478085 0.76100004 25 26 12 255
0.15104671 -0.3239305 0.75900006 27 29 12 255
0.15230969 -0.32222664 0.75500005 27 26 10 255
0.15375544 -0.32094979 0.75200003 32 30 12 255
0.15559939 -0.32052675 0.75100005 34 32 14 255
0.15785785 -0.32095751 0.75200003 33 31 13 255
0.15990931 -0.32096174 0.75200003 34 32 14 255
0.16174555 -0.32053936 0.75100005 38 36 18 255
0.16357651 -0.32011721 0.75000006 38 36 18 255
0.16562304 -0.32012212 0.75000006 37 35 17 255
0.1674462 -0.31970045 0.74900001 36 34 16 255
0.16926411 -0.31927904 0.74800003 36 34 16 255
0.17107677 -0.31885785 0.74700004 34 32 14 255
0.17265248 -0.31801012 0.74500006 35 33 15 255
0.17468642 -0.31801635 0.74500006 37 35 17 255
0.176009 -0.31674224 0.74200004 38 36 16 255
0.1782752 -0.31717592 0.74300003 40 38 18 255
0.17981909 -0.31632924 0.74100006 39 38 16 255
0.18233395 -0.31719044 0.74300003 35 34 12 255
0.18361934 -0.31591743 0.74000001 43 42 20 255
0.18564123 -0.31592545 0.74000001 38 37 15 255
0.18791702 -0.31636077 0.74100006 40 37 16 255
0.18994227 -0.31636953 0.74100006 42 39 18 255
0.19196786 -0.31637862 0.74100006 40 37 16 255
0.19373193 -0.31596106 0.74000001 39 36 15 255
0.19575547 -0.31597087 0.74000001 40 36 19 255
0.19777931 -0.315981 0.74000001 40 38 20 255
0.19980358 -0.31599158 0.74000001 38 34 17 255
0.20128275 -0.31514847 0.73800004 38 34 17 255
0.20275135 -0.31430572 0.73600006 38 36 18 255
0.20448762 -0.31389034 0.73500001 36 34 14 255
0.20649984 -0.31390244 0.73500001 36 34 14 255
0.20851244 -0.31391498 0.73500001 38 36 16 255
0.20966625 -0.3126466 0.73200005 39 37 19 255
0.21167156 -0.31265995 0.73200005 39 37 19 255
0.21367739 -0.31267378 0.73200005 41 38 18 255
0.21538901 -0.31226081 0.73100001 46 43 22 255
0.21739306 -0.31227556 0.73100001 45 43 19 255
0.2196978 -0.31271797 0.73200005 44 42 18 255
0.22261426 -0.3140153 0.73500001 48 47 23 255
0.22677028 -0.31702238 0.74200004 55 56 34 255
-0.32581058 -0.3494029 0.81000006 39 44 32 255
-0.31995645 -0.34547547 0.80100006 58 60 43 255
-0.3129639 -0.34025618 0.78900003 52 52 34 255
-0.30800912 -0.33719528 0.78200006 53 53 35 255
-0.30505013 -0.3362917 0.78000003 45 45 27 255
-0.30210367 -0.33538932 0.77800006 44 44 24 255
-0.29955512 -0.33491901 0.77700001 42 42 22 255
-0.29739618 -0.33488074 0.77700001 45 45 25 255
-0.29561853 -0.33527431 0.77800006 37 37 17 255
-0.29308209 -0.3348068 0.77700001 44 44 24 255
-0.29092687 -0.33477116 0.77700001 44 42 22 255
-0.28951618 -0.33559796 0.77900004 41 40 18 255
-0.2880955 -0.33642539 0.78100002 40 39 17 255
-0.28629875 -0.33682275 0.78200006 37 35 15 255
-0.28449759 -0.33722082 0.78300005 35 33 13 255
-0.28305253 -0.33805025 0.78500003 31 29 11 255
-0.2815975 -0.33888033 0.78700006 35 33 15 255
-0.28013241 -0.33971095 0.78900003 30 28 10 255
-0.27760047 -0.33925068 0.78800005 28 26 8 255
-0.27612358 -0.34008268 0.79000002 32 30 12 255
-0.27428982 -0.34048483 0.79100001 29 27 9 255
-0.2727955 -0.34131804 0.79300004 32 28 11 255
-0.27129111 -0.34215182 0.79500002 38 34 17 255
-0.26909953 -0.34212548 0.79500002 35 31 14 255
-0.26690891 -0.34209982 0.79500002 33 31 13 255
-0.2647191 -0.34207487 0.79500002 33 31 11 255
-0.26253012 -0.34205058 0.79500002 34 32 14 255
-0.26034194 -0.34202692 0.79500002 36 34 16 255
-0.25782987 -0.34157375 0.79400003 35 33 15 255
-0.25564599 -0.34155142 0.79400003 35 33 15 255
-0.25250518 -0.34023929 0.79100001 35 33 15 255
-0.25001457 -0.3397882 0.79000002 35 33 15 255
-0.24753018 -0.33933771 0.78900003 36 34 16 255
-0.24567387 -0.339748 0.79000002 31 31 13 255
-0.24381277 -0.34015882 0.79100001 33 33 15 255
-0.24164136 -0.34014013 0.79100001 32 29 13 255
-0.23947051 -0.34012201 0.79100001 32 29 13 255
-0.23730032 -0.34010443 0.79100001 28 26 8 255
-0.23483343 -0.33965746 0.79000002 30 28 10 255
-0.23237261 -0.33921102 0.78900003 34 32 14 255
-0.22904256 -0.33747545 0.78500003 41 39 19 255
-0.22573492 -0.33574051 0.78100002 41 40 16 255
-0.22216342 -0.33357635 0.77600002 41 40 16 255
-0.21890341 -0.33184272 0.77200001 44 43 19 255
-0.21566577 -0.33010966 0.76800001 43 41 21 255
-0.21245053 -0.32837725 0.76400006 41 39 19 255
-0.2098083 -0.32750499 0.76200002 45 43 25 255
-0.20663224 -0.32577363 0.75800002 49 47 27 255
-0.20347852 -0.32404283 0.75400001 50 47 26 255
-0.19981281 -0.32145306 0.74800003 51 49 24 255
-0.19644476 -0.31929365 0.74300003 51 51 25 255
-0.19310437 -0.31713471 0.73800004 47 46 22 255
-0.18979168 -0.31497627 0.73300004 43 42 18 255
-0.1865067 -0.31281835 0.72800004 46 45 23 255
-0.18350284 -0.31109056 0.72400004 46 45 21 255
-0.18052113 -0.30936325 0.72000003 47 44 23 255
-0.17756163 -0.30763635 0.71600002 52 48 31 255
-0.17511478 -0.30676916 0.71400005 51 47 30 255
-0.17292164 -0.30633196 0.71300006 52 49 29 255
-0.17049445 -0.30546546 0.71100003 57 55 31 255
-0.16736728 -0.30331048 0.70600003 53 53 27 255
-0.16403331 -0.30072623 0.70000005 63 63 35 255
-0.16119552 -0.29900157 0.69600004 57 56 32 255
-0.15815096 -0.2968477 0.69100004 63 62 38 255
-0.15513389 -0.29469413 0.68600005 61 60 36 255
-0.15236776 -0.29297048 0.68200004 58 57 33 255
-0.1496236 -0.29124713 0.67800003 56 56 30 255
-0.14733742 -0.29038322 0.67600006 55 57 31 255
-0.14527754 -0.28994912 0.67500001 58 57 35 255
-0.14279832 -0.28865615 0.67200005 45 44 22 255
-0.14075512 -0.28822252 0.671 51 49 29 255
-0.13851051 -0.28735957 0.66900003 47 46 24 255
-0.1368899 -0.28778541 0.67000002 51 50 28 255
-0.1348608 -0.28735244 0.66900003 45 43 23 255
-0.13323502 -0.28777871 0.67000002 48 46 26 255
-0.13121162 -0.28734609 0.66900003 52 49 28 255
-0.12938721 -0.28734317 0.66900003 40 38 14 255
-0.1269909 -0.28605193 0.66600001 48 44 20 255
-0.12517489 -0.28604937 0.66600001 45 41 16 255
-0.12317377 -0.2856175 0.66500002 40 38 14 255
-0.12154318 -0.28604472 0.66600001 40 38 14 255
-0.11972748 -0.28604266 0.66600001 39 37 13 255
-0.11808891 -0.28647026 0.66700006 49 48 24 255
-0.11592199 -0.28560948 0.66500002 49 48 24 255
-0.11393767 -0.28517833 0.66400003 48 47 23 255
-0.11195885 -0.2847473 0.66300005 43 42 18 255
-0.11015171 -0.28474593 0.66300005 39 38 14 255
-0.1081812 -0.28431517 0.66200006 46 45 21 255
-0.10621621 -0.28388456 0.66100001 48 47 23 255
-0.10409877 -0.28302455 0.65900004 64 63 39 255
-0.10199227 -0.28216466 0.65700001 52 50 30 255
-0.099896722 -0.2813049 0.65500003 48 46 26 255
-0.098261483 -0.28173363 0.65600002 51 51 33 255
-0.096326716 -0.28130352 0.65500003 50 50 32 255
-0.094541773 -0.28130296 0.65500003 61 60 46 255
-0.092756867 -0.28130248 0.65500003 59 58 42 255
-0.090833083 -0.28087264 0.65400004 64 64 46 255
-0.088914804 -0.28044286 0.65300006 63 61 43 255
-0.086868554 -0.27958369 0.65100002 57 57 29 255
-0.085094653 -0.27958351 0.65100002 58 58 32 255
-0.083192781 -0.27915394 0.65000004 53 52 28 255
-0.081421643 -0.27915388 0.65000004 48 47 25 255
-0.079650529 -0.27915388 0.65000004 51 48 27 255
-0.077759609 -0.27872449 0.64900005 56 53 32 255
-0.075874142 -0.2782951 0.648 60 57 36 255
-0.073994152 -0.2778658 0.64700001 50 47 26 255
-0.072231255 -0.27786601 0.64700001 51 48 28 255
-0.070468366 -0.27786624 0.64700001 57 55 35 255
-0.068811662 -0.27829596 0.648 60 58 40 255
-0.066839136 -0.27743736 0.64600003 55 53 33 255
-0.064978242 -0.27700824 0.64500004 46 44 24 255
-0.063220814 -0.27700859 0.64500004 54 52 32 255
-0.061558679 -0.27743843 0.64600003 46 44 26 255
-0.059705965 -0.27700937 0.64500004 43 41 23 255
-0.057948533 -0.27700976 0.64500004 49 47 29 255
-0.056191105 -0.27701023 0.64500004 52 52 34 255
-0.054433674 -0.27701065 0.64500004 47 47 29 255
-0.052594565 -0.27658165 0.64400005 55 54 32 255
-0.050839856 -0.27658215 0.64400005 59 58 36 255
-0.049161345 -0.27701205 0.64500004 57 58 36 255
-0.047403898 -0.27701256 0.64500004 47 46 22 255
-0.04564644 -0.277013 0.64500004 44 43 21 255
-0.043888979 -0.27701348 0.64500004 54 53 31 255
-0.042066183 -0.27658448 0.64400005 50 48 24 255
-0.040311441 -0.27658498 0.64400005 47 45 21 255
-0.038616549 -0.27701491 0.64500004 47 43 19 255
-0.03697335 -0.27787432 0.64700001 45 41 17 255
-0.035210405 -0.27787477 0.64700001 42 38 13 255
-0.033395756 -0.27744573 0.64600003 49 45 21 255
-0.03158655 -0.27701667 0.64500004 41 38 17 255
-0.029829029 -0.27701706 0.64500004 40 38 18 255
-0.028071508 -0.27701744 0.64500004 40 38 20 255
-0.026313975 -0.27701783 0.64500004 47 45 25 255
-0.024556438 -0.27701819 0.64500004 44 42 22 255
-0.022798896 -0.27701852 0.64500004 46 45 23 255
-0.021041345 -0.27701885 0.64500004 48 46 26 255
-0.019283788 -0.27701911 0.64500004 49 47 27 255
-0.01752623 -0.27701938 0.64500004 48 46 28 255
-0.015744217 -0.27659017 0.64400005 40 36 19 255
-0.014011094 -0.27701989 0.64500004 66 63 43 255
-0.012234525 -0.27659059 0.64400005 71 66 45 255
-0.010479674 -0.27659076 0.64400005 77 73 49 255
-0.0087519139 -0.27744988 0.64600003 56 52 28 255
-0.0070024291 -0.27787948 0.64700001 52 50 25 255
-0.0052474923 -0.27830905 0.648 51 48 27 255
-0.0034817322 -0.27830911 0.648 46 43 22 255
-0.0017186187 -0.27873868 0.64900005 46 43 23 255
4.9868231e-05 -0.27873868 0.64900005 43 39 22 255
0.0018127516 -0.27787966 0.64700001 43 39 22 255
0.0035702614 -0.27745014 0.64600003 42 40 22 255
0.0053388239 -0.27787957 0.64700001 44 42 24 255
0.0071238112 -0.27873847 0.64900005 45 42 26 255
0.0088922922 -0.27873832 0.64900005 42 39 25 255
0.010677199 -0.27916768 0.65000004 44 40 24 255
0.01246755 -0.27959698 0.65100002 44 40 24 255
0.014241473 -0.27959675 0.65100002 45 39 22 255
0.016039994 -0.28002605 0.65200001 46 40 23 255
0.017816631 -0.28002578 0.65200001 47 44 24 255
0.019623319 -0.28045502 0.65300006 42 39 19 255
0.021435449 -0.28088421 0.65400004 44 41 21 255
0.023253022 -0.28131336 0.65500003 49 45 28 255
0.025114264 -0.28217199 0.65700001 46 43 23 255
0.026986403 -0.2830306 0.65900004 56 49 28 255
0.028913105 -0.28431869 0.66200006 69 60 39 255
0.030809753 -0.28517723 0.66400003 79 71 44 255
0.03266817 -0.28560629 0.66500002 64 55 32 255
0.034583874 -0.28646484 0.66700006 53 44 21 255
0.036401328 -0.28646439 0.66700006 48 39 18 255
0.038276065 -0.2868934 0.66800004 46 39 18 255
0.040216275 -0.28775188 0.67000002 54 45 22 255
0.042292871 -0.28946933 0.67400002 53 44 21 255
0.044260319 -0.29032782 0.67600006 49 40 17 255
0.046170451 -0.29075679 0.67700005 50 42 17 255
0.047944184 -0.29032683 0.67600006 50 42 17 255
0.049859755 -0.29075578 0.67700005 48 42 15 255
0.051780768 -0.29118472 0.67800003 57 51 26 255
0.053865422 -0.29247269 0.68100005 50 44 19 255
0.055884592 -0.29333115 0.68300003 49 43 18 255
0.057999216 -0.29461908 0.68600005 45 38 17 255
0.059868354 -0.29461858 0.68600005 44 37 17 255
0.061827499 -0.29504761 0.68700004 45 38 18 255
0.063699357 -0.29504716 0.68700004 43 36 16 255
0.065666668 -0.2954762 0.68800002 43 35 18 255
0.067639425 -0.29590523 0.68900001 46 38 21 255
0.069718525 -0.29676384 0.69100004 40 34 17 255
0.071808524 -0.29762241 0.69300002 46 40 23 255
0.074122131 -0.29933995 0.69700003 57 50 30 255
0.076130316 -0.29976916 0.69800001 70 63 42 255
0.078143969 -0.30019841 0.69900006 71 68 38 255
0.080048554 -0.30019817 0.69900006 58 54 30 255
0.082187623 -0.30105692 0.70100003 55 51 27 255
0.084457591 -0.30234522 0.70400006 46 42 18 255
0.086375833 -0.30234516 0.70400006 42 38 14 255
0.088419512 -0.30277461 0.70500004 48 41 18 255
0.090596795 -0.3036336 0.70700002 60 52 27 255
0.092654124 -0.30406317 0.708 77 67 42 255
0.094984137 -0.30535176 0.71100003 69 58 35 255
0.097194202 -0.30621102 0.71300006 55 45 26 255
0.099554203 -0.30749971 0.71600002 47 37 20 255
0.10178886 -0.30835912 0.71800005 42 34 17 255
0.10403444 -0.30921856 0.72000003 43 37 20 255
0.10658538 -0.31093708 0.72400004 48 40 23 255
0.10930811 -0.31308511 0.72900003 44 36 19 255
0.11251615 -0.3165217 0.73700005 46 38 21 255
0.116234 -0.32124686 0.74800003 57 49 32 255
0.11985377 -0.32554269 0.75800002 59 51 34 255
0.12304559 -0.32855028 0.76500005 45 39 22 255
0.12545773 -0.32941055 0.76700002 35 29 12 255
0.12788089 -0.33027101 0.76900005 34 32 14 255
0.13065307 -0.33199057 0.77300006 59 57 39 255
0.13413408 -0.33542821 0.78100002 82 82 64 255
0.13678645 -0.33671862 0.78400004 61 61 43 255
0.13839208 -0.33543229 0.78100002 28 27 11 255
0.13980152 -0.33371657 0.77700001 24 22 11 255
0.14118926 -0.33200106 0.77300006 23 19 8 255
0.14274065 -0.33071512 0.77000004 23 19 8 255
0.14427581 -0.32942939 0.76700002 25 21 10 255
0.14598556 -0.32857332 0.76500005 28 25 11 255
0.14768453 -0.32771742 0.76300001 29 28 14 255
0.14917645 -0.32643223 0.76000005 32 31 15 255
0.15105014 -0.3260062 0.75900006 28 27 11 255
0.15231332 -0.32429186 0.75500005 26 23 7 255
0.1541682 -0.32386622 0.75400001 31 29 11 255
0.15622501 -0.32387033 0.75400001 31 29 11 255
0.15807204 -0.32344517 0.75300002 32 30 12 255
0.15991382 -0.32302025 0.75200003 35 33 15 255
0.16153491 -0.32216597 0.75000006 37 35 17 255
0.16358151 -0.322171 0.75000006 39 37 17 255
0.16540743 -0.32174677 0.74900001 36 34 14 255
0.16722813 -0.32132277 0.74800003 39 37 17 255
0.16904359 -0.32089904 0.74700004 40 38 18 255
0.17062478 -0.32004598 0.74500006 38 36 16 255
0.17242703 -0.31962276 0.74400002 38 36 18 255
0.17422405 -0.3191998 0.74300003 37 35 15 255
0.17577863 -0.31834748 0.74100006 38 36 16 255
0.17780247 -0.31835473 0.74100006 38 36 16 255
0.17958388 -0.31793264 0.74000001 36 34 14 255
0.18209635 -0.31879979 0.74200004 38 37 15 255
0.18362743 -0.31794861 0.74000001 40 39 17 255
0.1853988 -0.31752747 0.73900002 41 40 18 255
0.18741859 -0.31753635 0.73900002 40 37 16 255
0.18943875 -0.31754553 0.73900002 36 33 13 255
0.19120012 -0.31712535 0.73800004 40 37 17 255
0.19295636 -0.31670552 0.73700005 44 41 21 255
0.19523659 -0.31714553 0.73800004 35 31 14 255
0.19725539 -0.31715623 0.73800004 42 38 21 255
0.19927455 -0.31716722 0.73800004 37 33 16 255
0.20102139 -0.31674892 0.73700005 37 33 16 255
0.20248762 -0.31590116 0.73500001 35 33 13 255
0.20422158 -0.31548354 0.73400003 39 37 17 255
0.20623147 -0.31549618 0.73400003 38 37 15 255
0.20852548 -0.3159391 0.73500001 41 39 19 255
0.20996611 -0.31509289 0.73300004 41 39 19 255
0.2116854 -0.31467694 0.73200005 38 34 17 255
0.21339974 -0.31426135 0.73100001 37 34 14 255
0.21510911 -0.31384629 0.73000002 44 41 20 255
0.2171109 -0.31386158 0.73000002 44 43 21 255
0.21911323 -0.31387731 0.73000002 45 44 22 255
0.22202478 -0.31518352 0.73300004 48 47 23 255
0.22678724 -0.31907049 0.74200004 52 53 31 255
-0.32625967 -0.3521044 0.81100005 44 46 36 255
-0.32040113 -0.34815058 0.80200005 61 62 48 255
-0.31261078 -0.34202865 0.78800005 51 51 33 255
-0.30805135 -0.33938119 0.78200006 49 49 29 255
-0.30509132 -0.33847103 0.78000003 45 45 25 255
-0.30214378 -0.33756208 0.77800006 41 40 18 255
-0.29959431 -0.33708805 0.77700001 44 43 19 255
-0.29743448 -0.3370488 0.77700001 41 40 18 255
-0.29565597 -0.33744428 0.77800006 42 41 19 255
-0.29349595 -0.33740678 0.77800006 41 39 19 255
-0.29133707 -0.33737016 0.77800006 45 43 23 255
-0.28917944 -0.33733439 0.77800006 42 41 19 255
-0.28776079 -0.33816653 0.78000003 38 37 15 255
-0.28596601 -0.33856583 0.78100002 34 31 10 255
-0.28453028 -0.33939934 0.78300005 36 34 14 255
-0.28344512 -0.34066686 0.78600001 31 29 9 255
-0.28162876 -0.34106824 0.78700006 30 28 10 255
-0.28016302 -0.34190363 0.78900003 31 29 11 255
-0.27763024 -0.34143972 0.78800005 33 31 13 255
-0.27580312 -0.34184319 0.78900003 28 26 8 255
-0.27397141 -0.34224731 0.79000002 29 27 9 255
-0.27247921 -0.34308529 0.79200006 33 29 12 255
-0.27063563 -0.34349069 0.79300004 35 31 14 255
-0.26878741 -0.34389675 0.79400003 33 29 12 255
-0.2669346 -0.34430346 0.79500002 34 32 14 255
-0.26474407 -0.34427771 0.79500002 30 28 10 255
-0.26288471 -0.3446857 0.79600006 37 35 17 255
-0.26036564 -0.34422827 0.79500002 32 30 12 255
-0.25817761 -0.34420455 0.79500002 33 31 13 255
-0.25599036 -0.34418145 0.79500002 33 31 13 255
-0.25348464 -0.34372613 0.79400003 34 32 14 255
-0.25066862 -0.34283853 0.79200006 38 36 18 255
-0.24817809 -0.34238455 0.79100001 37 35 17 255
-0.24600476 -0.34236407 0.79100001 39 37 19 255
-0.24383205 -0.34234411 0.79100001 30 28 10 255
-0.24166007 -0.34232473 0.79100001 31 28 12 255
-0.23918591 -0.3418732 0.79000002 26 23 7 255
-0.23731795 -0.34228769 0.79100001 25 22 6 255
-0.23514779 -0.34226999 0.79100001 28 25 9 255
-0.23327279 -0.34268555 0.79200006 27 24 8 255
-0.22993387 -0.34093824 0.78800005 39 37 19 255
-0.22575028 -0.33789366 0.78100002 43 42 20 255
-0.2224645 -0.33614773 0.77700001 45 44 20 255
-0.21891765 -0.33396983 0.77200001 46 45 21 255
-0.21596032 -0.33265781 0.76900005 42 41 19 255
-0.21246374 -0.3304812 0.76400006 45 43 23 255
-0.20954566 -0.32917029 0.76100004 48 46 26 255
-0.20664446 -0.32785994 0.75800002 45 44 20 255
-0.20322038 -0.32568505 0.75300002 48 48 22 255
-0.19928977 -0.32264578 0.74600005 50 49 21 255
-0.19592671 -0.32047209 0.74100006 48 48 20 255
-0.19311468 -0.31916383 0.73800004 52 52 26 255
