ply
format ascii 1.0
comment PCL generated
element vertex 969
property float x
property float y
property float z
property uchar red
property uchar green
property uchar blue
property uchar alpha
element camera 0
property float view_px
property float view_py
property float view_pz
property float x_axisx
property float x_axisy
property float x_axisz
property float y_axisx
property float y_axisy
property float y_axisz
property float z_axisx
property float z_axisy
property float z_axisz
property float focal
property float scalex
property float scaley
property float centerx
property float centery
property int viewportx
property int viewporty
property float k1
property float k2
end_header
0.05699442 -0.20662914 0.74400002 43 40 19 255
0.059026554 -0.20662446 0.74400002 36 34 16 255
0.061058551 -0.20661965 0.74400002 40 36 19 255
0.063090414 -0.20661469 0.74400002 40 36 19 255
0.06512212 -0.20660959 0.74400002 33 31 13 255
0.067153692 -0.20660433 0.74400002 43 41 23 255
0.069278121 -0.20687668 0.74500006 43 40 20 255
0.071312122 -0.20687115 0.74500006 42 39 19 255
0.073247507 -0.20658781 0.74400002 41 39 21 255
0.07517729 -0.20630442 0.74300003 38 36 18 255
0.076997541 -0.20574321 0.74100006 37 35 17 255
0.079019986 -0.20573723 0.74100006 41 39 21 255
0.0809329 -0.20545346 0.74000001 46 44 24 255
0.082952276 -0.20544721 0.74000001 39 37 17 255
0.085086323 -0.2057185 0.74100006 49 48 26 255
0.086990528 -0.20543443 0.74000001 42 41 19 255
0.089009397 -0.20542786 0.74000001 43 42 20 255
0.090905078 -0.2051436 0.73900002 46 45 23 255
0.092920855 -0.20513682 0.73900002 46 43 23 255
0.094807982 -0.20485237 0.73800004 46 43 23 255
0.0966895 -0.20456788 0.73700005 43 41 21 255
0.098967128 -0.20511594 0.73900002 47 45 27 255
0.10098217 -0.20510878 0.73900002 45 43 25 255
0.10299704 -0.20510153 0.73900002 44 41 21 255
0.10486961 -0.20481667 0.73800004 44 41 21 255
0.10688139 -0.20480929 0.73800004 51 43 26 255
0.10874543 -0.20452431 0.73700005 45 35 16 255
0.11120491 -0.20534924 0.74000001 55 45 26 255
0.11368059 -0.20617408 0.74300003 54 42 25 255
0.11695104 -0.20838615 0.75100005 60 48 31 255
0.119948 -0.21004306 0.75700003 58 48 31 255
0.12265512 -0.21114488 0.76100004 60 50 33 255
0.12489212 -0.2114142 0.76200002 48 42 25 255
0.12730102 -0.21196091 0.76400006 34 28 11 255
0.12972061 -0.21250746 0.76600003 39 33 16 255
0.13197884 -0.21277656 0.76700002 40 36 19 255
0.1344171 -0.21332298 0.76900005 39 35 18 255
0.13651104 -0.21331455 0.76900005 37 31 14 255
0.1386048 -0.21330607 0.76900005 35 31 14 255
0.14069834 -0.21329755 0.76900005 36 32 15 255
0.14260603 -0.21301165 0.76800001 40 36 19 255
0.14488493 -0.21328045 0.76900005 36 33 13 255
0.14716907 -0.21354921 0.77000004 38 35 15 255
0.14945847 -0.21381792 0.77100003 39 36 16 255
0.15155657 -0.21380931 0.77100003 45 40 20 255
0.15425237 -0.21463259 0.77400005 45 39 22 255
0.15858044 -0.21767415 0.78500003 46 38 21 255
0.16399187 -0.22210185 0.80100006 54 47 27 255
0.168038 -0.22458835 0.81000006 53 46 26 255
0.17087187 -0.22541106 0.81300002 47 40 20 255
0.1743606 -0.22706552 0.81900007 46 41 21 255
0.17852865 -0.22955157 0.82800007 44 38 21 255
0.18230881 -0.23148295 0.83500004 36 32 15 255
0.18502162 -0.23202819 0.83700001 25 22 6 255
0.18752144 -0.23229623 0.83800006 27 24 8 255
0.18957353 -0.23200987 0.83700001 25 24 10 255
0.19184926 -0.2320008 0.83700001 29 28 12 255
0.19389294 -0.23171461 0.83600003 26 25 9 255
0.19593106 -0.23142853 0.83500004 30 29 13 255
0.19796364 -0.23114252 0.83400005 26 25 9 255
0.19951048 -0.23030232 0.83100003 28 27 11 255
0.20128371 -0.22973938 0.82900006 32 32 14 255
0.20329151 -0.22945373 0.82800007 28 28 10 255
0.20554204 -0.22944528 0.82800007 34 32 14 255
0.20729057 -0.22888272 0.82600003 34 32 14 255
0.21004283 -0.22942865 0.82800007 32 30 12 255
0.21203673 -0.22914344 0.82700002 32 30 12 255
0.21428427 -0.22913541 0.82700002 35 33 15 255
0.21600811 -0.22857343 0.82500005 31 29 11 255
0.21825016 -0.22856566 0.82500005 37 35 17 255
0.2210267 -0.22911216 0.82700002 39 37 19 255
0.22354411 -0.2293817 0.82800007 42 38 21 255
0.22606696 -0.22965138 0.82900006 53 48 28 255
0.22859523 -0.22992118 0.83000004 50 45 24 255
0.23168525 -0.23074515 0.83300006 50 45 24 255
0.23479159 -0.23156923 0.83600003 50 43 23 255
0.23763072 -0.23211646 0.83800006 51 44 23 255
0.24019447 -0.23238681 0.83900005 51 44 23 255
0.24305275 -0.23293436 0.84100002 57 51 26 255
0.24592197 -0.23348206 0.84300005 55 51 26 255
0.2496855 -0.23486082 0.84800005 62 60 35 255
0.25733933 -0.23984009 0.86600006 55 56 24 255
-0.28813106 -0.20973226 0.75000006 93 82 51 255
-0.28569943 -0.20944804 0.74900001 95 83 54 255
-0.28403136 -0.20972349 0.75000006 91 81 54 255
-0.28085458 -0.20888084 0.74700004 112 106 81 255
-0.2776947 -0.20803858 0.74400002 97 95 75 255
-0.2741814 -0.20691717 0.74000001 102 104 86 255
-0.26958701 -0.20495728 0.73300004 123 125 108 255
-0.26503137 -0.20299782 0.72600001 107 111 94 255
-0.26160151 -0.20187761 0.72200006 83 85 67 255
-0.25891307 -0.20131692 0.72000003 64 64 46 255
-0.25659287 -0.2010362 0.71900004 67 66 44 255
-0.25392449 -0.20047621 0.71700001 60 57 36 255
-0.25091597 -0.19963697 0.71400005 59 57 33 255
-0.24792419 -0.19879802 0.71100003 53 49 25 255
-0.24494913 -0.19795938 0.708 52 47 26 255
-0.24267727 -0.19768023 0.70700002 47 42 21 255
-0.23973022 -0.19684219 0.70400006 51 46 25 255
-0.2378132 -0.19684324 0.70400006 57 52 32 255
-0.23522633 -0.19628531 0.70200002 52 47 27 255
-0.23331535 -0.1962869 0.70200002 52 47 27 255
-0.23107502 -0.19600913 0.70100003 43 40 20 255
-0.22916734 -0.19601125 0.70100003 46 43 23 255
-0.2266115 -0.19545434 0.69900006 40 38 18 255
-0.22503118 -0.19573656 0.70000005 44 43 21 255
-0.22312693 -0.19573939 0.70000005 38 37 15 255
-0.22217093 -0.19658135 0.70300001 44 43 21 255
-0.22025891 -0.19658463 0.70300001 40 39 17 255
-0.21834706 -0.19658817 0.70300001 43 41 23 255
-0.21612747 -0.19631223 0.70200002 49 47 29 255
-0.21391353 -0.19603652 0.70100003 43 41 23 255
-0.21200755 -0.19604066 0.70100003 42 40 22 255
-0.21010174 -0.19604498 0.70100003 42 40 22 255
-0.20819603 -0.1960495 0.70100003 43 41 23 255
-0.20629041 -0.19605419 0.70100003 47 45 27 255
-0.20438491 -0.19605906 0.70100003 43 41 23 255
-0.20247945 -0.19606411 0.70100003 38 36 16 255
-0.20028798 -0.19578962 0.70000005 44 41 20 255
-0.19810201 -0.19551529 0.69900006 43 41 17 255
-0.19648288 -0.19580053 0.70000005 43 39 15 255
-0.19513634 -0.19636562 0.70200002 48 44 20 255
-0.1940542 -0.19721067 0.70500004 42 37 16 255
-0.19268322 -0.19777612 0.70700002 39 34 14 255
-0.19157127 -0.19862151 0.71000004 38 33 13 255
-0.18990874 -0.19890758 0.71100003 39 34 14 255
-0.18876959 -0.19975331 0.71400005 35 30 10 255
-0.18709075 -0.20003967 0.71500003 35 29 12 255
-0.18540645 -0.20032613 0.71600002 38 32 15 255
-0.18397295 -0.20089257 0.71800005 39 33 16 255
-0.18278202 -0.20173892 0.72100002 36 30 13 255
-0.18182552 -0.20286523 0.72500002 41 35 18 255
-0.18035112 -0.2034321 0.72700006 35 31 14 255
-0.17862038 -0.20371926 0.72800004 33 31 13 255
-0.17712678 -0.20428634 0.73000002 35 33 15 255
-0.17610209 -0.20541325 0.73400003 35 32 16 255
-0.17481837 -0.20626047 0.73700005 28 27 13 255
-0.17351821 -0.2071078 0.74000001 27 26 12 255
-0.17220166 -0.20795527 0.74300003 26 25 11 255
-0.17109776 -0.20908278 0.74700004 23 24 12 255
-0.16997199 -0.21021043 0.75100005 25 25 15 255
-0.16792989 -0.2102185 0.75100005 21 22 10 255
-0.16478322 -0.20882702 0.74600005 15 16 2 255
-0.16079098 -0.20631567 0.73700005 34 31 15 255
-0.15706298 -0.20408411 0.72900003 40 38 20 255
-0.1542293 -0.20297229 0.72500002 38 36 18 255
-0.15162723 -0.20214035 0.72200006 43 39 22 255
-0.14904137 -0.20130838 0.71900004 41 38 18 255
-0.14688081 -0.20103633 0.71800005 42 36 19 255
-0.14452368 -0.20048425 0.71600002 36 32 15 255
-0.14217731 -0.19993216 0.71400005 45 41 24 255
-0.13984165 -0.19938 0.71200001 36 32 15 255
-0.13790411 -0.19938791 0.71200001 44 40 23 255
-0.13577545 -0.19911574 0.71100003 41 39 21 255
-0.13346381 -0.19856349 0.70900005 44 42 24 255
-0.1311629 -0.19801116 0.70700002 42 40 20 255
-0.12887271 -0.19745877 0.70500004 44 42 22 255
-0.12695341 -0.19746651 0.70500004 35 33 15 255
-0.12503393 -0.19747423 0.70500004 40 38 18 255
-0.12311429 -0.19748192 0.70500004 42 40 20 255
-0.12085065 -0.19692928 0.70300001 42 40 20 255
-0.11893611 -0.19693688 0.70300001 40 38 18 255
-0.11702139 -0.1969444 0.70300001 41 40 18 255
-0.11494277 -0.19667175 0.70200002 39 37 19 255
-0.1127084 -0.19611885 0.70000005 39 37 19 255
-0.11064305 -0.19584604 0.69900006 37 35 17 255
-0.10858297 -0.19557314 0.69800001 39 36 20 255
-0.106681 -0.19558036 0.69800001 43 41 23 255
-0.10477885 -0.19558752 0.69800001 38 36 18 255
-0.10317133 -0.19615506 0.70000005 42 40 22 255
-0.10126338 -0.1961621 0.70000005 41 39 21 255
-0.099355265 -0.19616905 0.70000005 41 39 21 255
-0.097307757 -0.19589572 0.69900006 44 40 23 255
-0.095402017 -0.19590251 0.69900006 37 33 16 255
-0.093496114 -0.19590923 0.69900006 35 31 14 255
-0.091721065 -0.19619615 0.70000005 33 30 14 255
-0.089940391 -0.19648299 0.70100003 41 38 22 255
-0.088279657 -0.19705006 0.70300001 42 40 22 255
-0.08611647 -0.19649585 0.70100003 39 37 19 255
-0.084204271 -0.19650213 0.70100003 41 39 21 255
-0.082057104 -0.19594765 0.69900006 41 39 19 255
-0.080264688 -0.19623403 0.70000005 42 41 19 255
-0.078354724 -0.19624001 0.70000005 45 44 22 255
-0.076226182 -0.19568516 0.69800001 40 39 17 255
-0.074214876 -0.19541052 0.69700003 41 40 18 255
-0.072208881 -0.19513577 0.69600004 44 42 18 255
-0.070107169 -0.19458048 0.69400001 47 44 23 255
-0.06791795 -0.19374467 0.69100004 45 42 21 255
-0.065936074 -0.19346951 0.69000006 41 38 18 255
-0.064052351 -0.19347461 0.69000006 43 40 20 255
-0.062258586 -0.19375993 0.69100004 40 37 17 255
-0.060459223 -0.1940452 0.69200003 40 37 17 255
-0.058738906 -0.19461074 0.69400001 40 37 17 255
-0.057007533 -0.1951762 0.69600004 43 40 20 255
-0.05526511 -0.19574153 0.69800001 44 41 21 255
-0.053588089 -0.19658722 0.70100003 45 42 22 255
-0.051894557 -0.1974328 0.70400006 49 44 24 255
-0.050255489 -0.1985587 0.708 44 39 19 255
-0.048389718 -0.19884315 0.70900005 47 40 20 255
-0.046518363 -0.19912748 0.71000004 43 36 16 255
-0.044641435 -0.19941165 0.71100003 45 38 18 255
-0.042819001 -0.19997621 0.71300006 46 39 19 255
-0.040928207 -0.20026009 0.71400005 43 35 18 255
-0.039031856 -0.20054387 0.71500003 46 38 21 255
-0.037129946 -0.20082751 0.71600002 40 34 17 255
-0.035222482 -0.20111097 0.71700001 42 38 21 255
-0.033309475 -0.20139435 0.71800005 37 33 16 255
-0.031434573 -0.20195802 0.72000003 43 39 22 255
-0.029466817 -0.20196056 0.72000003 43 39 22 255
-0.027498985 -0.20196292 0.72000003 41 37 20 255
-0.025602009 -0.20252618 0.72200006 43 40 20 255
-0.02366131 -0.20280875 0.72300005 40 38 18 255
-0.021685092 -0.20281065 0.72300005 45 42 22 255
-0.019681564 -0.2025319 0.72200006 39 36 16 255
-0.017683452 -0.20225292 0.72100002 43 39 22 255
-0.015712557 -0.20225434 0.72100002 43 39 22 255
-0.013760686 -0.20253612 0.72200006 45 41 24 255
-0.011786985 -0.20253719 0.72200006 43 41 23 255
-0.0098132566 -0.20253812 0.72200006 41 39 21 255
-0.0078395018 -0.20253885 0.72200006 41 39 19 255
-0.0058657289 -0.20253946 0.72200006 39 37 17 255
-0.0038973319 -0.20282039 0.72300005 43 41 23 255
-0.0019234575 -0.20310114 0.72400004 43 41 23 255
5.5966117e-05 -0.20366226 0.72600001 40 38 20 255
0.0020378924 -0.20338167 0.72500002 46 44 26 255
0.0040254346 -0.20366193 0.72600001 45 43 23 255
0.0060184356 -0.20394203 0.72700006 41 39 19 255
0.0080279009 -0.20450249 0.72900003 42 40 20 255
0.010020789 -0.20450172 0.72900003 50 48 30 255
0.012030131 -0.20478132 0.73000002 44 42 24 255
0.014044912 -0.20506072 0.73100001 45 43 25 255
0.016087074 -0.20562051 0.73300004 46 42 25 255
0.018066088 -0.20533855 0.73200005 44 40 23 255
0.020094419 -0.20561746 0.73300004 42 38 21 255
0.022128167 -0.20589618 0.73400003 41 38 18 255
0.024200207 -0.20645528 0.73600006 42 39 19 255
0.026211897 -0.20645317 0.73600006 43 40 19 255
0.028261868 -0.20673139 0.73700005 40 38 14 255
0.030317236 -0.20700942 0.73800004 46 42 18 255
0.032377996 -0.2072873 0.73900002 48 43 22 255
0.034397602 -0.20728453 0.73900002 47 44 23 255
0.036466397 -0.20756206 0.74000001 44 41 21 255
0.038436554 -0.20727849 0.73900002 46 42 25 255
0.040565386 -0.20783618 0.74100006 46 42 25 255
0.0425901 -0.20783275 0.74100006 39 35 18 255
0.044795338 -0.2086706 0.74400002 43 39 22 255
0.0467651 -0.20838638 0.74300003 45 39 22 255
0.048860632 -0.20866293 0.74400002 46 40 23 255
0.050824702 -0.2083784 0.74300003 45 40 20 255
0.052925471 -0.20865466 0.74400002 43 37 20 255
0.054957714 -0.20865029 0.74400002 44 40 23 255
0.057066433 -0.20892622 0.74500006 44 40 23 255
0.059021819 -0.20864114 0.74400002 46 44 26 255
0.061135732 -0.20891678 0.74500006 42 38 21 255
0.063170187 -0.20891184 0.74500006 46 42 25 255
0.065204494 -0.20890675 0.74500006 38 34 17 255
0.067238666 -0.20890154 0.74500006 39 35 18 255
0.069272682 -0.20889616 0.74500006 41 37 20 255
0.071402259 -0.20917106 0.74600005 41 37 20 255
0.073340267 -0.20888506 0.74500006 40 38 20 255
0.075171478 -0.20831855 0.74300003 39 37 19 255
0.077095516 -0.20803231 0.74200004 37 35 15 255
0.079120576 -0.20802636 0.74200004 40 37 17 255
0.081145465 -0.20802027 0.74200004 38 37 15 255
0.083058111 -0.20773374 0.74100006 41 40 18 255
0.084965102 -0.20744705 0.74000001 41 40 18 255
0.086984031 -0.20744063 0.74000001 42 41 19 255
0.089002803 -0.2074341 0.74000001 44 42 22 255
0.090898372 -0.20714717 0.73900002 46 44 24 255
0.09291406 -0.20714042 0.73900002 44 40 23 255
0.094929554 -0.20713362 0.73900002 47 43 26 255
0.096813694 -0.2068464 0.73800004 43 39 22 255
0.098960035 -0.20711966 0.73900002 37 35 17 255
0.10083836 -0.20683229 0.73800004 42 38 21 255
0.10298977 -0.20710534 0.73900002 43 39 22 255
0.10486228 -0.20681784 0.73800004 42 38 21 255
0.10687398 -0.20681049 0.73800004 43 37 20 255
0.10873795 -0.20652284 0.73700005 47 39 22 255
0.11104707 -0.20707576 0.73900002 47 37 20 255
0.1136729 -0.208189 0.74300003 54 42 25 255
0.11678749 -0.21014263 0.75000006 55 43 26 255
0.11994005 -0.21209605 0.75700003 61 49 32 255
0.12280821 -0.21348891 0.76200002 54 42 23 255
0.12537567 -0.21432133 0.76500005 49 42 22 255
0.12729281 -0.21403302 0.76400006 42 35 15 255
0.12971233 -0.2145851 0.76600003 42 35 15 255
0.13197049 -0.21485695 0.76700002 39 34 14 255
0.13458349 -0.21568896 0.77000004 40 35 15 255
0.13650261 -0.2154005 0.76900005 40 36 19 255
0.13859634 -0.2153921 0.76900005 36 32 15 255
0.14068986 -0.21538363 0.76900005 37 33 16 255
0.14278321 -0.21537516 0.76900005 35 33 15 255
0.14525318 -0.2159268 0.77100003 35 33 13 255
0.14754272 -0.21619831 0.77200001 42 39 19 255
0.14983757 -0.21646982 0.77300006 43 38 18 255
0.15174454 -0.21618122 0.77200001 45 40 19 255
0.15464231 -0.21729273 0.77600002 47 40 19 255
0.15937969 -0.2209242 0.78900003 54 47 26 255
0.16459712 -0.22511539 0.80400002 56 49 28 255
0.16823643 -0.22706638 0.81100005 51 44 21 255
0.17149337 -0.2284573 0.81600004 48 41 20 255
0.17541596 -0.23068799 0.82400006 50 43 23 255
0.17959753 -0.23319848 0.83300006 40 34 17 255
0.18317294 -0.234869 0.83900005 32 26 9 255
0.18545458 -0.23485988 0.83900005 25 22 8 255
0.18773608 -0.23485081 0.83900005 24 21 7 255
0.19024391 -0.23512165 0.84000003 27 26 12 255
0.1920695 -0.23455288 0.83800006 26 27 13 255
0.19388402 -0.23398416 0.83600003 26 25 11 255
0.19545296 -0.23313573 0.83300006 23 22 6 255
0.19771752 -0.23312701 0.83300006 25 24 8 255
0.1997419 -0.23283851 0.83200002 29 28 12 255
0.20176077 -0.23255014 0.83100003 30 30 12 255
0.20352858 -0.23198201 0.82900006 31 29 11 255
0.2055337 -0.23169386 0.82800007 34 32 14 255
0.20728233 -0.23112598 0.82600003 33 31 13 255
0.20978104 -0.2313977 0.82700002 31 29 11 255
0.21151599 -0.23083015 0.82500005 35 33 13 255
0.21375822 -0.23082228 0.82500005 36 32 15 255
0.21573858 -0.23053478 0.82400006 34 32 14 255
0.21824257 -0.23080698 0.82500005 36 34 16 255
0.22101918 -0.23135902 0.82700002 42 39 19 255
0.22407669 -0.23219095 0.83000004 52 47 27 255
0.22660515 -0.23246348 0.83100003 53 48 28 255
0.22913899 -0.23273616 0.83200002 52 47 26 255
0.23195648 -0.23328872 0.83400005 50 43 22 255
0.23478484 -0.23384137 0.83600003 44 37 16 255
0.23790768 -0.23467392 0.83900005 49 42 21 255
0.24047434 -0.23494719 0.84000003 47 40 17 255
0.24362448 -0.23578002 0.84300005 56 50 25 255
0.2459159 -0.23577398 0.84300005 58 54 29 255
0.24997403 -0.23744619 0.84900004 58 56 32 255
-0.28494108 -0.21092777 0.74700004 93 82 51 255
-0.2817632 -0.21007621 0.74400002 96 88 61 255
-0.27897838 -0.20950745 0.74200004 120 116 92 255
-0.27657831 -0.20922145 0.74100006 86 84 64 255
-0.27344322 -0.20837115 0.73800004 105 107 89 255
-0.26922175 -0.20667423 0.73200005 123 127 110 255
-0.26503351 -0.20497774 0.72600001 113 116 102 255
-0.26160327 -0.20384632 0.72200006 72 74 57 255
-0.25855488 -0.20299758 0.71900004 66 66 48 255
-0.25588021 -0.20243153 0.71700001 61 60 38 255
-0.25357106 -0.20214817 0.71600002 59 58 36 255
-0.25056496 -0.2013005 0.71300006 53 50 29 255
-0.24792428 -0.20073543 0.71100003 57 54 33 255
-0.24494892 -0.19988836 0.708 53 50 29 255
-0.24302004 -0.19988862 0.708 50 47 26 255
-0.24006996 -0.19904214 0.70500004 47 44 23 255
-0.23781215 -0.19876063 0.70400006 54 49 28 255
-0.23522499 -0.19819705 0.70200002 56 51 31 255
-0.23364608 -0.19848074 0.70300001 45 40 20 255
-0.23173241 -0.19848238 0.70300001 41 36 16 255
-0.22949211 -0.19820192 0.70200002 47 44 23 255
-0.22660914 -0.19735704 0.69900006 45 44 22 255
-0.22470711 -0.19735944 0.69900006 44 43 21 255
-0.22312409 -0.19764441 0.70000005 41 40 18 255
-0.22216783 -0.19849432 0.70300001 41 40 18 255
-0.22025561 -0.19849741 0.70300001 40 39 17 255
-0.21803293 -0.19821839 0.70200002 42 40 20 255
-0.21612374 -0.19822192 0.70200002 41 39 19 255
-0.21421473 -0.19822568 0.70200002 41 39 19 255
-0.21230584 -0.19822964 0.70200002 42 40 22 255
-0.21009739 -0.19795141 0.70100003 45 43 23 255
-0.20848848 -0.19823813 0.70200002 43 41 23 255
-0.20657998 -0.19824268 0.70200002 42 40 22 255
-0.20496312 -0.19852979 0.70300001 41 39 21 255
-0.20305209 -0.1985347 0.70300001 45 43 23 255
-0.2011411 -0.19853976 0.70300001 39 38 16 255
-0.19866343 -0.19798015 0.70100003 44 42 18 255
-0.19703871 -0.19826795 0.70200002 43 39 15 255
-0.19513065 -0.19827348 0.70200002 40 36 12 255
-0.19377311 -0.19884408 0.70400006 45 40 19 255
-0.19240469 -0.19941482 0.70600003 35 32 12 255
-0.1912953 -0.20026824 0.70900005 35 32 12 255
-0.19016954 -0.20112179 0.71200001 35 32 12 255
-0.18849878 -0.20141059 0.71300006 31 27 10 255
-0.18708417 -0.20198199 0.71500003 35 29 12 255
-0.18565871 -0.20255357 0.71700001 34 28 11 255
-0.18447857 -0.20340779 0.72000003 34 28 11 255
-0.18277507 -0.20369716 0.72100002 34 28 11 255
-0.18156765 -0.2045517 0.72400004 33 27 10 255
-0.18009582 -0.20512383 0.72600001 26 24 6 255
-0.17885843 -0.20597868 0.72900003 32 29 13 255
-0.17760463 -0.20683365 0.73200005 32 29 13 255
-0.17657438 -0.20797135 0.73600006 29 26 12 255
-0.17552228 -0.20910917 0.74000001 26 24 13 255
-0.17468286 -0.21052977 0.74500006 22 20 9 255
-0.17381613 -0.21195054 0.75000006 23 21 10 255
-0.17269307 -0.21308884 0.75400001 15 15 5 255
-0.17132184 -0.21394467 0.75700003 16 16 6 255
-0.16926341 -0.21395275 0.75700003 18 18 8 255
-0.16565868 -0.21198235 0.75000006 21 19 8 255
-0.16100112 -0.20859857 0.73800004 34 31 15 255
-0.15727046 -0.2063452 0.73000002 37 33 16 255
-0.15422136 -0.20493977 0.72500002 41 37 20 255
-0.15182932 -0.20438229 0.72300005 45 39 22 255
-0.14924072 -0.20354208 0.72000003 41 35 18 255
-0.14707746 -0.20326728 0.71900004 47 41 24 255
-0.14471762 -0.20270969 0.71700001 45 41 24 255
-0.14236856 -0.2021521 0.71500003 44 40 23 255
-0.14003021 -0.20159449 0.71300006 39 35 19 255
-0.13789625 -0.20131955 0.71200001 43 39 23 255
-0.13557667 -0.20076182 0.71000004 38 36 18 255
-0.13345602 -0.20048682 0.70900005 42 40 22 255
-0.13134064 -0.20021178 0.708 40 38 18 255
-0.12904778 -0.19965392 0.70600003 42 40 20 255
-0.12712577 -0.1996616 0.70600003 40 38 18 255
-0.12502626 -0.19938645 0.70500004 39 37 17 255
-0.12310664 -0.19939405 0.70500004 42 40 20 255
-0.12101497 -0.19911879 0.70400006 36 34 14 255
-0.11892857 -0.19884346 0.70300001 42 40 20 255
-0.11701389 -0.19885094 0.70300001 41 39 19 255
-0.11509906 -0.19885838 0.70300001 44 42 24 255
-0.11286204 -0.19830002 0.70100003 40 38 20 255
-0.11063575 -0.19774155 0.69900006 43 41 23 255
-0.10857575 -0.19746591 0.69800001 43 39 22 255
-0.10667383 -0.19747306 0.69800001 37 35 17 255
-0.10507196 -0.19804604 0.70000005 42 40 22 255
-0.10316426 -0.19805309 0.70000005 42 40 22 255
-0.10125639 -0.19806008 0.70000005 40 38 20 255
-0.099348359 -0.19806702 0.70000005 44 42 24 255
-0.097440131 -0.19807386 0.70000005 37 35 17 255
-0.095395289 -0.19779769 0.69900006 38 36 18 255
-0.093489461 -0.19780435 0.69900006 38 35 19 255
-0.091714479 -0.19809392 0.70000005 40 37 21 255
-0.089933895 -0.19838345 0.70100003 40 37 21 255
-0.088022098 -0.19838987 0.70100003 42 39 23 255
-0.085987322 -0.19811319 0.70000005 38 35 19 255
-0.083957836 -0.1978364 0.69900006 41 39 21 255
-0.082051016 -0.19784252 0.69900006 43 41 23 255
-0.080144033 -0.19784856 0.69900006 40 38 18 255
-0.07834883 -0.19813752 0.70000005 41 39 19 255
-0.076220416 -0.19757721 0.69800001 41 40 18 255
-0.074102759 -0.19701678 0.69600004 43 42 18 255
-0.071995877 -0.19645618 0.69400001 46 45 21 255
-0.06989976 -0.19589546 0.69200003 44 42 18 255
-0.067716129 -0.19505145 0.68900001 43 40 19 255
-0.065739848 -0.19477352 0.68800002 42 39 18 255
-0.063954517 -0.19506165 0.68900001 39 36 16 255
-0.062253695 -0.19563283 0.69100004 38 34 17 255
-0.060367092 -0.19563764 0.69100004 40 37 17 255
-0.058649622 -0.19620857 0.69300002 40 37 17 255
-0.056921098 -0.19677944 0.69500005 44 41 21 255
-0.055260699 -0.19763331 0.69800001 42 39 19 255
-0.05358379 -0.19848709 0.70100003 39 36 16 255
-0.051890377 -0.19934078 0.70400006 45 42 21 255
-0.050251432 -0.20047751 0.708 45 40 19 255
-0.048385795 -0.20076466 0.70900005 50 43 22 255
-0.046514574 -0.20105167 0.71000004 47 40 19 255
-0.044637788 -0.20133853 0.71100003 48 41 21 255
-0.042695392 -0.20134211 0.71100003 44 34 15 255
-0.040924847 -0.20219509 0.71400005 44 36 19 255
-0.039083228 -0.20276473 0.71600002 43 35 18 255
-0.037230585 -0.20333427 0.71800005 44 36 19 255
-0.035268687 -0.20333725 0.71800005 40 36 19 255
-0.033353094 -0.20362329 0.71900004 39 35 19 255
-0.031431958 -0.20390917 0.72000003 43 39 23 255
-0.029546207 -0.20447814 0.72200006 41 37 20 255
-0.02757307 -0.20448053 0.72200006 39 35 18 255
-0.025599867 -0.20448275 0.72200006 44 40 23 255
-0.023626603 -0.20448481 0.72200006 40 38 20 255
-0.021683274 -0.20476992 0.72300005 42 39 19 255
-0.01967991 -0.20448843 0.72200006 41 38 18 255
-0.017731013 -0.20477322 0.72300005 39 35 18 255
-0.015733026 -0.20449139 0.72200006 41 37 20 255
-0.013759525 -0.20449264 0.72200006 42 38 21 255
-0.011769666 -0.20421048 0.72100002 41 39 21 255
-0.009798836 -0.20421137 0.72100002 40 38 18 255
-0.0078388397 -0.20449537 0.72200006 48 47 25 255
-0.0058733565 -0.20477919 0.72300005 43 42 20 255
-0.0039023922 -0.20506284 0.72400004 44 43 21 255
-0.0019232949 -0.20506306 0.72400004 45 43 23 255
5.5884302e-05 -0.20534639 0.72500002 43 41 23 255
0.0020349093 -0.20506306 0.72400004 42 40 20 255
0.0040140059 -0.20506281 0.72400004 43 41 21 255
0.0060013714 -0.20534563 0.72500002 44 42 22 255
0.008027222 -0.20647797 0.72900003 43 42 20 255
0.010047431 -0.20704366 0.73100001 41 39 19 255
0.012045594 -0.20704272 0.73100001 42 40 22 255
0.014043729 -0.20704164 0.73100001 44 42 24 255
0.016041828 -0.20704037 0.73100001 48 44 27 255
0.01803989 -0.20703895 0.73100001 45 41 24 255
0.020092729 -0.20760378 0.73300004 44 40 23 255
0.022126311 -0.20788525 0.73400003 41 39 21 255
0.024132423 -0.20788331 0.73400003 42 40 22 255
0.026138481 -0.20788123 0.73400003 41 38 18 255
0.028182818 -0.20816216 0.73500001 43 40 19 255
0.030273633 -0.20872617 0.73700005 41 39 15 255
0.032331496 -0.20900676 0.73800004 51 46 25 255
0.034348208 -0.209004 0.73800004 50 45 24 255
0.036414109 -0.20928429 0.73900002 38 35 15 255
0.03843338 -0.20928119 0.73900002 48 45 25 255
0.040507305 -0.20956112 0.74000001 49 47 29 255
0.042529128 -0.20955773 0.74000001 47 44 24 255
0.04467126 -0.21012053 0.74200004 41 37 20 255
0.046761278 -0.21039999 0.74300003 42 36 19 255
0.048856657 -0.21067928 0.74400002 46 41 21 255
0.050820585 -0.21039206 0.74300003 46 40 23 255
0.052850068 -0.21038787 0.74300003 47 41 24 255
0.054879431 -0.21038353 0.74300003 42 38 21 255
0.056985263 -0.2106622 0.74400002 45 43 25 255
0.059017107 -0.21065758 0.74400002 48 44 27 255
0.061048817 -0.21065281 0.74400002 46 42 25 255
0.063080393 -0.2106479 0.74400002 43 39 22 255
0.065111831 -0.21064284 0.74400002 42 38 21 255
0.067233384 -0.21092078 0.74500006 45 41 24 255
0.069267265 -0.21091545 0.74500006 41 39 21 255
0.071301013 -0.21090999 0.74500006 40 38 20 255
0.07313773 -0.21033822 0.74300003 38 36 18 255
0.07506454 -0.21004942 0.74200004 41 39 21 255
0.076985732 -0.20976053 0.74100006 38 36 16 255
0.079114556 -0.21003766 0.74200004 42 39 18 255
0.081139326 -0.2100316 0.74200004 41 40 18 255
0.083163939 -0.21002543 0.74200004 39 38 16 255
0.084958762 -0.20945303 0.74000001 44 42 18 255
0.086977579 -0.20944665 0.74000001 45 43 19 255
0.088875972 -0.20915715 0.73900002 41 39 19 255
0.090768725 -0.20886753 0.73800004 41 39 19 255
0.09265586 -0.20857786 0.73700005 44 40 23 255
0.094665818 -0.20857109 0.73700005 45 41 24 255
0.096675597 -0.20856422 0.73700005 41 37 20 255
0.098685198 -0.20855726 0.73700005 43 41 23 255
0.10083124 -0.20883317 0.73800004 37 35 17 255
0.10298256 -0.20910899 0.73900002 43 39 22 255
0.10485499 -0.20881881 0.73800004 42 38 21 255
0.10686662 -0.20881151 0.73800004 43 37 20 255
0.10873051 -0.20852119 0.73700005 45 37 20 255
0.11103956 -0.20907961 0.73900002 47 37 20 255
0.11351229 -0.20992079 0.74200004 55 45 26 255
0.11662401 -0.2118935 0.74900001 62 50 31 255
0.11993214 -0.21414886 0.75700003 57 45 26 255
0.12280021 -0.21555537 0.76200002 55 44 23 255
0.1252037 -0.21611311 0.76400006 44 35 14 255
0.12711805 -0.21582213 0.76300001 44 37 17 255
0.12970413 -0.21666256 0.76600003 41 34 14 255
0.13179018 -0.21665436 0.76600003 38 33 13 255
0.13440038 -0.21749461 0.76900005 39 36 16 255
0.13613926 -0.21692067 0.76700002 34 30 13 255
0.13840772 -0.21719515 0.76800001 36 32 15 255
0.1404985 -0.21718679 0.76800001 36 32 15 255
0.14277479 -0.21746121 0.76900005 37 33 16 255
0.14505632 -0.21773557 0.77000004 37 33 16 255
0.14715201 -0.21772714 0.77000004 40 34 17 255
0.14944138 -0.21800144 0.77100003 42 37 17 255
0.15173602 -0.21827573 0.77200001 39 34 13 255
0.15523157 -0.22024637 0.77900004 47 40 19 255
0.15977499 -0.22363044 0.79100001 54 47 26 255
0.16520241 -0.22814509 0.80700004 59 52 31 255
0.16884983 -0.23011513 0.81400001 55 48 25 255
0.17253515 -0.23208505 0.82100004 48 41 20 255
0.17689706 -0.23490286 0.83100003 49 43 26 255
0.18045083 -0.23658982 0.83700001 41 35 18 255
0.18338215 -0.23742875 0.84000003 23 19 2 255
0.18544553 -0.23713706 0.83900005 24 20 9 255
0.18795082 -0.23741074 0.84000003 25 21 10 255
0.19000849 -0.23711918 0.83900005 23 21 10 255
0.1918314 -0.23654507 0.83700001 25 23 12 255
0.19341141 -0.23568851 0.83400005 24 23 9 255
0.19520962 -0.23511463 0.83200002 24 23 9 255
0.19770889 -0.23538865 0.83300006 27 26 10 255
0.19973338 -0.23509756 0.83200002 25 24 8 255
0.20175233 -0.23480657 0.83100003 29 27 9 255
0.20352028 -0.23423319 0.82900006 31 29 11 255
0.20527726 -0.23365989 0.82700002 30 28 10 255
0.20727427 -0.23336931 0.82600003 33 31 13 255
0.20926577 -0.23307884 0.82500005 35 33 15 255
0.21099539 -0.23250596 0.82300001 35 33 13 255
0.21297322 -0.23221582 0.82200003 37 34 14 255
0.21546917 -0.23249073 0.82300001 39 36 16 255
0.21849965 -0.23333079 0.82600003 39 36 16 255
0.22127914 -0.23388843 0.82800007 40 35 15 255
0.22433946 -0.23472863 0.83100003 51 46 26 255
0.22687075 -0.23500405 0.83200002 53 48 28 255
0.2294075 -0.23527962 0.83300006 43 38 17 255
0.23222786 -0.23583776 0.83500004 45 40 19 255
0.2350591 -0.23639606 0.83700001 47 41 24 255
0.23818478 -0.2372369 0.84000003 49 42 22 255
0.2404681 -0.23723066 0.84000003 51 44 24 255
0.24361843 -0.23807187 0.84300005 52 46 29 255
0.24591005 -0.23806599 0.84300005 58 54 37 255
0.24996834 -0.23975471 0.84900004 60 58 40 255
-0.28814134 -0.21382767 0.75000006 97 86 55 255
-0.28837904 -0.21553299 0.75600004 100 88 59 255
-0.28366122 -0.21353246 0.74900001 93 87 62 255
-0.27898237 -0.21153246 0.74200004 115 112 91 255
-0.27620864 -0.21095836 0.74000001 93 91 71 255
-0.27270541 -0.2098145 0.73600006 104 106 88 255
-0.26885673 -0.20838596 0.73100001 126 125 109 255
-0.26503593 -0.20695788 0.72600001 94 96 79 255
-0.26160532 -0.20581527 0.72200006 90 89 73 255
-0.25855654 -0.20495808 0.71900004 78 78 58 255
-0.25588155 -0.20438631 0.71700001 63 63 37 255
-0.25357208 -0.20409995 0.71600002 53 52 28 255
-0.25021416 -0.20295873 0.71200001 55 54 32 255
-0.24757597 -0.20238802 0.71000004 54 52 32 255
-0.24460301 -0.20153251 0.70700002 46 44 26 255
-0.24301979 -0.20181754 0.708 47 45 27 255
-0.24040994 -0.20124774 0.70600003 52 49 29 255
-0.23848689 -0.2012483 0.70600003 49 44 24 255
-0.23555896 -0.20039397 0.70300001 49 44 24 255
-0.23397709 -0.2006802 0.70400006 51 46 25 255
-0.23173076 -0.20039651 0.70300001 46 41 20 255
-0.22981712 -0.20039818 0.70300001 46 44 20 255
-0.22693117 -0.19954495 0.70000005 44 43 19 255
-0.22502618 -0.19954711 0.70000005 43 42 18 255
-0.22312142 -0.19954951 0.70000005 40 39 15 255
-0.22216494 -0.2004074 0.70300001 40 39 17 255
-0.21993919 -0.20012523 0.70200002 38 36 16 255
-0.217719 -0.19984327 0.70100003 40 38 18 255
-0.21581233 -0.19984664 0.70100003 43 41 21 255
-0.21390581 -0.19985017 0.70100003 42 40 22 255
-0.21199945 -0.19985394 0.70100003 39 37 19 255
-0.21009326 -0.19985792 0.70100003 45 43 23 255
-0.20878111 -0.20043229 0.70300001 43 41 23 255
-0.20686971 -0.20043667 0.70300001 42 40 22 255
-0.20495841 -0.20044121 0.70300001 45 43 25 255
-0.20304717 -0.20044592 0.70300001 49 47 29 255
-0.20113605 -0.20045085 0.70300001 43 41 21 255
-0.19894162 -0.20017079 0.70200002 44 41 20 255
-0.19675265 -0.19989084 0.70100003 43 40 19 255
-0.1951251 -0.20018137 0.70200002 40 38 18 255
-0.1937674 -0.20075725 0.70400006 43 41 21 255
-0.19267137 -0.20161845 0.70700002 38 36 18 255
-0.19155908 -0.20247987 0.71000004 35 33 15 255
-0.19069754 -0.20362665 0.71400005 32 30 12 255
-0.18902119 -0.20391802 0.71500003 30 28 10 255
-0.18786268 -0.20477997 0.71800005 34 30 13 255
-0.18617 -0.20507164 0.71900004 33 29 12 255
-0.18472806 -0.20564865 0.72100002 32 28 11 255
-0.18327522 -0.20622586 0.72300005 32 28 11 255
-0.18156071 -0.20651793 0.72400004 32 28 11 255
-0.18033682 -0.20738065 0.72700006 33 29 13 255
-0.17885122 -0.20795822 0.72900003 32 28 12 255
-0.17783995 -0.2091065 0.73300004 33 30 16 255
-0.17680685 -0.21025495 0.73700005 28 25 11 255
-0.17575194 -0.21140355 0.74100006 28 24 14 255
-0.17537858 -0.2134082 0.74800003 22 20 10 255
-0.17450356 -0.21484245 0.75300002 14 14 6 255
-0.17337227 -0.21599154 0.75700003 12 14 6 255
-0.17154019 -0.21628477 0.75800002 13 15 7 255
-0.1690318 -0.21572204 0.75600004 14 16 8 255
-0.1656507 -0.21401788 0.75000006 21 22 10 255
-0.16142951 -0.21117216 0.74000001 31 28 12 255
-0.15769348 -0.20889704 0.73200005 35 33 15 255
-0.15442625 -0.20719256 0.72600001 40 36 19 255
-0.15203145 -0.20662954 0.72400004 36 32 15 255
-0.14944017 -0.20578112 0.72100002 45 41 24 255
-0.14727417 -0.20550351 0.72000003 44 42 24 255
-0.14470981 -0.20465501 0.71700001 37 35 17 255
-0.14255986 -0.20437735 0.71600002 43 40 24 255
-0.14021881 -0.20381424 0.71400005 43 40 24 255
-0.13827582 -0.20382196 0.71400005 40 38 20 255
-0.13575986 -0.20297329 0.71100003 40 38 20 255
-0.1336365 -0.20269552 0.71000004 45 43 25 255
-0.13133295 -0.20213223 0.708 41 39 19 255
-0.12922291 -0.20185435 0.70700002 39 37 17 255
-0.12711816 -0.20157647 0.70600003 40 38 20 255
-0.12519601 -0.20158404 0.70600003 43 41 23 255
-0.1232737 -0.20159161 0.70600003 34 32 12 255
-0.12117934 -0.20131359 0.70500004 39 37 19 255
-0.11909027 -0.2010355 0.70400006 39 37 19 255
-0.11700648 -0.20075737 0.70300001 39 37 19 255
-0.11492795 -0.20047913 0.70200002 44 42 24 255
-0.11301572 -0.20048647 0.70200002 38 36 18 255
-0.11062851 -0.19963694 0.69900006 39 35 18 255
-0.10872411 -0.1996441 0.69900006 40 36 19 255
-0.10681955 -0.19965126 0.69900006 42 38 21 255
-0.10521498 -0.20022957 0.70100003 45 41 24 255
-0.10330462 -0.2002366 0.70100003 44 40 23 255
-0.10124946 -0.19995791 0.70000005 42 38 21 255
-0.099483408 -0.20025043 0.70100003 43 39 22 255
-0.097572528 -0.20025724 0.70100003 41 37 20 255
-0.095661506 -0.20026396 0.70100003 45 41 24 255
-0.093482845 -0.19969925 0.69900006 41 39 21 255
-0.091707945 -0.19999149 0.70000005 41 39 21 255
-0.089927427 -0.20028366 0.70100003 44 42 24 255
-0.088141292 -0.2005758 0.70200002 41 39 21 255
-0.086103886 -0.20029637 0.70100003 35 33 15 255
-0.08407177 -0.20001684 0.70000005 38 36 18 255
-0.082162336 -0.20002295 0.70000005 41 39 21 255
-0.080252737 -0.20002894 0.70000005 37 35 17 255
-0.078231059 -0.19974908 0.69900006 41 39 19 255
-0.076105498 -0.1991833 0.69700003 43 41 21 255
-0.073990703 -0.1986174 0.69500005 45 43 23 255
-0.071990393 -0.19833711 0.69400001 46 45 23 255
-0.069894411 -0.19777094 0.69200003 47 44 24 255
-0.067809202 -0.19720462 0.69000006 45 42 22 255
-0.065830305 -0.19692391 0.68900001 38 34 17 255
-0.063949548 -0.19692895 0.68900001 38 34 17 255
-0.062248841 -0.19750549 0.69100004 42 38 21 255
-0.060449705 -0.19779609 0.69200003 43 39 22 255
-0.058729626 -0.19837245 0.69400001 44 40 23 255
-0.056916591 -0.19866283 0.69500005 47 43 26 255
-0.05533547 -0.19981068 0.69900006 42 38 21 255
-0.053655945 -0.20067258 0.70200002 42 37 17 255
-0.052107327 -0.2021061 0.70700002 42 37 17 255
-0.050389338 -0.20296781 0.71000004 45 40 19 255
-0.048586607 -0.20354353 0.71200001 44 40 16 255
-0.046707336 -0.20383324 0.71300006 40 35 14 255
-0.044759721 -0.20383696 0.71300006 45 38 18 255
-0.042812005 -0.20384051 0.71300006 47 40 20 255
-0.040978815 -0.20441569 0.71500003 43 36 16 255
-0.039243765 -0.20556258 0.71900004 39 33 16 255
-0.037331223 -0.20585158 0.72000003 47 41 24 255
-0.035364017 -0.20585459 0.72000003 44 40 23 255
-0.033303957 -0.20528561 0.71800005 46 42 25 255
-0.031429354 -0.20586009 0.72000003 44 41 25 255
-0.029543756 -0.20643447 0.72200006 40 36 19 255
-0.027608961 -0.20672274 0.72300005 45 41 24 255
-0.025597734 -0.20643905 0.72200006 47 43 26 255
-0.02365735 -0.206727 0.72300005 45 43 25 255
-0.021651471 -0.20644295 0.72200006 43 41 23 255
-0.019705517 -0.20673062 0.72300005 39 37 19 255
-0.017705007 -0.20644626 0.72200006 41 37 20 255
-0.015753495 -0.2067336 0.72300005 47 43 26 255
-0.013720257 -0.20587699 0.72000003 41 37 20 255
-0.011752354 -0.20587806 0.72000003 44 41 21 255
-0.0097844219 -0.20587897 0.72000003 46 43 22 255
-0.0078273239 -0.20616566 0.72100002 49 48 24 255
-0.0058647385 -0.20645218 0.72200006 48 47 23 255
-0.0038966741 -0.20673853 0.72300005 46 45 23 255
-0.0019257889 -0.20731068 0.72500002 44 42 22 255
5.6033743e-05 -0.20788264 0.72700006 41 39 21 255
0.0020403583 -0.20759659 0.72600001 48 46 26 255
0.0040192115 -0.20731039 0.72500002 46 44 24 255
0.0060008657 -0.20730998 0.72500002 46 45 23 255
0.0080265468 -0.20845318 0.72900003 45 44 22 255
0.010046585 -0.20902427 0.73100001 45 43 23 255
0.012061059 -0.20930931 0.73200005 46 42 25 255
0.01404255 -0.20902227 0.73100001 44 40 23 255
0.016040482 -0.209021 0.73100001 43 39 23 255
0.018063053 -0.20930551 0.73200005 43 39 23 255
0.020118456 -0.20987581 0.73400003 41 39 21 255
0.022184746 -0.21044591 0.73600006 44 42 24 255
0.024163285 -0.21015804 0.73500001 43 41 23 255
0.026136303 -0.20987003 0.73400003 43 40 20 255
0.028142134 -0.20986778 0.73400003 41 38 18 255
0.030230047 -0.21043719 0.73600006 45 42 22 255
0.032328818 -0.21100643 0.73800004 46 43 23 255
0.034391906 -0.2112896 0.73900002 46 43 23 255
0.036411107 -0.21128669 0.73900002 42 39 19 255
0.038430221 -0.21128361 0.73900002 39 37 17 255
0.040503982 -0.21156628 0.74000001 49 47 29 255
0.042583123 -0.2118488 0.74100006 46 44 24 255
0.044667624 -0.21213116 0.74200004 45 43 25 255
0.046694551 -0.21212743 0.74200004 45 43 25 255
0.048852697 -0.21269533 0.74400002 43 41 23 255
0.050816488 -0.21240544 0.74300003 42 38 21 255
0.052988067 -0.21297303 0.74500006 46 42 25 255
0.05502275 -0.21296869 0.74500006 42 40 22 255
0.05705731 -0.21296424 0.74500006 38 36 18 255
0.059091732 -0.21295962 0.74500006 39 37 17 255
0.061043985 -0.21266903 0.74400002 44 41 21 255
0.063075431 -0.21266414 0.74400002 46 43 23 255
0.065194234 -0.21294494 0.74500006 42 38 21 255
0.067228138 -0.21293977 0.74500006 45 41 24 255
0.069261886 -0.21293448 0.74500006 42 40 22 255
0.071199797 -0.21264324 0.74400002 41 39 21 255
0.073132098 -0.21235187 0.74300003 42 40 22 255
0.075058796 -0.21206041 0.74200004 41 39 21 255
0.077083759 -0.21205463 0.74200004 41 39 19 255
0.079215191 -0.2123345 0.74300003 39 38 16 255
0.081242569 -0.21232846 0.74300003 46 45 23 255
0.083269797 -0.21232234 0.74300003 44 41 20 255
0.085182056 -0.21203032 0.74200004 40 37 16 255
0.087206215 -0.21202394 0.74200004 44 41 20 255
0.089109972 -0.21173176 0.74100006 45 42 21 255
0.090762116 -0.21086799 0.73800004 45 42 21 255
0.092523456 -0.21028993 0.73600006 44 41 20 255
0.094659016 -0.2105689 0.73700005 46 41 21 255
0.096668698 -0.2105621 0.73700005 42 38 21 255
0.098812103 -0.21084087 0.73800004 38 34 17 255
0.10068755 -0.21054819 0.73700005 41 37 20 255
0.10283605 -0.21082677 0.73800004 38 34 17 255
0.10470569 -0.21053393 0.73700005 43 39 22 255
0.1067145 -0.21052669 0.73700005 43 37 20 255
0.10887066 -0.21080504 0.73800004 45 39 22 255
0.11118232 -0.21136889 0.74000001 47 41 24 255
0.11350472 -0.21193266 0.74200004 49 41 24 255
0.11646061 -0.21363875 0.74800003 57 47 28 255
0.11976589 -0.21591589 0.75600004 54 47 27 255
0.12295339 -0.21790719 0.76300001 50 43 22 255
0.12535952 -0.21847042 0.76500005 45 38 18 255
0.1272766 -0.21817681 0.76400006 42 34 17 255
0.12969598 -0.21873987 0.76600003 42 36 19 255
0.13195403 -0.21901727 0.76700002 37 33 16 255
0.13456689 -0.21986572 0.77000004 41 37 20 255
0.13648596 -0.21957196 0.76900005 35 31 14 255
0.13857964 -0.21956372 0.76900005 34 30 13 255
0.1406731 -0.21955539 0.76900005 32 28 11 255
0.14295205 -0.21983257 0.77000004 39 35 18 255
0.1452363 -0.22010975 0.77100003 37 33 16 255
0.14733471 -0.22010139 0.77100003 43 37 20 255
0.14962679 -0.22037846 0.77200001 42 36 19 255
0.15212066 -0.22094098 0.77400005 46 39 19 255
0.15562159 -0.22293068 0.78100002 46 39 19 255
0.1603723 -0.22663282 0.79400003 49 42 22 255
0.16560301 -0.2309055 0.80900002 58 51 30 255
0.16925582 -0.23289466 0.81600004 54 45 24 255
0.17336683 -0.23545443 0.82500005 50 41 20 255
0.17752667 -0.23801407 0.83400005 44 38 21 255
0.18065742 -0.23914663 0.83800006 31 25 8 255
0.18315487 -0.23942308 0.83900005 21 17 1 255
0.18543658 -0.23941416 0.83900005 21 17 6 255
0.18771817 -0.2394053 0.83900005 22 18 8 255
0.18999964 -0.23939651 0.83900005 19 17 6 255
0.19136429 -0.23824646 0.83500004 23 21 10 255
0.19317088 -0.2376672 0.83300006 25 23 12 255
0.19496645 -0.23708804 0.83100003 25 24 10 255
0.19746307 -0.2373649 0.83200002 25 24 10 255
0.19972499 -0.23735656 0.83200002 28 25 9 255
0.20150129 -0.23677772 0.83000004 29 27 9 255
0.20326661 -0.23619902 0.82800007 30 28 10 255
0.20502099 -0.23562048 0.82600003 30 28 10 255
0.20701541 -0.23532732 0.82500005 35 33 15 255
0.20900431 -0.23503432 0.82400006 37 35 17 255
0.21124409 -0.23502663 0.82400006 36 34 14 255
0.21348387 -0.2350191 0.82400006 37 33 16 255
0.21624717 -0.2355821 0.82600003 44 41 21 255
0.21928591 -0.23643042 0.82900006 45 42 22 255
0.22180644 -0.23670845 0.83000004 50 45 25 255
0.22460237 -0.23727177 0.83200002 50 44 27 255
0.22713657 -0.23755006 0.83300006 47 41 24 255
0.22995156 -0.23811369 0.83500004 44 39 19 255
0.23222126 -0.2381071 0.83500004 42 37 17 255
0.23505266 -0.23867102 0.83700001 43 37 20 255
0.23789501 -0.23923507 0.83900005 43 37 20 255
0.24046206 -0.23951419 0.84000003 47 40 20 255
0.24361257 -0.24036372 0.84300005 55 47 30 255
0.24619612 -0.24064319 0.84400004 55 49 33 255
0.2505517 -0.24263354 0.85100001 62 58 42 255
-0.28853115 -0.21616369 0.75100005 92 83 53 255
-0.2891472 -0.21817286 0.75800002 95 85 58 255
-0.28404474 -0.21586508 0.75000006 85 81 57 255
-0.27898672 -0.21355782 0.74200004 115 113 93 255
-0.27621254 -0.2129779 0.74000001 91 89 69 255
-0.27233836 -0.21153501 0.73500001 116 118 100 255
-0.26812425 -0.20980476 0.72900003 116 118 101 255
-0.26467356 -0.20865053 0.72500002 92 94 77 255
-0.26160765 -0.2077845 0.72200006 84 84 66 255
-0.25927776 -0.20749441 0.72100002 69 71 45 255
-0.25624004 -0.20662911 0.71800005 58 60 34 255
-0.25357333 -0.20605195 0.71600002 57 58 34 255
-0.25021511 -0.20489959 0.71200001 52 53 31 255
-0.24757658 -0.20432314 0.71000004 49 47 27 255
-0.24529527 -0.20403476 0.70900005 56 54 34 255
-0.24336305 -0.20403451 0.70900005 49 47 27 255
-0.24075015 -0.20345896 0.70700002 48 45 25 255
-0.2384863 -0.20317152 0.70600003 51 46 25 255
-0.23589319 -0.20259658 0.70400006 51 46 26 255
-0.23430827 -0.20288526 0.70500004 53 48 27 255
-0.23172934 -0.20231085 0.70300001 52 47 26 255
-0.22948854 -0.20202453 0.70200002 47 45 21 255
-0.22725341 -0.20173845 0.70100003 45 44 20 255
-0.22502398 -0.20145261 0.70000005 43 42 18 255
-0.22343774 -0.20174262 0.70100003 42 41 19 255
-0.22184627 -0.20203285 0.70200002 46 45 23 255
-0.21993628 -0.20203555 0.70200002 43 41 21 255
-0.21771587 -0.20175067 0.70100003 41 39 19 255
-0.21580896 -0.20175381 0.70100003 41 39 19 255
-0.21390225 -0.20175718 0.70100003 39 37 19 255
-0.2126005 -0.20233639 0.70300001 37 35 17 255
-0.21068868 -0.20234017 0.70300001 40 38 20 255
-0.20907393 -0.20263202 0.70400006 41 39 21 255
-0.20686533 -0.20234835 0.70300001 43 41 23 255
-0.20495385 -0.20235272 0.70300001 46 44 26 255
-0.20304243 -0.20235726 0.70300001 45 43 25 255
-0.20113114 -0.202362 0.70300001 44 40 23 255
-0.19893654 -0.20207904 0.70200002 44 41 21 255
-0.1970281 -0.20208411 0.70200002 43 40 20 255
-0.19511975 -0.20208934 0.70200002 45 43 23 255
-0.19376187 -0.20267047 0.70400006 41 39 19 255
-0.19239314 -0.20325179 0.70600003 39 37 19 255
-0.1912834 -0.2041212 0.70900005 40 38 20 255
-0.19042443 -0.20527869 0.71300006 36 34 16 255
-0.18901502 -0.20586053 0.71500003 32 30 12 255
-0.1875947 -0.20644255 0.71700001 31 29 11 255
-0.18590461 -0.2067368 0.71800005 30 28 10 255
-0.18472148 -0.20760706 0.72100002 30 28 10 255
-0.18326852 -0.20818955 0.72300005 31 27 10 255
-0.18155387 -0.20848422 0.72400004 29 25 9 255
-0.18008181 -0.20906694 0.72600001 34 30 14 255
-0.1783535 -0.20936187 0.72700006 35 31 17 255
-0.17734753 -0.21052082 0.73100001 30 27 13 255
-0.17631973 -0.21167998 0.73500001 27 24 10 255
-0.17550734 -0.2131273 0.74000001 26 22 12 255
-0.17490211 -0.21486284 0.74600005 22 20 10 255
-0.17426413 -0.21659853 0.75200003 16 16 8 255
-0.17313544 -0.21775836 0.75600004 14 14 6 255
-0.17130601 -0.21805418 0.75700003 12 14 6 255
-0.16880031 -0.21748586 0.75500005 14 16 8 255
-0.1656428 -0.21605338 0.75000006 19 20 8 255
-0.16185798 -0.21375659 0.74200004 31 28 12 255
-0.15811653 -0.21145965 0.73400003 40 38 20 255
-0.15463118 -0.20945069 0.72700006 42 40 22 255
-0.15202372 -0.20859408 0.72400004 37 35 17 255
-0.1496397 -0.20802556 0.72200006 38 36 18 255
-0.14747095 -0.20774512 0.72100002 41 39 21 255
-0.14470208 -0.20660026 0.71700001 43 41 23 255
-0.14255212 -0.20631981 0.71600002 42 40 22 255
-0.14040747 -0.20603932 0.71500003 44 42 24 255
-0.13826811 -0.20575882 0.71400005 41 39 21 255
-0.13594311 -0.20519012 0.71200001 41 39 21 255
-0.13362886 -0.20462137 0.71000004 43 39 22 255
-0.13132532 -0.20405254 0.708 42 39 19 255
-0.12921531 -0.20377189 0.70700002 40 38 18 255
-0.12693055 -0.20320298 0.70500004 38 36 18 255
-0.12518847 -0.20349872 0.70600003 40 38 20 255
-0.12309159 -0.20321797 0.70500004 40 38 20 255
-0.12117188 -0.20322542 0.70500004 36 34 16 255
-0.1189137 -0.20265625 0.70300001 40 38 20 255
-0.11683267 -0.20237534 0.70200002 40 38 20 255
-0.11459324 -0.20180605 0.70000005 42 40 22 255
-0.11284747 -0.20210159 0.70100003 40 38 20 255
-0.11077958 -0.20182048 0.70000005 39 35 18 255
-0.10902804 -0.20211592 0.70100003 37 33 16 255
-0.10696529 -0.20183469 0.70000005 40 36 19 255
-0.10505786 -0.20184171 0.70000005 40 36 19 255
-0.10300295 -0.20156032 0.69900006 39 35 18 255
-0.10109794 -0.2015672 0.69900006 39 35 18 255
-0.09933468 -0.20186241 0.70000005 41 37 20 255
-0.097565785 -0.20215753 0.70100003 42 38 21 255
-0.095518388 -0.20187582 0.70000005 39 37 19 255
-0.093476273 -0.201594 0.69900006 39 37 19 255
-0.091701455 -0.20188892 0.70000005 40 38 20 255
-0.090049297 -0.20247218 0.70200002 45 43 25 255
-0.088386051 -0.20305541 0.70400006 40 38 20 255
-0.086343288 -0.20277323 0.70300001 38 36 18 255
-0.084425926 -0.20277941 0.70300001 39 37 19 255
-0.082391031 -0.20249704 0.70200002 39 37 19 255
-0.080132164 -0.20163763 0.69900006 40 38 20 255
-0.078001417 -0.20106651 0.69700003 41 39 19 255
-0.075990632 -0.20078377 0.69600004 41 39 19 255
-0.073878676 -0.20021237 0.69400001 47 45 25 255
-0.071881235 -0.19992937 0.69300002 48 46 26 255
-0.069788098 -0.19935772 0.69100004 46 43 23 255
-0.067804016 -0.19907445 0.69000006 43 40 20 255
-0.065825254 -0.19879103 0.68900001 42 38 21 255
-0.063944615 -0.19879602 0.68900001 42 38 21 255
-0.062244002 -0.19937794 0.69100004 46 42 25 255
-0.060444999 -0.19967125 0.69200003 44 40 23 255
-0.058640406 -0.19996445 0.69300002 43 39 22 255
-0.056994002 -0.20083465 0.69600004 43 39 22 255
-0.0553311 -0.20170473 0.69900006 41 37 20 255
-0.053651687 -0.20257472 0.70200002 43 37 20 255
-0.052029476 -0.20373319 0.70600003 45 40 20 255
-0.0503853 -0.20489156 0.71000004 48 43 22 255
-0.048582703 -0.20547268 0.71200001 47 42 21 255
-0.04670357 -0.2057651 0.71300006 45 40 19 255
-0.044693328 -0.20548019 0.71200001 41 36 16 255
-0.042748488 -0.2054837 0.71200001 42 37 17 255
-0.041032787 -0.20664151 0.71600002 42 37 17 255
-0.039295141 -0.20779921 0.72000003 44 38 21 255
-0.037328169 -0.20780236 0.72000003 39 35 18 255
-0.035312001 -0.20751667 0.71900004 44 40 23 255
-0.033301219 -0.20723088 0.71800005 45 41 24 255
-0.031339474 -0.20723353 0.71800005 42 39 23 255
-0.029459484 -0.20781329 0.72000003 44 40 23 255
-0.027530311 -0.20810427 0.72100002 44 40 23 255
-0.025595613 -0.20839511 0.72200006 44 42 24 255
-0.023622669 -0.20839712 0.72200006 44 42 24 255
-0.021619685 -0.20811036 0.72100002 45 43 25 255
-0.019676624 -0.20840074 0.72200006 42 40 22 255
-0.017703529 -0.20840229 0.72200006 45 42 26 255
-0.015730392 -0.20840366 0.72200006 41 37 21 255
-0.013738165 -0.20811625 0.72100002 46 42 25 255
-0.011784014 -0.20840597 0.72200006 45 41 24 255
-0.0098243691 -0.20869555 0.72300005 45 42 22 255
-0.0078483783 -0.20869625 0.72300005 51 48 27 255
