ply
format ascii 1.0
comment PCL generated
element vertex 962
property float x
property float y
property float z
property uchar red
property uchar green
property uchar blue
property uchar alpha
element camera 0
property float view_px
property float view_py
property float view_pz
property float x_axisx
property float x_axisy
property float x_axisz
property float y_axisx
property float y_axisy
property float y_axisz
property float z_axisx
property float z_axisy
property float z_axisz
property float focal
property float scalex
property float scaley
property float centerx
property float centery
property int viewportx
property int viewporty
property float k1
property float k2
end_header
5.2402876e-05 -0.23343812 0.68100005 37 38 16 255
0.0018546592 -0.22658229 0.66100001 47 45 27 255
0.0035809653 -0.2217831 0.64700001 53 51 33 255
0.0052639116 -0.21835494 0.63700002 49 47 29 255
0.0069472338 -0.21664056 0.63200003 45 42 21 255
0.0086306985 -0.21561168 0.62900001 50 47 27 255
0.010330677 -0.21526825 0.62800002 53 49 32 255
0.012025181 -0.21492471 0.62700003 50 48 30 255
0.013670391 -0.21389547 0.62400001 49 47 29 255
0.015299209 -0.21286616 0.62100005 48 46 28 255
0.01702109 -0.21320786 0.62200004 43 41 23 255
0.018718308 -0.21320665 0.62200004 41 41 21 255
0.020415492 -0.21320529 0.62200004 45 45 25 255
0.022112645 -0.21320386 0.62200004 48 48 28 255
0.023771483 -0.21285954 0.62100005 46 47 25 255
0.025383821 -0.21217236 0.61900002 49 48 26 255
0.026897732 -0.21079955 0.61500001 54 53 31 255
0.028436236 -0.20976941 0.61200005 53 51 31 255
0.02995833 -0.20873919 0.60900003 52 52 34 255
0.031464007 -0.20770888 0.60600001 53 52 36 255
0.03295327 -0.20667851 0.60300004 50 48 30 255
0.034540862 -0.20633353 0.60200006 42 40 22 255
0.036122948 -0.20598847 0.60100001 44 42 24 255
0.037699517 -0.20564331 0.60000002 41 40 18 255
0.03927058 -0.20529804 0.59900004 47 46 24 255
0.040836133 -0.20495275 0.59800005 48 47 25 255
0.042396165 -0.20460731 0.597 44 43 21 255
0.043950677 -0.20426182 0.59600002 40 39 17 255
0.045499679 -0.20391625 0.59500003 53 51 31 255
0.047122356 -0.20391335 0.59500003 48 46 26 255
0.048744958 -0.20391029 0.59500003 49 47 27 255
0.050282855 -0.20356451 0.59400004 40 39 17 255
0.051815219 -0.20321865 0.59300005 42 41 19 255
0.053251948 -0.20252998 0.59100002 46 45 21 255
0.05477054 -0.20218399 0.59000003 48 46 26 255
0.056379158 -0.20218059 0.59000003 42 40 20 255
0.058085982 -0.2025198 0.59100002 40 38 18 255
0.059798192 -0.20285894 0.59200001 40 38 18 255
0.061412029 -0.20285533 0.59200001 47 45 25 255
0.063132271 -0.20319434 0.59300005 42 41 19 255
0.064639486 -0.20284791 0.59200001 42 39 18 255
0.066365011 -0.20318677 0.59300005 43 40 19 255
0.067981258 -0.20318289 0.59300005 45 42 21 255
0.069597431 -0.20317897 0.59300005 45 40 20 255
0.071453705 -0.20386025 0.59500003 45 40 20 255
0.073197968 -0.20419882 0.59600002 45 39 22 255
0.07494761 -0.20453732 0.597 45 41 24 255
0.076446101 -0.20419058 0.59600002 45 41 24 255
0.078332007 -0.20487158 0.59800005 42 38 21 255
0.079961322 -0.20486735 0.59800005 46 41 21 255
0.081590556 -0.20486309 0.59800005 50 43 22 255
0.083219685 -0.20485877 0.59800005 56 47 26 255
0.085274391 -0.20588209 0.60100001 63 52 31 255
0.087345392 -0.20690539 0.60400003 59 45 25 255
0.089137971 -0.20724352 0.60500002 49 37 20 255
0.091085963 -0.20792413 0.60700005 51 39 22 255
0.09304478 -0.20860471 0.60900003 51 41 24 255
0.0948589 -0.2089427 0.61000001 52 42 25 255
0.096520178 -0.20893815 0.61000001 56 48 31 255
0.098503269 -0.20961861 0.61200005 51 43 26 255
0.10049719 -0.21029906 0.61400002 60 54 37 255
0.10300112 -0.21200696 0.61900002 68 64 47 255
0.10553221 -0.21371478 0.62400001 78 76 58 255
0.10894967 -0.21713495 0.634 78 76 58 255
0.11277066 -0.22123995 0.64600003 75 74 60 255
-0.21601793 -0.27358651 0.79300004 99 101 91 255
-0.21197037 -0.27117279 0.78600001 111 113 103 255
-0.20662631 -0.26703423 0.77400005 132 132 122 255
-0.2031974 -0.26531091 0.76900005 113 113 105 255
-0.19979587 -0.26358777 0.76400006 91 91 83 255
-0.19668047 -0.26220983 0.76000005 99 99 89 255
-0.19409911 -0.26152211 0.75800002 105 104 90 255
-0.1912754 -0.26048952 0.75500005 109 110 96 255
-0.18846811 -0.25945714 0.75200003 135 136 122 255
-0.18567728 -0.25842488 0.74900001 152 153 139 255
-0.18265764 -0.25704777 0.74500006 125 127 117 255
-0.18014479 -0.25636086 0.74300003 129 129 119 255
-0.17716341 -0.25498402 0.73900002 119 119 109 255
-0.17467788 -0.25429735 0.73700005 126 126 118 255
-0.17150041 -0.2525757 0.73200005 109 111 101 255
-0.16858175 -0.25119913 0.72800004 138 141 129 255
-0.16522722 -0.24913259 0.72200006 142 145 131 255
-0.16235763 -0.24775621 0.71800005 94 96 78 255
-0.15950981 -0.24637991 0.71400005 78 80 62 255
-0.15690444 -0.24534877 0.71100003 104 104 86 255
-0.1545334 -0.24466279 0.70900005 113 113 95 255
-0.15238845 -0.24432193 0.708 91 93 75 255
-0.15046148 -0.24432625 0.708 84 86 68 255
-0.14853446 -0.24433066 0.708 90 92 75 255
-0.14681451 -0.2446803 0.70900005 86 90 72 255
-0.1450891 -0.24503 0.71000004 110 114 96 255
-0.14315659 -0.24503465 0.71000004 112 116 99 255
-0.14082621 -0.24434915 0.708 125 129 111 255
-0.13889904 -0.24435392 0.708 107 109 91 255
-0.13658494 -0.24366848 0.70600003 120 120 102 255
-0.13466315 -0.24367338 0.70600003 106 106 86 255
-0.13255328 -0.24333316 0.70500004 89 88 64 255
-0.13063407 -0.24333809 0.70500004 53 52 28 255
-0.12853226 -0.24299794 0.70400006 51 50 26 255
-0.12661569 -0.24300297 0.70400006 47 46 24 255
-0.1250533 -0.24369837 0.70600003 44 42 22 255
-0.12313113 -0.24370347 0.70600003 41 39 21 255
-0.12086553 -0.24301818 0.70400006 45 43 25 255
-0.11861075 -0.24233288 0.70200002 41 39 21 255
-0.11669928 -0.242338 0.70200002 42 40 22 255
-0.11446068 -0.24165268 0.70000005 39 37 17 255
-0.11239368 -0.24131255 0.69900006 39 37 17 255
-0.11033205 -0.2409724 0.69800001 41 39 21 255
-0.10827579 -0.24063222 0.69700003 46 42 25 255
-0.10607228 -0.23994681 0.69500005 48 46 28 255
-0.10387954 -0.2392613 0.69300002 46 44 26 255
-0.1018448 -0.23892102 0.69200003 47 45 27 255
-0.099815436 -0.23858072 0.69100004 47 44 24 255
-0.097649701 -0.2378951 0.68900001 43 40 20 255
-0.095494755 -0.23720944 0.68700004 45 41 24 255
-0.093486898 -0.23686898 0.68600005 38 35 15 255
-0.091484413 -0.23652847 0.68500006 43 40 20 255
-0.089618109 -0.23653322 0.68500006 42 40 20 255
-0.087751716 -0.23653792 0.68500006 40 38 18 255
-0.085759833 -0.23619726 0.68400002 42 41 19 255
-0.083773322 -0.23585652 0.68300003 40 38 18 255
-0.082271904 -0.23689707 0.68600005 48 47 25 255
-0.080402419 -0.23690157 0.68600005 46 45 21 255
-0.078532845 -0.23690602 0.68600005 51 50 26 255
-0.076439656 -0.23621969 0.68400002 57 56 34 255
-0.074466325 -0.23587863 0.68300003 66 65 43 255
-0.072604649 -0.23588285 0.68300003 68 67 45 255
-0.07063932 -0.23554164 0.68200004 61 59 39 255
-0.068780199 -0.23554572 0.68200004 65 63 43 255
-0.06672474 -0.23485893 0.68000001 57 56 34 255
-0.065061703 -0.23555364 0.68200004 45 42 22 255
-0.063294999 -0.23590288 0.68300003 40 37 16 255
-0.061522767 -0.23625204 0.68400002 38 37 15 255
-0.059657767 -0.23625569 0.68400002 44 41 20 255
-0.057792701 -0.2362593 0.68400002 55 53 29 255
-0.055927545 -0.23626278 0.68400002 65 63 38 255
-0.054062322 -0.23626618 0.68400002 63 61 37 255
-0.052197017 -0.23626949 0.68400002 56 54 30 255
-0.05040523 -0.23661815 0.68500006 52 51 29 255
-0.048466191 -0.23627581 0.68400002 39 37 17 255
-0.046668816 -0.23662427 0.68500006 38 36 18 255
-0.044865903 -0.23697263 0.68600005 35 33 15 255
-0.043057475 -0.23732087 0.68700004 37 35 17 255
-0.041123644 -0.23697816 0.68600005 33 31 13 255
-0.039252412 -0.23698074 0.68600005 37 35 17 255
-0.037381127 -0.23698322 0.68600005 34 32 14 255
-0.035509791 -0.23698559 0.68600005 35 33 15 255
-0.033687428 -0.2373333 0.68700004 32 28 11 255
-0.031859566 -0.23768091 0.68800002 35 31 14 255
-0.029982617 -0.23768294 0.68800002 37 34 14 255
-0.028105622 -0.23768485 0.68800002 40 35 15 255
-0.026152339 -0.23699571 0.68600005 40 37 16 255
-0.02431611 -0.23734286 0.68700004 53 52 28 255
-0.022441721 -0.23734441 0.68700004 62 61 37 255
-0.020627171 -0.23803681 0.68900001 54 53 31 255
-0.018720049 -0.23769264 0.68800002 42 43 21 255
-0.016818354 -0.23734835 0.68700004 42 42 24 255
-0.014900337 -0.23665845 0.68500006 36 36 18 255
-0.01303126 -0.23665941 0.68500006 32 32 14 255
-0.01119475 -0.23735118 0.68700004 35 37 19 255
-0.0093337409 -0.23769733 0.68800002 28 30 12 255
-0.007467261 -0.23804343 0.68900001 34 34 16 255
-0.005587202 -0.23804384 0.68900001 35 35 17 255
-0.0037071349 -0.23804416 0.68900001 43 43 25 255
-0.0018270613 -0.23804435 0.68900001 48 46 26 255
5.2476247e-05 -0.23562597 0.68200004 43 41 21 255
0.0018601444 -0.22906156 0.66300005 45 43 25 255
0.0035917906 -0.22422448 0.64900005 50 48 30 255
0.0052718162 -0.22042373 0.63800001 53 51 31 255
0.0069467626 -0.21835041 0.63200003 49 47 23 255
0.0086301118 -0.21731339 0.62900001 46 43 22 255
0.010346424 -0.21731275 0.62900001 46 43 23 255
0.012005189 -0.21627554 0.62600005 49 45 28 255
0.013691373 -0.21592917 0.625 45 43 25 255
0.015322811 -0.21489176 0.62200004 42 40 22 255
0.017019941 -0.21489066 0.62200004 43 41 23 255
0.018686958 -0.21454401 0.62100005 43 44 22 255
0.020414121 -0.21488819 0.62200004 45 46 24 255
0.022075618 -0.2145413 0.62100005 44 46 26 255
0.023731621 -0.2141943 0.62 40 42 22 255
0.025341123 -0.21350171 0.61800003 50 50 30 255
0.026852213 -0.21211812 0.61400002 56 54 36 255
0.028387891 -0.21107988 0.611 49 47 29 255
0.029857978 -0.20969613 0.60700005 55 52 36 255
0.031358104 -0.20865774 0.60400003 56 53 37 255
0.032896463 -0.20796475 0.60200006 55 52 36 255
0.034538608 -0.20796256 0.60200006 45 43 25 255
0.036120597 -0.20761479 0.60100001 47 45 27 255
0.037571426 -0.20657614 0.59800005 51 49 29 255
0.039136939 -0.2062282 0.597 45 43 23 255
0.040696949 -0.20588024 0.59600002 47 45 25 255
0.042322453 -0.20587762 0.59600002 41 39 19 255
0.043800425 -0.20518406 0.59400004 41 39 19 255
0.045496818 -0.20552668 0.59500003 48 46 26 255
0.047119405 -0.20552379 0.59500003 42 40 20 255
0.048741926 -0.20552084 0.59500003 54 52 32 255
0.05019509 -0.20482695 0.59300005 43 42 20 255
0.051724654 -0.20447844 0.59200001 42 40 20 255
0.0532487 -0.20412986 0.59100002 44 42 22 255
0.054767217 -0.20378122 0.59000003 42 39 19 255
0.056375764 -0.20377789 0.59000003 44 40 23 255
0.058082514 -0.20411986 0.59100002 44 42 22 255
0.059794649 -0.20446177 0.59200001 41 39 19 255
0.061512157 -0.20480362 0.59300005 40 39 17 255
0.063128591 -0.20480001 0.59300005 47 46 22 255
0.064744934 -0.20479633 0.59300005 41 39 15 255
0.066361211 -0.2047926 0.59300005 47 42 21 255
0.067977406 -0.20478882 0.59300005 43 40 19 255
0.069476157 -0.20443961 0.59200001 46 40 23 255
0.071329646 -0.20512639 0.59400004 49 43 26 255
0.07307113 -0.20546776 0.59500003 48 42 25 255
0.074818 -0.20580907 0.59600002 40 36 19 255
0.076441973 -0.20580503 0.59600002 43 39 22 255
0.078196861 -0.20614624 0.597 46 42 25 255
0.079823397 -0.2061421 0.597 42 37 16 255
0.081449859 -0.2061379 0.597 48 43 22 255
0.083215408 -0.20647903 0.59800005 56 47 24 255
0.085128196 -0.2071653 0.60000002 65 54 31 255
0.087196417 -0.20819685 0.60300004 57 44 21 255
0.089280881 -0.20922828 0.60600001 55 44 23 255
0.09108153 -0.2095692 0.60700005 48 36 17 255
0.093193091 -0.21060053 0.61000001 52 42 25 255
0.094854414 -0.21059611 0.61000001 51 41 24 255
0.096515678 -0.21059167 0.61000001 53 47 30 255
0.098498754 -0.21127768 0.61200005 47 41 24 255
0.10082 -0.21265411 0.61600006 60 54 37 255
0.10316293 -0.21403043 0.62 64 62 44 255
0.10586584 -0.21609716 0.62600005 79 77 59 255
0.10911685 -0.21919939 0.63500005 84 82 64 255
0.11311504 -0.22368224 0.648 79 80 66 255
-0.21601693 -0.27574605 0.79300004 102 105 93 255
-0.21169949 -0.27296522 0.78500003 122 125 113 255
-0.20635793 -0.26879367 0.77300006 121 123 113 255
-0.20266728 -0.2667087 0.76700002 98 100 90 255
-0.19953248 -0.26531938 0.76300001 102 103 91 255
-0.1964196 -0.26393026 0.75900006 95 96 84 255
-0.19384079 -0.26323679 0.75700003 100 99 83 255
-0.19076626 -0.26184803 0.75300002 97 99 82 255
-0.18796429 -0.26080725 0.75000006 125 126 112 255
-0.1849308 -0.25941882 0.74600005 151 152 140 255
-0.18265472 -0.25907379 0.74500006 128 130 120 255
-0.1801417 -0.25838119 0.74300003 122 122 112 255
-0.17739989 -0.25734091 0.74000001 122 122 112 255
-0.17443749 -0.25595307 0.73600006 135 135 125 255
-0.17126262 -0.25421757 0.73100001 109 112 100 255
-0.16811502 -0.25248215 0.72600001 135 138 124 255
-0.16476583 -0.25039905 0.72000003 134 140 123 255
-0.16190156 -0.24901156 0.71600002 96 98 80 255
-0.15905911 -0.24762417 0.71200001 80 82 64 255
-0.15645909 -0.24658465 0.70900005 90 90 72 255
-0.1545293 -0.24658859 0.70900005 131 131 113 255
-0.15238427 -0.2462448 0.708 106 108 90 255
-0.15066971 -0.24659675 0.70900005 85 87 69 255
-0.1485301 -0.24625315 0.708 86 88 70 255
-0.14681005 -0.24660529 0.70900005 94 96 78 255
-0.14467587 -0.24626185 0.708 114 118 101 255
-0.14274873 -0.24626634 0.708 121 123 106 255
-0.14042374 -0.24557519 0.70600003 113 115 97 255
-0.13830581 -0.24523196 0.70500004 114 116 98 255
-0.13619326 -0.24488872 0.70400006 102 102 84 255
-0.13446759 -0.24524128 0.70500004 61 59 39 255
-0.13254842 -0.24524602 0.70500004 55 55 29 255
-0.13044389 -0.24490295 0.70400006 43 43 17 255
-0.12852734 -0.24490778 0.70400006 43 42 18 255
-0.12643088 -0.24456474 0.70300001 47 46 24 255
-0.12487119 -0.24526542 0.70500004 45 43 23 255
-0.12277732 -0.24492244 0.70400006 44 42 24 255
-0.12051715 -0.24423154 0.70200002 43 41 23 255
-0.11826783 -0.24354067 0.70000005 42 40 22 255
-0.11636177 -0.24354561 0.70000005 38 36 16 255
-0.11429214 -0.24320263 0.69900006 41 39 19 255
-0.11222787 -0.24285965 0.69800001 39 37 19 255
-0.11016899 -0.24251664 0.69700003 44 42 24 255
-0.1082708 -0.24252158 0.69700003 43 41 23 255
-0.10606729 -0.24183057 0.69500005 46 44 26 255
-0.10402449 -0.2414875 0.69400001 49 47 29 255
-0.10198706 -0.2411444 0.69300002 46 44 26 255
-0.099810556 -0.24045329 0.69100004 46 44 26 255
-0.097644866 -0.23976214 0.68900001 45 41 24 255
-0.095489964 -0.23907092 0.68700004 44 40 23 255
-0.093482159 -0.23872764 0.68600005 39 35 18 255
-0.091479711 -0.23838432 0.68500006 44 41 21 255
-0.089613438 -0.23838896 0.68500006 43 41 21 255
-0.087618992 -0.23804551 0.68400002 36 34 14 255
-0.085629895 -0.23770204 0.68300003 40 39 17 255
-0.083646178 -0.23735851 0.68200004 42 41 19 255
-0.081907645 -0.23771095 0.68300003 54 53 31 255
-0.080163598 -0.23806341 0.68400002 55 55 29 255
-0.078185059 -0.23771968 0.68300003 60 60 34 255
-0.07621187 -0.23737589 0.68200004 66 66 40 255
-0.074244067 -0.23703203 0.68100005 62 60 35 255
-0.072600506 -0.23773229 0.68300003 67 65 41 255
-0.070635252 -0.23738828 0.68200004 54 52 34 255
-0.068675354 -0.23704419 0.68100005 49 47 29 255
-0.066622719 -0.23635194 0.67900002 42 40 22 255
-0.065057866 -0.23740005 0.68200004 39 37 19 255
-0.063291237 -0.2377519 0.68300003 39 37 17 255
-0.061519075 -0.23810369 0.68400002 39 37 17 255
-0.059479743 -0.23741107 0.68200004 45 42 21 255
-0.057620212 -0.23741458 0.68200004 52 49 28 255
-0.055760607 -0.23741803 0.68200004 50 48 24 255
-0.053979959 -0.23776945 0.68300003 60 58 34 255
-0.052041177 -0.23742458 0.68200004 62 60 36 255
-0.050254937 -0.23777586 0.68300003 53 52 30 255
-0.048463166 -0.23812704 0.68400002 44 42 22 255
-0.046734005 -0.23882629 0.68600005 44 42 24 255
-0.04479767 -0.23848099 0.68500006 36 34 16 255
-0.042929403 -0.23848376 0.68500006 36 34 16 255
-0.041001126 -0.23813824 0.68400002 35 33 15 255
-0.039192684 -0.23848894 0.68500006 37 35 17 255
-0.037378725 -0.23883955 0.68600005 34 32 14 255
-0.035507496 -0.23884186 0.68600005 35 33 15 255
-0.033636216 -0.2388441 0.68600005 35 33 15 255
-0.031811185 -0.23919436 0.68700004 35 31 14 255
-0.029893508 -0.23884821 0.68600005 32 26 9 255
-0.028062932 -0.23919824 0.68700004 36 30 13 255
-0.026150621 -0.23885185 0.68600005 36 33 13 255
-0.0243499 -0.23954983 0.68800002 42 39 18 255
-0.02244024 -0.23920318 0.68700004 55 54 30 255
-0.020595871 -0.23955278 0.68800002 52 51 29 255
-0.018718807 -0.23955406 0.68800002 55 53 33 255
-0.016841717 -0.23955525 0.68800002 44 44 26 255
-0.014942848 -0.2392081 0.68700004 43 43 25 255
-0.013068436 -0.23920901 0.68700004 34 34 16 255
-0.011210297 -0.23955804 0.68800002 36 36 18 255
-0.0093331179 -0.23955871 0.68800002 34 34 16 255
-0.0074450872 -0.23921105 0.68700004 38 36 18 255
-0.0055787195 -0.23955968 0.68800002 43 41 21 255
-0.0037015064 -0.23955998 0.68800002 49 47 27 255
-0.0018295908 -0.24025659 0.69000006 45 43 23 255
5.2395797e-05 -0.23712285 0.68100005 47 45 25 255
0.0018628252 -0.23120344 0.66400003 44 42 24 255
0.003597084 -0.22632848 0.65000004 47 45 25 255
0.005287989 -0.22284622 0.64000005 53 52 30 255
0.0069462974 -0.22006021 0.63200003 48 46 21 255
0.0086020976 -0.21831872 0.62700003 47 45 20 255
0.010312838 -0.2183181 0.62700003 46 44 20 255
0.012004389 -0.21796918 0.62600005 45 42 22 255
0.013668559 -0.21727192 0.62400001 47 45 27 255
0.015321793 -0.21657459 0.62200004 45 43 25 255
0.016991453 -0.21622534 0.62100005 41 41 21 255
0.018655628 -0.21587598 0.62 40 40 20 255
0.020347137 -0.2158747 0.62 40 42 22 255
0.022038616 -0.21587332 0.62 44 46 26 255
0.023730058 -0.21587183 0.62 43 44 22 255
0.025298465 -0.2148257 0.61700004 52 50 30 255
0.026850458 -0.21377946 0.61400002 51 49 31 255
0.028293129 -0.21203682 0.60900003 55 53 35 255
0.029757664 -0.21064226 0.60500002 50 48 30 255
0.031304166 -0.20994399 0.60300004 55 52 36 255
0.032839704 -0.20924559 0.60100001 47 45 27 255
0.034479022 -0.20924345 0.60100001 49 47 29 255
0.035998102 -0.20854492 0.59900004 47 45 27 255
0.037506212 -0.20784628 0.597 45 43 25 255
0.039068919 -0.20749573 0.59600002 47 45 27 255
0.040626109 -0.20714508 0.59500003 43 41 21 255
0.042248797 -0.20714252 0.59500003 40 38 18 255
0.043797698 -0.20679174 0.59400004 42 40 20 255
0.045493998 -0.20713711 0.59500003 46 45 23 255
0.047037318 -0.20678617 0.59400004 45 44 22 255
0.048575122 -0.20643514 0.59300005 47 48 26 255
0.050107405 -0.20608403 0.59200001 40 39 15 255
0.051546805 -0.20538478 0.59000003 44 42 22 255
0.053245515 -0.20572977 0.59100002 42 40 20 255
0.054671139 -0.20503038 0.58900005 48 44 27 255
0.056372438 -0.20537522 0.59000003 41 37 20 255
0.057980843 -0.20537187 0.59000003 39 37 17 255
0.059690174 -0.20571657 0.59100002 44 41 20 255
0.061301161 -0.20571311 0.59100002 43 40 19 255
0.062912077 -0.20570959 0.59100002 46 45 21 255
0.064632095 -0.20605408 0.59200001 49 47 23 255
0.066245586 -0.20605041 0.59200001 46 41 20 255
0.067744374 -0.20569867 0.59100002 42 39 19 255
0.069472335 -0.20604296 0.59200001 43 39 22 255
0.071205691 -0.20638722 0.59300005 41 37 20 255
0.073067203 -0.20707943 0.59500003 46 42 25 255
0.074688494 -0.20707551 0.59500003 42 38 21 255
0.076309696 -0.20707153 0.59500003 43 40 20 255
0.07793083 -0.20706753 0.59500003 49 45 21 255
0.079685591 -0.20741151 0.59600002 47 43 19 255
0.081309296 -0.20740743 0.59600002 49 45 21 255
0.083072074 -0.20775133 0.597 54 46 21 255
0.085123971 -0.20879117 0.60000002 61 53 28 255
0.087192155 -0.20983094 0.60300004 57 47 22 255
0.089423917 -0.21121861 0.60700005 57 46 23 255
0.091077201 -0.21121433 0.60700005 50 41 20 255
0.092883192 -0.21155803 0.60800004 49 39 20 255
0.094539069 -0.21155372 0.60800004 52 45 25 255
0.096353091 -0.21189737 0.60900003 49 43 26 255
0.098333426 -0.21258892 0.611 52 47 27 255
0.1006519 -0.21397632 0.61500001 62 57 37 255
0.1031585 -0.21571158 0.62 63 61 41 255
0.10586136 -0.21779469 0.62600005 74 72 54 255
0.10911232 -0.22092146 0.63500005 82 80 62 255
0.11311044 -0.2254397 0.648 82 84 66 255
-0.21492666 -0.27650419 0.78900003 102 107 95 255
-0.21088952 -0.27405164 0.78200006 121 126 112 255
-0.20608981 -0.27054799 0.77200001 119 121 111 255
-0.20266591 -0.26879683 0.76700002 109 111 101 255
-0.19953091 -0.26739633 0.76300001 100 103 91 255
-0.19615903 -0.26564559 0.75800002 96 99 87 255
-0.19358277 -0.2649464 0.75600004 83 84 70 255
-0.19076413 -0.26389694 0.75300002 106 108 91 255
-0.18796192 -0.26284766 0.75000006 117 118 106 255
-0.1849283 -0.26144809 0.74600005 141 142 130 255
-0.18240686 -0.26074961 0.74400002 119 119 109 255
-0.18013886 -0.26040176 0.74300003 117 117 107 255
-0.17715718 -0.25900266 0.73900002 130 130 120 255
-0.17396037 -0.25725317 0.73400003 112 112 104 255
-0.17079082 -0.2555038 0.72900003 120 122 112 255
-0.16811164 -0.25445551 0.72600001 119 122 110 255
-0.1649912 -0.25270638 0.72100002 168 174 157 255
-0.16189799 -0.25095728 0.71600002 72 76 58 255
-0.15950221 -0.25025982 0.71400005 70 74 56 255
-0.15667599 -0.24886142 0.71000004 77 79 59 255
-0.15452541 -0.24851464 0.70900005 81 83 65 255
-0.15238029 -0.24816792 0.708 89 91 73 255
-0.15066563 -0.24852239 0.70900005 86 88 70 255
-0.14852594 -0.24817587 0.708 103 105 88 255
-0.14659874 -0.24817997 0.708 107 109 92 255
-0.1444672 -0.24783362 0.70700002 92 91 77 255
-0.14254269 -0.24783786 0.70700002 94 93 77 255
-0.14061819 -0.24784222 0.70700002 81 79 61 255
-0.13869362 -0.24784663 0.70700002 85 83 63 255
-0.13638215 -0.24714997 0.70500004 69 68 46 255
-0.13427222 -0.24680389 0.70400006 59 58 34 255
-0.13254374 -0.24715906 0.70500004 53 53 27 255
-0.13043918 -0.24681309 0.70400006 46 46 20 255
-0.12888768 -0.2475189 0.70600003 42 41 19 255
-0.12678577 -0.24717301 0.70500004 44 43 21 255
-0.12486634 -0.24717775 0.70500004 45 43 23 255
-0.12277246 -0.24683191 0.70400006 46 44 26 255
-0.12051229 -0.24613544 0.70200002 42 40 22 255
-0.11843191 -0.2457896 0.70100003 48 46 26 255
-0.11652312 -0.24579442 0.70100003 44 42 22 255
-0.11445078 -0.24544857 0.70000005 49 48 26 255
-0.11238378 -0.24510273 0.69900006 42 41 19 255
-0.11032217 -0.24475688 0.69800001 45 43 23 255
-0.10842127 -0.24476168 0.69800001 46 44 24 255
-0.10636768 -0.2444158 0.69700003 46 44 26 255
-0.10416956 -0.24371924 0.69500005 46 44 26 255
-0.10212943 -0.24337329 0.69400001 43 41 23 255
-0.099950232 -0.24267663 0.69200003 52 50 32 255
-0.097781859 -0.24197996 0.69000006 47 45 27 255
-0.095763251 -0.24163388 0.68900001 44 42 24 255
-0.093613781 -0.24093708 0.68700004 41 39 21 255
-0.091608644 -0.24059094 0.68600005 44 43 21 255
-0.089478061 -0.23989403 0.68400002 40 39 17 255
-0.087486394 -0.23954779 0.68300003 48 47 23 255
-0.085625432 -0.2395522 0.68300003 46 45 21 255
-0.083641768 -0.23920587 0.68200004 53 52 28 255
-0.081783377 -0.23921019 0.68200004 60 59 35 255
-0.079924896 -0.23921447 0.68200004 66 66 40 255
-0.078180805 -0.23956944 0.68300003 71 71 43 255
-0.07620769 -0.23922285 0.68200004 68 66 41 255
-0.074239954 -0.23887619 0.68100005 58 56 31 255
-0.072383866 -0.23888023 0.68100005 48 47 25 255
-0.070734829 -0.23958577 0.68300003 40 38 18 255
-0.068973958 -0.23994046 0.68400002 40 38 20 255
-0.067011341 -0.23959351 0.68300003 39 37 19 255
-0.065149486 -0.23959728 0.68300003 38 36 18 255
-0.063194886 -0.23925017 0.68200004 35 33 13 255
-0.061335597 -0.23925377 0.68200004 38 37 15 255
-0.059389021 -0.23890649 0.68100005 35 32 11 255
-0.057616781 -0.23926072 0.68200004 40 37 16 255
-0.055675514 -0.23891327 0.68100005 46 43 22 255
-0.053897675 -0.23926735 0.68200004 54 53 31 255
-0.052038014 -0.23927052 0.68200004 58 57 33 255
-0.050251864 -0.23962443 0.68300003 60 59 37 255
-0.048460189 -0.23997828 0.68400002 50 49 27 255
-0.046662997 -0.24033204 0.68500006 46 45 23 255
-0.044794895 -0.24033485 0.68500006 39 38 16 255
-0.042864058 -0.23998667 0.68400002 34 32 12 255
-0.041058499 -0.24034014 0.68500006 36 34 14 255
-0.039247427 -0.24069349 0.68600005 38 36 18 255
-0.037376359 -0.24069588 0.68600005 37 35 17 255
-0.035453483 -0.24034731 0.68500006 34 32 14 255
-0.033683099 -0.24105123 0.68700004 36 34 16 255
-0.031855457 -0.24140418 0.68800002 34 32 14 255
-0.029935161 -0.24105525 0.68700004 34 32 14 255
-0.028061127 -0.24105711 0.68700004 30 28 10 255
-0.026225168 -0.24140973 0.68800002 34 32 14 255
-0.024348326 -0.24141136 0.68800002 35 34 12 255
-0.022438783 -0.24106194 0.68700004 45 44 22 255
-0.020594532 -0.24141425 0.68800002 43 41 23 255
-0.018690383 -0.24106461 0.68700004 56 54 34 255
-0.016840614 -0.24141662 0.68800002 49 47 27 255
-0.014963619 -0.24141769 0.68800002 43 41 23 255
-0.013105622 -0.24176946 0.68900001 40 38 18 255
-0.011209561 -0.24141937 0.68800002 39 38 14 255
-0.0093189403 -0.24106912 0.68700004 44 43 19 255
-0.0074337628 -0.2407188 0.68600005 41 40 18 255
-0.0055702445 -0.24107011 0.68700004 46 45 23 255
-0.0037012629 -0.24142131 0.68800002 46 44 24 255
-0.0018294703 -0.24212331 0.69000006 38 36 18 255
5.246928e-05 -0.23931612 0.68200004 39 37 19 255
0.0018711186 -0.23405252 0.66700006 36 36 18 255
0.0036134485 -0.22913972 0.65300006 51 51 33 255
0.0052876417 -0.2245777 0.64000005 54 53 29 255
0.0069568316 -0.22212097 0.63300002 48 48 22 255
0.0086426884 -0.22106774 0.63000005 50 49 21 255
0.010345057 -0.22071622 0.62900001 45 43 18 255
0.012022777 -0.22001371 0.62700003 51 48 27 255
0.013667664 -0.21896017 0.62400001 50 47 27 255
0.015320792 -0.21825744 0.62200004 44 42 24 255
0.016990347 -0.21790551 0.62100005 36 36 18 255
0.018654415 -0.21755344 0.62 45 45 27 255
0.020345816 -0.21755219 0.62 42 42 24 255
0.022037188 -0.21755081 0.62 42 42 22 255
0.023728529 -0.21754937 0.62 47 47 27 255
0.025378836 -0.21719693 0.61900002 47 45 25 255
0.026892465 -0.21579173 0.61500001 46 44 26 255
0.028337779 -0.21403559 0.61000001 56 54 36 255
0.029804952 -0.21263023 0.60600001 53 51 33 255
0.031354088 -0.21192656 0.60400003 46 44 26 255
0.032892268 -0.21122284 0.60200006 55 53 35 255
0.03447685 -0.21086982 0.60100001 46 44 26 255
0.035995845 -0.21016592 0.59900004 49 47 29 255
0.037566695 -0.20981278 0.59800005 46 44 26 255
0.039132044 -0.20945954 0.597 51 49 31 255
0.040691871 -0.20910627 0.59600002 43 41 23 255
0.042317204 -0.20910373 0.59600002 43 41 23 255
0.04386875 -0.20875028 0.59500003 45 43 23 255
0.045414783 -0.20839675 0.59400004 42 41 19 255
0.046955302 -0.20804317 0.59300005 47 46 24 255
0.048490297 -0.20768946 0.59200001 51 52 30 255
0.050104424 -0.20768657 0.59200001 46 45 21 255
0.051631119 -0.20733276 0.59100002 45 44 22 255
0.053332474 -0.20768051 0.59200001 52 50 30 255
0.054946396 -0.20767736 0.59200001 50 46 29 255
0.056464721 -0.20732337 0.59100002 46 43 23 255
0.057977516 -0.20696932 0.59000003 48 45 25 255
0.05968678 -0.20731679 0.59100002 41 38 17 255
0.061297704 -0.2073134 0.59100002 46 43 22 255
0.062802121 -0.20695916 0.59000003 44 42 18 255
0.064519346 -0.20730643 0.59100002 42 39 18 255
0.066018164 -0.20695212 0.59000003 43 38 18 255
0.067626074 -0.2069485 0.59000003 40 36 19 255
0.069233917 -0.20694485 0.59000003 42 38 21 255
0.071201891 -0.20799339 0.59300005 47 43 26 255
0.073063351 -0.20869111 0.59500003 42 38 21 255
0.074810117 -0.20903802 0.59600002 43 39 22 255
0.076305777 -0.20868342 0.59500003 45 40 20 255
0.077926874 -0.20867954 0.59500003 47 43 19 255
0.079414204 -0.20832488 0.59400004 43 39 15 255
0.081305265 -0.20902236 0.59600002 52 45 22 255
0.083068013 -0.20936903 0.597 55 47 22 255
0.085119858 -0.21041711 0.60000002 64 56 29 255
0.087188005 -0.21146512 0.60300004 60 50 23 255
0.089419723 -0.21286376 0.60700005 57 47 22 255
0.091072991 -0.21285959 0.60700005 54 45 22 255
0.092726193 -0.21285541 0.60700005 52 43 22 255
0.094223857 -0.21250059 0.60600001 52 45 25 255
0.096190639 -0.21319774 0.60800004 47 42 22 255
0.098168224 -0.21389484 0.61000001 53 48 28 255
0.10064761 -0.21564385 0.61500001 61 56 35 255
0.10315418 -0.21739282 0.62 60 59 37 255
0.10602612 -0.21984297 0.62700003 68 67 45 255
0.10910793 -0.22264364 0.63500005 81 79 59 255
0.11328052 -0.22754791 0.64900005 78 80 62 255
-0.21301949 -0.2761814 0.78200006 103 108 96 255
-0.20927086 -0.27406266 0.77600002 138 141 129 255
-0.20582202 -0.27229729 0.77100003 113 115 105 255
-0.20266485 -0.27088538 0.76700002 93 95 85 255
-0.19952965 -0.26947367 0.76300001 96 97 85 255
-0.19615757 -0.26770902 0.75800002 91 92 80 255
-0.19332504 -0.26665094 0.75500005 102 103 89 255
-0.19050889 -0.26559299 0.75200003 119 121 104 255
-0.18795988 -0.26488847 0.75000006 107 110 98 255
-0.18467818 -0.26312456 0.74500006 146 149 137 255
-0.18191412 -0.26206714 0.74200004 125 127 117 255
-0.17940894 -0.26136309 0.74000001 111 111 101 255
-0.17667502 -0.26030606 0.73700005 117 117 107 255
-0.17372049 -0.2588959 0.73300004 112 112 102 255
-0.17078781 -0.2574859 0.72900003 139 142 130 255
-0.16787697 -0.25607601 0.72500002 151 154 142 255
-0.16475911 -0.25431299 0.72000003 164 168 151 255
-0.16189463 -0.25290331 0.71600002 81 85 67 255
-0.15927538 -0.25184697 0.71300006 73 77 59 255
-0.15667243 -0.25079069 0.71000004 86 88 70 255
-0.1543038 -0.25008771 0.708 74 76 58 255
-0.15237652 -0.25009131 0.708 71 73 55 255
-0.15066175 -0.25044826 0.70900005 73 75 57 255
-0.14852197 -0.25009879 0.708 120 119 103 255
-0.14638764 -0.24974947 0.70700002 114 113 97 255
-0.14425874 -0.24940018 0.70600003 99 98 82 255
-0.14213529 -0.24905099 0.70500004 71 68 52 255
-0.14041501 -0.24940838 0.70600003 58 56 38 255
-0.13829695 -0.24905933 0.70500004 62 60 40 255
-0.13637774 -0.2490636 0.70500004 66 65 43 255
-0.13426779 -0.24871464 0.70400006 59 58 34 255
-0.13253923 -0.2490723 0.70500004 49 49 23 255
-0.13043463 -0.24872345 0.70400006 43 43 17 255
-0.12851799 -0.24872792 0.70400006 43 42 20 255
-0.12624165 -0.24802579 0.70200002 51 49 29 255
-0.12450746 -0.24838367 0.70300001 44 42 24 255
-0.12241899 -0.24803492 0.70200002 44 44 26 255
-0.1205076 -0.24803951 0.70200002 41 39 19 255
-0.1184272 -0.24769081 0.70100003 46 45 23 255
-0.11668462 -0.24804881 0.70200002 42 41 19 255
-0.11444604 -0.24734677 0.70000005 48 47 23 255
-0.11221828 -0.24664471 0.69800001 46 45 21 255
-0.11031745 -0.24664935 0.69800001 44 43 21 255
-0.10857187 -0.24700738 0.69900006 41 40 18 255
-0.10636297 -0.24630529 0.69700003 43 42 20 255
-0.10416488 -0.24560316 0.69500005 44 42 22 255
-0.10212477 -0.24525434 0.69400001 45 43 25 255
-0.10009003 -0.24490556 0.69300002 47 45 27 255
-0.097777247 -0.2438499 0.69000006 51 49 31 255
-0.095758677 -0.24350099 0.68900001 44 42 24 255
-0.0937455 -0.2431521 0.68800002 42 40 20 255
-0.091737688 -0.24280316 0.68700004 39 38 14 255
-0.089604437 -0.24210072 0.68500006 46 45 21 255
-0.087738171 -0.24210508 0.68500006 56 55 31 255
-0.085746445 -0.24175595 0.68400002 54 54 28 255
-0.083760098 -0.24140678 0.68300003 70 69 45 255
-0.081659213 -0.24070409 0.68100005 63 62 38 255
-0.079803519 -0.24070829 0.68100005 64 63 39 255
-0.077947736 -0.24071237 0.68100005 64 63 39 255
-0.076091871 -0.24071646 0.68100005 53 52 28 255
-0.074126914 -0.24036698 0.68000001 45 44 20 255
-0.072379902 -0.24072438 0.68100005 39 38 16 255
-0.070730925 -0.24143526 0.68300003 37 35 15 255
-0.068970121 -0.24179259 0.68400002 36 34 16 255
-0.067007579 -0.24144283 0.68300003 38 36 18 255
-0.065050423 -0.24109304 0.68200004 40 38 20 255
-0.063098624 -0.24074313 0.68100005 36 34 14 255
-0.061152205 -0.24039312 0.68000001 38 36 16 255
-0.059298374 -0.24039654 0.68000001 39 36 15 255
-0.057528947 -0.24075346 0.68100005 39 36 15 255
-0.05567224 -0.24075672 0.68100005 42 39 18 255
-0.053973511 -0.24146698 0.68300003 42 41 19 255
-0.052111216 -0.2414701 0.68300003 54 53 29 255
-0.050248854 -0.24147312 0.68300003 53 52 30 255
-0.048386429 -0.24147606 0.68300003 58 57 33 255
-0.046455823 -0.24112533 0.68200004 55 54 30 255
-0.04466138 -0.24148163 0.68300003 46 45 23 255
-0.042798772 -0.24148425 0.68300003 37 35 15 255
-0.04111591 -0.24254751 0.68600005 36 34 14 255
-0.0391878 -0.2421964 0.68500006 38 36 16 255
-0.037319563 -0.24219875 0.68500006 35 33 15 255
-0.035399523 -0.2418474 0.68400002 33 31 13 255
-0.033582941 -0.24220312 0.68500006 35 33 15 255
-0.03176086 -0.24255872 0.68600005 35 33 15 255
-0.029846137 -0.24220705 0.68500006 32 30 12 255
-0.027977668 -0.24220887 0.68500006 30 28 10 255
-0.026109161 -0.24221055 0.68500006 33 31 13 255
-0.024276001 -0.24256571 0.68600005 37 35 15 255
-0.022404695 -0.2425672 0.68600005 40 38 18 255
-0.020593217 -0.24327573 0.68800002 37 35 17 255
-0.018743593 -0.24363059 0.68900001 41 39 21 255
-0.016864011 -0.24363169 0.68900001 50 48 28 255
-0.014962657 -0.24327913 0.68800002 46 44 24 255
-0.01310478 -0.24363363 0.68900001 46 45 23 255
-0.01122513 -0.24363439 0.68900001 36 35 11 255
-0.0093319025 -0.24328144 0.68800002 47 46 22 255
-0.0074332822 -0.24257478 0.68600005 42 41 19 255
-0.0055617774 -0.2425752 0.68600005 47 46 24 255
-0.0036956447 -0.2429291 0.68700004 42 40 22 255
-0.0018267009 -0.24363647 0.68900001 32 30 12 255
5.2619751e-05 -0.2418685 0.68400002 31 29 11 255
0.0018738027 -0.2362107 0.66800004 33 33 15 255
0.0036076813 -0.23055278 0.65200001 53 53 35 255
0.0052955616 -0.22666283 0.64100003 50 49 27 255
0.0069783614 -0.22454077 0.63500005 46 45 23 255
0.0086695664 -0.22347945 0.63200003 45 43 18 255
0.01034439 -0.22241803 0.62900001 44 42 18 255
0.012022004 -0.2217101 0.62700003 47 46 24 255
0.013666787 -0.22064847 0.62400001 46 44 24 255
0.01534444 -0.22029394 0.62300003 42 40 22 255
0.017016616 -0.21993932 0.62200004 42 42 24 255
0.018683311 -0.21958458 0.62100005 44 44 26 255
0.020377336 -0.21958336 0.62100005 41 41 23 255
0.022106873 -0.2199356 0.62200004 45 43 23 255
0.023803566 -0.21993417 0.62200004 47 45 25 255
0.025418229 -0.21922544 0.62 48 46 26 255
0.026847046 -0.21710227 0.61400002 52 50 30 255
0.028335998 -0.21568622 0.61000001 53 51 31 255
0.029803088 -0.21427007 0.60600001 57 55 37 255
0.031404044 -0.21391463 0.60500002 49 49 31 255
0.032890227 -0.21285191 0.60200006 46 46 28 255
0.034474723 -0.21249627 0.60100001 42 42 24 255
0.035933547 -0.21143344 0.59800005 44 44 26 255
0.037564401 -0.21143119 0.59800005 44 44 26 255
0.03919521 -0.2114289 0.59800005 47 45 25 255
0.040757686 -0.21107292 0.597 49 47 27 255
0.04231466 -0.21071689 0.59600002 47 45 27 255
0.043866124 -0.21036077 0.59500003 49 47 27 255
0.045412082 -0.2100046 0.59400004 49 47 27 255
0.046952527 -0.20964836 0.59300005 48 49 27 255
0.048405547 -0.20893851 0.59100002 42 41 19 255
0.050016869 -0.20893563 0.59100002 46 45 21 255
0.051628124 -0.20893273 0.59100002 45 44 22 255
0.053329408 -0.20928325 0.59200001 52 50 30 255
0.054943264 -0.20928018 0.59200001 43 41 21 255
0.056461524 -0.20892353 0.59100002 44 41 21 255
0.05797426 -0.20856684 0.59000003 54 51 31 255
0.059582472 -0.2085636 0.59000003 53 48 27 255
0.061086901 -0.2082068 0.58900005 45 42 21 255
0.062585808 -0.20784995 0.588 41 38 17 255
0.064297527 -0.20820002 0.58900005 44 41 21 255
0.065902732 -0.20819657 0.58900005 45 41 24 255
0.06750787 -0.20819303 0.58900005 42 38 22 255
0.069230273 -0.20854293 0.59000003 44 40 24 255
0.071078129 -0.20924623 0.59200001 39 35 19 255
0.072936803 -0.20994946 0.59400004 43 37 20 255
0.074555285 -0.20994574 0.59400004 48 40 23 255
0.076045461 -0.20958856 0.59300005 48 41 21 255
0.077661082 -0.20958477 0.59300005 48 41 20 255
0.079276629 -0.20958096 0.59300005 46 39 18 255
0.081028521 -0.20993054 0.59400004 55 48 27 255
0.082785785 -0.21028006 0.59500003 53 46 23 255
0.08469028 -0.21098296 0.597 58 52 27 255
0.087039381 -0.21274604 0.60200006 53 45 20 255
0.089121006 -0.2138022 0.60500002 51 42 19 255
0.090918861 -0.21415156 0.60600001 52 45 22 255
0.092722096 -0.21450093 0.60700005 56 49 28 255
0.094375238 -0.21449688 0.60700005 49 42 21 255
0.09602832 -0.21449284 0.60700005 54 45 24 255
0.098003179 -0.21519551 0.60900003 52 45 24 255
0.10031617 -0.21660487 0.61300004 51 47 23 255
0.10281726 -0.21836753 0.61800003 57 55 31 255
0.10551461 -0.22048345 0.62400001 75 74 50 255
0.10876004 -0.22365932 0.63300002 80 79 55 255
0.11345074 -0.22966172 0.65000004 82 82 62 255
-0.2127471 -0.27795631 0.78100002 126 133 121 255
-0.20873125 -0.27546495 0.77400005 134 136 126 255
-0.20582154 -0.27439746 0.77100003 105 107 97 255
-0.20266415 -0.27297434 0.76700002 103 105 95 255
-0.19952869 -0.2715514 0.76300001 96 97 85 255
-0.19589764 -0.26941693 0.75700003 93 94 82 255
-0.19306758 -0.26835033 0.75400001 102 103 89 255
-0.19025399 -0.26728398 0.75100005 119 118 102 255
-0.18795812 -0.26692963 0.75000006 97 98 84 255
-0.18442832 -0.26479584 0.74400002 153 156 144 255
-0.18142165 -0.26337412 0.74000001 139 140 128 255
-0.17892177 -0.26266438 0.73800004 123 123 113 255
-0.17667256 -0.26231068 0.73700005 107 107 97 255
-0.17371792 -0.26088944 0.73300004 128 128 118 255
-0.17078508 -0.25946826 0.72900003 162 164 154 255
-0.1678741 -0.25804725 0.72500002 156 159 147 255
-0.16475613 -0.25627044 0.72000003 140 144 127 255
-0.16189153 -0.25484961 0.71600002 84 88 70 255
-0.15927213 -0.25378484 0.71300006 74 78 60 255
-0.15666911 -0.25272021 0.71000004 90 94 76 255
-0.15430038 -0.25201157 0.708 74 76 58 255
-0.15215777 -0.25165901 0.70700002 61 63 45 255
-0.1504456 -0.25201842 0.708 79 79 61 255
-0.14830846 -0.25166604 0.70700002 75 73 55 255
-0.14638381 -0.25166973 0.70700002 82 80 62 255
-0.14425483 -0.25131753 0.70600003 71 69 51 255
-0.14233288 -0.25132141 0.70600003 65 63 45 255
-0.14041094 -0.25132534 0.70600003 52 50 30 255
-0.13848896 -0.25132933 0.70600003 62 60 40 255
-0.13637353 -0.25097743 0.70500004 64 63 41 255
-0.13445425 -0.25098157 0.70500004 63 62 38 255
-0.13253491 -0.25098574 0.70500004 50 50 24 255
-0.13043028 -0.25063401 0.70400006 48 47 23 255
-0.12833104 -0.25028229 0.70300001 48 46 26 255
-0.12605737 -0.24957454 0.70100003 47 45 25 255
-0.12432587 -0.24993494 0.70200002 50 48 30 255
-0.12241449 -0.24993935 0.70200002 49 49 31 255
-0.12067472 -0.25029984 0.70300001 43 43 25 255
-0.11859158 -0.24994825 0.70200002 46 44 24 255
-0.11668004 -0.24995275 0.70200002 44 42 22 255
-0.11427797 -0.24888904 0.69900006 49 48 26 255
-0.11221369 -0.24853745 0.69800001 43 42 18 255
-0.11031287 -0.248542 0.69800001 50 49 27 255
-0.10841196 -0.24854648 0.69800001 49 48 26 255
-0.10635839 -0.24819489 0.69700003 54 53 31 255
-0.10401046 -0.24713109 0.69400001 58 56 36 255
-0.10212024 -0.24713556 0.69400001 46 44 26 255
-0.099796668 -0.2460717 0.69100004 39 37 19 255
-0.09777277 -0.24572001 0.69000006 44 42 24 255
-0.095615268 -0.24501216 0.68800002 46 44 24 255
-0.093741082 -0.24501652 0.68800002 40 38 18 255
-0.091733307 -0.24466473 0.68700004 46 45 21 255
-0.089730911 -0.24431288 0.68600005 48 48 22 255
-0.087733865 -0.24396099 0.68500006 53 53 27 255
-0.08574219 -0.24360907 0.68400002 54 54 28 255
-0.083755903 -0.24325708 0.68300003 68 67 43 255
-0.081774972 -0.24290502 0.68200004 60 59 37 255
-0.080033779 -0.24326529 0.68300003 61 59 39 255
-0.078172602 -0.24326931 0.68300003 52 50 30 255
-0.076311342 -0.24327327 0.68300003 45 44 22 255
-0.074232005 -0.24256481 0.68100005 42 40 20 255
-0.072376043 -0.2425687 0.68100005 37 35 15 255
-0.070623562 -0.24292867 0.68200004 37 35 15 255
-0.068865545 -0.24328861 0.68300003 34 32 14 255
-0.066905804 -0.24293604 0.68200004 35 35 17 255
-0.06485606 -0.2422272 0.68000001 39 37 19 255
-0.062909797 -0.2418745 0.67900002 38 36 16 255
-0.061148766 -0.24223414 0.68000001 37 35 15 255
-0.059382211 -0.24259377 0.68100005 38 35 15 255
-0.057525661 -0.24259704 0.68100005 37 34 14 255
-0.055669039 -0.24260025 0.68100005 42 39 19 255
-0.053891376 -0.24295962 0.68200004 40 38 18 255
-0.05210818 -0.24331892 0.68300003 49 48 26 255
-0.050245907 -0.24332185 0.68300003 43 41 21 255
-0.048383575 -0.24332474 0.68300003 62 61 39 255
-0.046521179 -0.24332753 0.68300003 62 61 37 255
-0.044724111 -0.24368645 0.68400002 57 56 34 255
-0.042921532 -0.24404533 0.68500006 51 50 28 255
-0.041113436 -0.24440409 0.68600005 39 37 17 255
-0.039242629 -0.24440648 0.68600005 41 39 19 255
-0.037317295 -0.24405251 0.68500006 35 33 15 255
-0.035345614 -0.24334215 0.68300003 31 29 11 255
-0.03353186 -0.2437005 0.68400002 33 31 13 255
-0.031712614 -0.24405879 0.68500006 34 32 14 255
-0.029887864 -0.24441695 0.68600005 28 26 8 255
-0.028016776 -0.24441871 0.68600005 31 29 11 255
-0.026145654 -0.24442038 0.68600005 34 32 14 255
-0.024274491 -0.24442196 0.68600005 33 31 13 255
-0.022435952 -0.24477966 0.68700004 34 32 14 255
-0.020591926 -0.2451373 0.68800002 37 35 17 255
-0.018742416 -0.24549481 0.68900001 41 39 21 255
-0.016838478 -0.24513963 0.68800002 42 40 20 255
-0.01493997 -0.24478431 0.68700004 47 45 25 255
-0.013084933 -0.24514151 0.68800002 53 52 30 255
-0.011208132 -0.24514227 0.68800002 53 52 28 255
-0.0093177501 -0.24478659 0.68700004 49 48 26 255
-0.0074436464 -0.2447871 0.68700004 45 43 23 255
-0.0055695325 -0.24478753 0.68700004 39 37 17 255
-0.0037007895 -0.24514413 0.68800002 35 33 15 255
-0.001823934 -0.24514431 0.68800002 29 27 9 255
5.2693344e-05 -0.24407545 0.68500006 32 30 12 255
0.0018708789 -0.2376617 0.66700006 35 35 17 255
0.0036185186 -0.23302943 0.65400004 50 50 32 255
0.0053034867 -0.22875339 0.64200002 49 47 27 255
0.0069998978 -0.22697145 0.63700002 45 43 23 255
0.0086690178 -0.22518937 0.63200003 43 42 18 255
0.010360181 -0.22447617 0.63000005 45 44 20 255
0.012021245 -0.22340652 0.62700003 42 41 19 255
0.013709728 -0.22304943 0.62600005 43 41 21 255
0.015392733 -0.22269219 0.625 47 45 27 255
0.017097615 -0.22269116 0.625 44 44 26 255
0.01874231 -0.22197747 0.62300003 40 40 22 255
0.020441687 -0.22197627 0.62300003 42 42 24 255
0.022105496 -0.22161865 0.62200004 45 43 25 255
0.023840355 -0.22197354 0.62300003 42 41 19 255
0.02545765 -0.22125943 0.62100005 49 46 25 255
0.026932836 -0.21947634 0.61600006 47 46 24 255
0.028380705 -0.21769318 0.611 55 54 32 255
0.029801264 -0.21590997 0.60600001 49 49 29 255
0.031350225 -0.21519558 0.60400003 56 56 38 255
0.03288823 -0.21448107 0.60200006 49 49 31 255
0.034415286 -0.2137665 0.60000002 48 46 28 255
0.035991464 -0.21340811 0.59900004 45 43 25 255
0.037624963 -0.21340594 0.59900004 48 46 28 255
0.039258413 -0.21340366 0.59900004 48 46 26 255
0.040755268 -0.21268876 0.597 48 47 25 255
0.042312171 -0.2123301 0.59600002 55 53 33 255
0.043863557 -0.21197133 0.59500003 57 55 35 255
0.045485888 -0.21196875 0.59500003 47 45 25 255
0.047028985 -0.21160986 0.59400004 48 47 25 255
0.048648465 -0.21160713 0.59400004 47 46 22 255
0.050098643 -0.21089184 0.59200001 47 46 22 255
0.051712554 -0.21088897 0.59200001 45 44 22 255
0.053236332 -0.2105298 0.59100002 42 41 19 255
0.054940198 -0.21088304 0.59200001 42 40 20 255
0.056458395 -0.21052375 0.59100002 48 46 26 255
0.058069337 -0.21052064 0.59100002 48 45 24 255
0.059680212 -0.21051745 0.59100002 55 50 29 255
0.061291017 -0.21051423 0.59100002 48 43 22 255
0.062795334 -0.21015474 0.59000003 45 42 21 255
0.064403281 -0.21015142 0.59000003 43 40 20 255
0.065899283 -0.20979184 0.58900005 44 42 24 255
0.067504376 -0.20978841 0.58900005 44 41 25 255
0.069109395 -0.20978495 0.58900005 41 37 21 255
0.071074523 -0.21084991 0.59200001 48 42 25 255
0.072810367 -0.2112025 0.59300005 46 40 23 255
0.074551597 -0.21155503 0.59400004 46 39 19 255
0.076041743 -0.21119525 0.59300005 48 41 21 255
0.077788293 -0.2115477 0.59400004 47 40 19 255
0.079540215 -0.21190012 0.59500003 51 44 23 255
0.081161104 -0.21189635 0.59500003 51 44 23 255
0.082921065 -0.2122487 0.59600002 52 45 24 255
0.084686413 -0.21260101 0.597 59 50 27 255
0.086890876 -0.21402164 0.60100001 59 51 26 255
0.08896976 -0.21508609 0.60400003 52 43 20 255
0.090764873 -0.21543829 0.60500002 49 42 19 255
0.092565373 -0.21579048 0.60600001 49 42 19 255
0.094371244 -0.21614264 0.60700005 46 39 18 255
0.096340723 -0.21685088 0.60900003 52 45 24 255
0.09816011 -0.21720302 0.61000001 51 44 23 255
0.10031216 -0.21826729 0.61300004 48 41 18 255
0.1024805 -0.21933153 0.61600006 54 50 26 255
0.1051724 -0.22146392 0.62200004 66 65 43 255
0.10841233 -0.22466435 0.63100004 83 81 61 255
0.11327204 -0.23106907 0.64900005 83 81 61 255
-0.21274742 -0.28008479 0.78100002 107 114 102 255
-0.20792229 -0.2764982 0.77100003 130 133 121 255
-0.20502049 -0.27542219 0.76800001 113 116 104 255
-0.20213529 -0.27434647 0.76500005 104 105 93 255
-0.19900505 -0.27291235 0.76100004 106 104 93 255
-0.19537923 -0.27076122 0.75500005 105 104 90 255
-0.1925544 -0.26968613 0.75200003 95 94 78 255
-0.18999939 -0.26896989 0.75000006 103 103 85 255
-0.18770599 -0.2686125 0.74900001 93 93 75 255
-0.18442667 -0.26682076 0.74400002 129 131 114 255
-0.18141982 -0.26538786 0.74000001 136 138 121 255
-0.17843486 -0.26395512 0.73600006 126 129 117 255
-0.17595123 -0.2632398 0.73400003 117 119 109 255
-0.17324159 -0.26216599 0.73100001 158 161 149 255
-0.17031406 -0.26073372 0.72700006 159 162 150 255
-0.16740838 -0.25930154 0.72300005 163 166 154 255
-0.1640669 -0.25715217 0.71700001 104 108 91 255
-0.16143647 -0.25607896 0.71400005 83 85 67 255
-0.15859902 -0.25464711 0.71000004 85 87 69 255
-0.15644534 -0.25429136 0.70900005 89 91 73 255
-0.15407923 -0.25357708 0.70700002 82 81 65 255
-0.15215446 -0.25358021 0.70700002 76 75 59 255
-0.15022968 -0.25358343 0.70700002 71 68 52 255
-0.14809518 -0.25322816 0.70600003 67 64 48 255
-0.14617315 -0.25323159 0.70600003 62 59 43 255
-0.14384249 -0.25251779 0.70400006 58 56 38 255
-0.14212751 -0.25288013 0.70500004 64 62 44 255
-0.14000931 -0.25252512 0.70400006 67 65 45 255
-0.13809273 -0.25252894 0.70400006 64 63 41 255
-0.13617609 -0.25253281 0.70400006 60 58 38 255
-0.13445017 -0.25289544 0.70500004 54 52 32 255
-0.13234279 -0.25254074 0.70400006 57 55 35 255
-0.13024081 -0.25218606 0.70300001 52 50 30 255
-0.12796172 -0.25147271 0.70100003 53 53 35 255
-0.12587331 -0.25111812 0.70000005 49 49 31 255
-0.12414449 -0.25148103 0.70100003 47 47 29 255
-0.12223578 -0.25148526 0.70100003 49 47 29 255
-0.12067034 -0.25220701 0.70300001 41 39 21 255
-0.11841827 -0.25149381 0.70100003 45 43 25 255
-0.11634323 -0.25113937 0.70000005 44 41 21 255
-0.1139466 -0.25006735 0.69700003 50 47 27 255
-0.11204853 -0.25007167 0.69700003 51 50 28 255
-0.1101504 -0.25007603 0.69700003 58 57 35 255
-0.10825222 -0.25008038 0.69700003 67 66 42 255
-0.10620139 -0.24972591 0.69600004 76 75 51 255
-0.10400605 -0.24901266 0.69400001 77 74 53 255
-0.1019687 -0.24865817 0.69300002 61 58 37 255
-0.099792309 -0.24794482 0.69100004 53 50 30 255
-0.097626746 -0.24723147 0.68900001 49 46 25 255
-0.095471986 -0.24651805 0.68700004 39 38 16 255
-0.093600564 -0.24652231 0.68700004 42 41 19 255
-0.09172906 -0.24652651 0.68700004 46 45 21 255
-0.089726686 -0.24617182 0.68600005 46 46 20 255
-0.087473541 -0.24509937 0.68300003 47 45 21 255
-0.085487366 -0.24474461 0.68200004 68 66 42 255
-0.083506569 -0.2443898 0.68100005 75 71 47 255
-0.081651039 -0.2443938 0.68100005 65 60 39 255
-0.079912603 -0.24475662 0.68200004 46 43 23 255
-0.078054197 -0.24476053 0.68200004 49 46 26 255
-0.076307438 -0.2451233 0.68300003 38 36 18 255
-0.074337177 -0.24476823 0.68200004 38 36 18 255
-0.072584815 -0.2451309 0.68300003 37 35 15 255
-0.070619844 -0.2447757 0.68200004 39 37 17 255
-0.068761058 -0.24477932 0.68200004 36 34 14 255
-0.066804126 -0.24442397 0.68100005 37 35 15 255
-0.064757183 -0.24370962 0.67900002 39 37 17 255
-0.06290637 -0.24371305 0.67900002 35 33 13 255
-0.061145402 -0.24407531 0.68000001 36 34 14 255
-0.059378922 -0.24443756 0.68100005 37 34 14 255
-0.057522453 -0.24444078 0.68100005 40 37 17 255
-0.055584162 -0.24408492 0.68000001 39 37 17 255
-0.053888321 -0.2448059 0.68200004 37 35 15 255
