ply
format ascii 1.0
comment PCL generated
element vertex 966
property float x
property float y
property float z
property uchar red
property uchar green
property uchar blue
property uchar alpha
element camera 0
property float view_px
property float view_py
property float view_pz
property float x_axisx
property float x_axisy
property float x_axisz
property float y_axisx
property float y_axisy
property float y_axisz
property float z_axisx
property float z_axisy
property float z_axisz
property float focal
property float scalex
property float scaley
property float centerx
property float centery
property int viewportx
property int viewporty
property float k1
property float k2
end_header
-0.0077677425 -0.25935659 0.71700001 56 56 28 255
-0.0057958169 -0.25863352 0.71500003 42 42 16 255
-0.0038455513 -0.25863385 0.71500003 45 45 19 255
-0.0018952794 -0.258634 0.71500003 44 43 19 255
5.5071218e-05 -0.2589958 0.71600002 40 40 14 255
0.0020052681 -0.258634 0.71500003 42 40 16 255
0.0039721359 -0.25971901 0.71800005 44 42 18 255
0.0059305844 -0.25971869 0.71800005 39 37 13 255
0.0079110004 -0.26044172 0.72000003 46 44 20 255
0.0098886006 -0.26080292 0.72100002 48 46 22 255
0.011871642 -0.26116398 0.72200006 43 40 19 255
0.013860123 -0.26152495 0.72300005 44 41 20 255
0.015897837 -0.26260921 0.72600001 41 38 17 255
0.017951893 -0.26369336 0.72900003 41 38 17 255
0.020022292 -0.26477739 0.73200005 44 41 20 255
0.022048868 -0.26513785 0.73300004 44 41 21 255
0.024179293 -0.26658338 0.73700005 40 36 19 255
0.026260432 -0.26730528 0.73900002 43 38 18 255
0.028352449 -0.2680271 0.74100006 43 38 17 255
0.030414348 -0.26838711 0.74200004 50 45 25 255
0.032437943 -0.26838523 0.74200004 57 52 31 255
0.034507938 -0.26874501 0.74300003 58 53 32 255
0.036632519 -0.26946631 0.74500006 48 45 24 255
0.038716067 -0.26982585 0.74600005 41 38 18 255
0.040750388 -0.26982355 0.74600005 39 36 16 255
0.042842008 -0.27018285 0.74700004 39 35 18 255
0.045059185 -0.27126539 0.75000006 40 36 19 255
0.047292668 -0.27234784 0.75300002 38 36 18 255
0.049411397 -0.27270678 0.75400001 39 37 19 255
0.051398989 -0.27234226 0.75300002 38 36 18 255
0.053594038 -0.27306268 0.75500005 38 36 18 255
0.055799913 -0.273783 0.75700003 40 38 20 255
0.058016639 -0.27450317 0.75900006 40 38 20 255
0.060165033 -0.27486163 0.76000005 34 32 14 255
0.062236916 -0.2748583 0.76000005 37 35 17 255
0.064224117 -0.27449322 0.75900006 46 43 22 255
0.066380478 -0.27485135 0.76000005 49 47 23 255
0.06845215 -0.27484778 0.76000005 63 61 36 255
0.070616536 -0.27520573 0.76100004 65 63 38 255
0.072595268 -0.27484038 0.76000005 60 59 35 255
0.07476496 -0.27519822 0.76100004 41 40 18 255
0.076738082 -0.27483267 0.76000005 45 42 22 255
0.07891307 -0.27519035 0.76100004 37 35 17 255
0.081093423 -0.27554795 0.76200002 36 34 16 255
0.08349745 -0.27662864 0.76500005 34 32 14 255
0.086029619 -0.2780709 0.76900005 33 31 13 255
0.088698097 -0.27987465 0.77400005 35 33 15 255
0.09162838 -0.28240141 0.78100002 29 26 10 255
0.094836831 -0.28565127 0.79000002 29 26 10 255
0.097971469 -0.28853938 0.79800004 26 25 9 255
0.10077313 -0.29034263 0.80300003 23 22 8 255
0.10308908 -0.29069954 0.80400002 21 22 10 255
0.10488661 -0.28961018 0.80100006 24 22 11 255
0.10573203 -0.28598988 0.79100001 21 20 6 255
0.10652289 -0.2823697 0.78100002 31 30 16 255
0.10781566 -0.2801958 0.77500004 29 28 12 255
0.10935933 -0.27874503 0.77100003 34 31 15 255
0.11088115 -0.27729425 0.76700002 34 31 15 255
0.11252839 -0.27620506 0.76400006 37 35 17 255
0.11430921 -0.27547741 0.76200002 38 36 18 255
0.11638456 -0.27547282 0.76200002 35 33 15 255
0.11814892 -0.27474523 0.76000005 36 34 16 255
0.11990231 -0.27401763 0.75800002 37 35 17 255
0.12148386 -0.27292866 0.75500005 39 37 19 255
0.12337625 -0.27256262 0.75400001 42 40 22 255
0.12559585 -0.27291965 0.75500005 34 32 14 255
0.12748267 -0.27255365 0.75400001 39 38 16 255
0.12953581 -0.27254924 0.75400001 41 40 18 255
0.13123985 -0.27182192 0.75200003 40 39 17 255
0.1331102 -0.27145612 0.75100005 38 37 15 255
0.13479511 -0.27072895 0.74900001 34 33 11 255
0.13683443 -0.27072468 0.74900001 36 35 13 255
0.13868833 -0.2703591 0.74800003 41 40 18 255
0.14053676 -0.26999357 0.74700004 40 39 17 255
0.14257056 -0.26998952 0.74700004 38 36 16 255
0.14460434 -0.26998556 0.74700004 38 36 16 255
0.1466381 -0.26998168 0.74700004 36 34 14 255
0.14867184 -0.2699779 0.74700004 37 35 15 255
0.15070558 -0.26997414 0.74700004 36 34 14 255
0.15273933 -0.26997054 0.74700004 34 32 12 255
0.15477306 -0.26996699 0.74700004 35 33 15 255
0.15659688 -0.26960221 0.74600005 35 33 15 255
0.15884055 -0.26996028 0.74700004 36 34 16 255
0.160659 -0.26959571 0.74600005 35 33 15 255
0.16269007 -0.26959264 0.74600005 38 36 18 255
0.16472119 -0.26958969 0.74600005 34 34 16 255
0.16697587 -0.26994827 0.74700004 34 34 16 255
0.16900977 -0.26994559 0.74700004 35 33 15 255
0.17058583 -0.26922035 0.74500006 35 33 15 255
0.17122422 -0.26704979 0.73900002 33 31 13 255
0.17206442 -0.26524079 0.73400003 37 35 17 255
0.17358892 -0.26451606 0.73200005 38 36 18 255
0.17558233 -0.26451424 0.73200005 34 32 14 255
0.17733325 -0.26415122 0.73100001 39 37 19 255
0.17981474 -0.26487243 0.73300004 38 36 16 255
0.18230724 -0.26559386 0.73500001 48 46 26 255
0.18606457 -0.2681222 0.74200004 63 61 41 255
0.19112755 -0.27245748 0.75400001 69 67 47 255
0.19574365 -0.27607027 0.76400006 70 70 50 255
0.20015548 -0.27932191 0.77300006 69 71 53 255
0.20566308 -0.28401914 0.78600001 63 67 49 255
-0.29901657 -0.28543505 0.78300005 144 149 138 255
-0.29117343 -0.2799482 0.76800001 57 59 42 255
-0.28379023 -0.27482718 0.75400001 66 64 46 255
-0.27835312 -0.27152982 0.74500006 70 69 47 255
-0.27556252 -0.27078456 0.74300003 77 75 55 255
-0.27351999 -0.27076882 0.74300003 79 77 59 255
-0.27111286 -0.2703892 0.74200004 91 88 72 255
-0.26834941 -0.26964578 0.74000001 101 100 86 255
-0.26667735 -0.26999614 0.74100006 110 109 95 255
-0.26571479 -0.2710757 0.74400002 116 115 101 255
-0.26544535 -0.27288434 0.74900001 132 130 112 255
-0.26479748 -0.27432901 0.75300002 141 139 121 255
-0.26447728 -0.27613834 0.75800002 126 124 106 255
-0.26309183 -0.27685517 0.76000005 136 134 116 255
-0.26169601 -0.27757245 0.76200002 120 121 99 255
-0.25926784 -0.27719742 0.76100004 112 113 91 255
-0.25684571 -0.27682289 0.76000005 112 113 89 255
-0.2551001 -0.2771773 0.76100004 103 104 80 255
-0.25401458 -0.27826065 0.76400006 93 94 72 255
-0.25291312 -0.27934429 0.76700002 88 88 68 255
-0.25016078 -0.27860737 0.76500005 71 71 51 255
-0.24839272 -0.27896351 0.76600003 67 65 45 255
-0.24661966 -0.27932003 0.76700002 54 52 32 255
-0.24484164 -0.27967697 0.76800001 55 53 29 255
-0.24274255 -0.27967015 0.76800001 61 59 35 255
-0.24033061 -0.27929959 0.76700002 61 60 38 255
-0.23854572 -0.27965769 0.76800001 61 60 38 255
-0.23644792 -0.27965209 0.76800001 51 50 28 255
-0.23496085 -0.28037509 0.77000004 50 49 27 255
-0.2334632 -0.28109843 0.77200001 45 43 19 255
-0.23165534 -0.28145799 0.77300006 37 36 14 255
-0.22924848 -0.28108966 0.77200001 39 38 16 255
-0.22743583 -0.28144994 0.77300006 38 36 16 255
-0.2253266 -0.28144643 0.77300006 36 34 14 255
-0.22379521 -0.28217146 0.77500004 41 39 21 255
-0.2216811 -0.28216857 0.77500004 39 37 19 255
-0.21985061 -0.28253007 0.77600002 40 38 20 255
-0.21773435 -0.28252786 0.77600002 37 35 17 255
-0.21561839 -0.28252593 0.77600002 41 39 21 255
-0.21432807 -0.28361651 0.77900004 39 37 19 255
-0.21302159 -0.28470737 0.78200006 37 35 17 255
-0.21115966 -0.28507036 0.78300005 33 31 13 255
-0.20929247 -0.28543359 0.78400004 33 31 13 255
-0.20768425 -0.28616115 0.78600001 32 30 12 255
-0.20606534 -0.28688902 0.78800005 32 31 15 255
-0.20495328 -0.28834525 0.79200006 28 26 15 255
-0.2038196 -0.28980175 0.79600006 29 27 16 255
-0.20317093 -0.29198658 0.80200005 20 18 7 255
-0.20123668 -0.29235131 0.80300003 20 18 7 255
-0.19929715 -0.29271629 0.80400002 18 16 6 255
-0.19710712 -0.2927174 0.80400002 25 23 12 255
-0.19491723 -0.29271871 0.80400002 28 25 11 255
-0.19248776 -0.29235613 0.80300003 28 25 9 255
-0.19006382 -0.29199377 0.80200005 31 28 12 255
-0.18717691 -0.29090345 0.79900002 31 29 11 255
-0.18453796 -0.29017732 0.79700005 37 35 17 255
-0.18168114 -0.28908727 0.79400003 39 36 16 255
-0.17884076 -0.28799739 0.79100001 41 38 17 255
-0.17601678 -0.2869077 0.78800005 42 39 18 255
-0.17298852 -0.28545398 0.78400004 44 41 21 255
-0.17020003 -0.28436449 0.78100002 44 41 21 255
-0.16764313 -0.28363925 0.77900004 42 40 20 255
-0.16530964 -0.28327823 0.77800006 42 41 19 255
-0.16277181 -0.28255317 0.77600002 47 46 24 255
-0.15920979 -0.28000766 0.76900005 49 48 26 255
-0.15507291 -0.27636981 0.75900006 55 54 32 255
-0.15099052 -0.27273196 0.74900001 63 62 38 255
-0.14755917 -0.27018651 0.74200004 54 54 28 255
-0.14475435 -0.26873356 0.73800004 54 54 26 255
-0.14235818 -0.26800889 0.73600006 52 52 24 255
-0.13959149 -0.26655599 0.73200005 48 48 22 255
-0.13759845 -0.26655975 0.73200005 45 44 20 255
-0.13542013 -0.26619938 0.73100001 44 43 21 255
-0.1336123 -0.26656744 0.73200005 44 42 22 255
-0.13125959 -0.26584303 0.73000002 43 41 21 255
-0.12980315 -0.26693955 0.73300004 43 41 21 255
-0.12763287 -0.26657942 0.73200005 42 40 20 255
-0.12581129 -0.26694766 0.73300004 40 39 17 255
-0.12364639 -0.26658759 0.73200005 34 33 11 255
-0.12181929 -0.26695594 0.73300004 39 36 15 255
-0.11965972 -0.2665959 0.73200005 50 48 24 255
-0.11750557 -0.26623592 0.73100001 45 42 21 255
-0.1153568 -0.26587591 0.73000002 44 43 21 255
-0.11336871 -0.26588014 0.73000002 47 45 25 255
-0.11138059 -0.26588437 0.73000002 47 45 27 255
-0.10924253 -0.26552439 0.72900003 40 38 20 255
-0.10710987 -0.26516438 0.72800004 43 41 21 255
-0.10498259 -0.26480439 0.72700006 46 43 22 255
-0.10300238 -0.2648086 0.72700006 46 44 20 255
-0.10116103 -0.26517704 0.72800004 42 40 16 255
-0.099177971 -0.26518124 0.72800004 40 39 17 255
-0.097061306 -0.26482114 0.72700006 46 45 23 255
-0.094819248 -0.26409677 0.72500002 45 44 22 255
-0.092844136 -0.26410085 0.72500002 45 43 23 255
-0.090743594 -0.26374063 0.72400004 44 44 24 255
-0.088771068 -0.26374471 0.72400004 40 40 20 255
-0.086798467 -0.26374871 0.72400004 45 45 25 255
-0.084708616 -0.2633884 0.72300005 49 49 29 255
-0.082624152 -0.263028 0.72200006 62 62 42 255
-0.080545053 -0.26266754 0.72100002 65 63 45 255
-0.07847134 -0.26230705 0.72000003 59 59 41 255
-0.076509267 -0.2623108 0.72000003 56 54 36 255
-0.074547119 -0.26231447 0.72000003 48 46 28 255
-0.072685719 -0.26268247 0.72100002 55 53 35 255
-0.070622623 -0.26232171 0.72000003 57 55 37 255
-0.068660259 -0.2623252 0.72000003 54 52 34 255
-0.066697828 -0.26232865 0.72000003 49 47 29 255
-0.064825244 -0.26269639 0.72100002 58 56 38 255
-0.06285996 -0.26269969 0.72100002 53 51 31 255
-0.060725685 -0.26197422 0.71900004 50 48 30 255
-0.058765713 -0.26197734 0.71900004 48 46 28 255
-0.056805678 -0.26198041 0.71900004 46 44 26 255
-0.054921858 -0.26234779 0.72000003 50 48 30 255
-0.052958973 -0.26235068 0.72000003 83 81 63 255
-0.05099602 -0.26235348 0.72000003 79 77 57 255
-0.04903302 -0.26235622 0.72000003 90 91 57 255
-0.047135327 -0.26272324 0.72100002 93 93 65 255
-0.045169488 -0.2627258 0.72100002 102 101 77 255
-0.043263514 -0.26309264 0.72200006 104 103 81 255
-0.041180443 -0.26236621 0.72000003 75 73 53 255
-0.039108235 -0.26163965 0.71800005 76 74 56 255
-0.037150368 -0.2616418 0.71800005 64 62 44 255
-0.03524147 -0.26200825 0.71900004 68 64 47 255
-0.033280782 -0.26201022 0.71900004 59 55 38 255
-0.031320058 -0.26201203 0.71900004 59 56 36 255
-0.029277625 -0.26128492 0.71700001 66 65 43 255
-0.027360387 -0.26165101 0.71800005 59 57 37 255
-0.025437655 -0.26201692 0.71900004 52 50 32 255
-0.023444133 -0.26165393 0.71800005 54 52 34 255
-0.021456035 -0.26129082 0.71700001 71 69 51 255
-0.019500561 -0.26129198 0.71700001 67 65 45 255
-0.017569534 -0.26165751 0.71800005 76 77 55 255
-0.015611285 -0.26165846 0.71800005 78 77 55 255
-0.013653018 -0.26165932 0.71800005 85 84 62 255
-0.011678442 -0.26129562 0.71700001 84 83 61 255
-0.009722868 -0.26129624 0.71700001 70 69 47 255
-0.0077564474 -0.26093236 0.71600002 47 46 24 255
-0.0057954723 -0.26056829 0.71500003 43 42 18 255
-0.0038453222 -0.26056859 0.71500003 44 43 19 255
-0.0018925162 -0.26020434 0.71400005 43 41 17 255
5.4914119e-05 -0.26020437 0.71400005 47 45 21 255
0.0020023442 -0.26020432 0.71400005 43 40 19 255
0.0039608357 -0.26093301 0.71600002 44 39 18 255
0.0059219724 -0.26129714 0.71700001 47 42 21 255
0.0078885565 -0.26166117 0.71800005 47 42 22 255
0.0098605836 -0.26202509 0.71900004 47 42 21 255
0.011854496 -0.26275331 0.72100002 44 39 18 255
0.013859303 -0.26348144 0.72300005 46 41 20 255
0.015875001 -0.26420942 0.72500002 45 40 19 255
0.017926211 -0.26530167 0.72800004 46 41 20 255
0.01996641 -0.26602945 0.73000002 51 46 26 255
0.022017494 -0.26675704 0.73200005 43 39 22 255
0.024112264 -0.267849 0.73500001 45 41 24 255
0.026258899 -0.2693052 0.73900002 38 35 15 255
0.028312536 -0.26966804 0.74000001 45 40 20 255
0.030412583 -0.27039522 0.74200004 45 40 20 255
0.032436069 -0.27039343 0.74200004 57 52 31 255
0.034552392 -0.27112031 0.74400002 69 62 39 255
0.036630418 -0.27148271 0.74500006 61 56 35 255
0.038765747 -0.27220938 0.74700004 51 46 26 255
0.040802691 -0.27220711 0.74700004 46 41 21 255
0.042782236 -0.27184039 0.74600005 39 36 16 255
0.044996575 -0.27293113 0.74900001 45 41 24 255
0.047227219 -0.27402174 0.75200003 36 34 16 255
0.049474176 -0.27511224 0.75500005 40 38 20 255
0.051396146 -0.27438071 0.75300002 36 34 16 255
0.053591087 -0.27510664 0.75500005 34 32 14 255
0.055870574 -0.27619681 0.75800002 35 33 15 255
0.058089923 -0.27692246 0.76000005 39 37 19 255
0.060082629 -0.27655497 0.75900006 49 48 26 255
0.06223359 -0.27691609 0.76000005 53 52 30 255
0.064389929 -0.27727711 0.76100004 56 54 30 255
0.066464327 -0.27727368 0.76100004 54 52 28 255
0.068448573 -0.27690586 0.76000005 61 59 35 255
0.070612885 -0.27726662 0.76100004 51 50 26 255
0.07268706 -0.27726299 0.76100004 42 41 19 255
0.07476116 -0.27725926 0.76100004 38 37 15 255
0.076734215 -0.27689114 0.76000005 37 34 14 255
0.078805447 -0.27688733 0.76000005 36 34 16 255
0.080983005 -0.2772477 0.76100004 36 34 16 255
0.083493374 -0.27870101 0.76500005 40 36 19 255
0.085913584 -0.27978987 0.76800001 39 35 18 255
0.088464677 -0.281243 0.77200001 37 33 16 255
0.091272116 -0.28342462 0.77800006 34 30 13 255
0.094352253 -0.28633469 0.78600001 31 29 11 255
0.097721443 -0.28997323 0.79600006 30 28 10 255
0.10064308 -0.29215446 0.80200005 27 24 8 255
0.10308445 -0.29287848 0.80400002 24 23 9 255
0.10488197 -0.2917811 0.80100006 21 20 6 255
0.10572743 -0.28813389 0.79100001 20 19 5 255
0.10638192 -0.28412247 0.78000003 35 32 16 255
0.10767199 -0.28193244 0.77400005 31 29 11 255
0.10921295 -0.280471 0.77000004 33 31 13 255
0.11087661 -0.27937379 0.76700002 39 37 19 255
0.11252387 -0.27827665 0.76400006 34 32 14 255
0.11430471 -0.27754372 0.76200002 35 33 15 255
0.11607459 -0.27681085 0.76000005 37 35 17 255
0.11783351 -0.27607799 0.75800002 36 34 16 255
0.11958151 -0.27534521 0.75600004 37 35 17 255
0.12147943 -0.27497664 0.75500005 42 40 22 255
0.12320822 -0.27424392 0.75300002 40 38 20 255
0.12542512 -0.27460378 0.75400001 38 36 18 255
0.12730926 -0.27423534 0.75300002 39 38 16 255
0.1297033 -0.2749595 0.75500005 37 36 14 255
0.13123558 -0.27386272 0.75200003 40 39 17 255
0.13310598 -0.27349439 0.75100005 40 39 17 255
0.13479094 -0.27276197 0.74900001 35 34 12 255
0.13664766 -0.27239382 0.74800003 37 36 14 255
0.13849889 -0.27202567 0.74700004 37 35 15 255
0.14053279 -0.2720218 0.74700004 43 41 21 255
0.14275751 -0.27238214 0.74800003 41 39 19 255
0.14498767 -0.27274254 0.74900001 40 38 18 255
0.14683066 -0.27237472 0.74800003 38 36 18 255
0.14866818 -0.27200699 0.74700004 36 34 16 255
0.1505003 -0.27163941 0.74600005 35 33 15 255
0.1525314 -0.27163601 0.74600005 33 31 13 255
0.15456252 -0.27163273 0.74600005 33 31 13 255
0.15638374 -0.27126542 0.74500006 36 34 16 255
0.15862481 -0.2716265 0.74600005 31 29 9 255
0.16044064 -0.27125946 0.74500006 35 33 13 255
0.16246912 -0.27125663 0.74500006 33 31 13 255
0.16449764 -0.27125397 0.74500006 36 36 18 255
0.1665262 -0.27125141 0.74500006 35 35 17 255
0.16832858 -0.27088493 0.74400002 32 32 14 255
0.16943866 -0.26942635 0.74000001 33 31 13 255
0.1702953 -0.26760378 0.73500001 36 34 16 255
0.17159364 -0.26650965 0.73200005 39 37 19 255
0.17334999 -0.26614386 0.73100001 42 40 22 255
0.17534085 -0.26614231 0.73100001 42 38 21 255
0.17708923 -0.26577687 0.73000002 43 40 20 255
0.17932287 -0.26613975 0.73100001 40 39 17 255
0.18255423 -0.26795915 0.73600006 49 46 25 255
0.18656524 -0.27087092 0.74400002 58 57 35 255
0.1913804 -0.2748751 0.75500005 65 63 43 255
0.19548701 -0.2777873 0.76300001 68 66 48 255
0.20015527 -0.28142789 0.77300006 65 67 49 255
0.20592478 -0.28652495 0.78700006 60 64 47 255
-0.2998001 -0.28832486 0.78500003 157 159 149 255
-0.29157135 -0.28242883 0.76900005 54 57 43 255
-0.2841844 -0.27726865 0.75500005 66 64 46 255
-0.27911738 -0.27431312 0.74700004 65 63 45 255
-0.27557886 -0.27282733 0.74300003 77 75 55 255
-0.27316761 -0.27244383 0.74200004 85 83 65 255
-0.27112803 -0.2724281 0.74200004 91 89 71 255
-0.26872665 -0.27204582 0.74100006 94 91 75 255
-0.26669142 -0.27203122 0.74100006 100 98 80 255
-0.26537123 -0.27275136 0.74300003 112 110 92 255
-0.26474968 -0.27420613 0.74700004 118 116 98 255
-0.26340348 -0.27492714 0.74900001 123 121 103 255
-0.26309383 -0.27674973 0.75400001 119 117 99 255
-0.26241121 -0.27820563 0.75800002 131 129 111 255
-0.26136386 -0.27929494 0.76100004 132 130 112 255
-0.2592786 -0.27928367 0.76100004 123 121 103 255
-0.25719398 -0.27927288 0.76100004 103 105 87 255
-0.25578043 -0.27999651 0.76300001 94 96 78 255
-0.25435644 -0.28072053 0.76500005 92 92 74 255
-0.25292209 -0.28144497 0.76700002 82 84 66 255
-0.25016931 -0.28070211 0.76500005 71 71 53 255
-0.24840081 -0.28106049 0.76600003 61 59 41 255
-0.24662733 -0.28141931 0.76700002 62 60 42 255
-0.24484891 -0.28177848 0.76800001 67 66 44 255
-0.24274939 -0.28177124 0.76800001 60 57 36 255
-0.24065037 -0.28176436 0.76800001 64 61 40 255
-0.23886238 -0.28212479 0.76900005 63 60 39 255
-0.2367615 -0.28211871 0.76900005 58 56 32 255
-0.23496616 -0.28247985 0.77000004 50 48 24 255
-0.23346812 -0.28320822 0.77200001 42 41 17 255
-0.23136023 -0.28320321 0.77200001 40 39 17 255
-0.22954966 -0.28356549 0.77300006 37 36 14 255
-0.2274397 -0.28356123 0.77300006 39 37 19 255
-0.22562166 -0.28392416 0.77400005 40 38 20 255
-0.22350967 -0.28392059 0.77400005 36 34 16 255
-0.22139798 -0.28391731 0.77400005 37 35 17 255
-0.21985321 -0.284648 0.77600002 40 38 20 255
-0.21773665 -0.28464535 0.77600002 40 38 20 255
-0.21617611 -0.28537667 0.77800006 41 39 21 255
-0.2146049 -0.28610826 0.78000003 35 33 15 255
-0.21275058 -0.28647327 0.78100002 34 32 12 255
-0.21089113 -0.28683865 0.78200006 35 33 15 255
-0.20929334 -0.28757107 0.78400004 35 33 15 255
-0.20742066 -0.28793696 0.78500003 36 34 16 255
-0.2058042 -0.28866985 0.78700006 29 28 12 255
-0.20443583 -0.28976986 0.79000002 27 28 14 255
-0.20356339 -0.29160365 0.79500002 27 28 16 255
-0.20291722 -0.29380453 0.80100006 20 21 9 255
-0.20148668 -0.29490528 0.80400002 19 17 6 255
-0.20028783 -0.29637298 0.80800003 19 19 9 255
-0.19808671 -0.29637378 0.80800003 21 21 11 255
-0.19564328 -0.29600799 0.80700004 27 26 12 255
-0.19272602 -0.29490876 0.80400002 27 26 12 255
-0.19006218 -0.29417658 0.80200005 29 26 10 255
-0.18717508 -0.29307774 0.79900002 30 28 10 255
-0.18476748 -0.29271272 0.79800004 34 32 12 255
-0.18167898 -0.2912474 0.79400003 38 36 16 255
-0.17906454 -0.29051593 0.79200006 43 41 17 255
-0.17601432 -0.28905091 0.78800005 40 37 16 255
-0.17320655 -0.28795284 0.78500003 43 40 20 255
-0.17019728 -0.28648812 0.78100002 44 42 22 255
-0.16785546 -0.28612399 0.78000003 45 43 25 255
-0.16551909 -0.28575999 0.77900004 40 39 17 255
-0.16276869 -0.2846624 0.77600002 44 43 21 255
-0.15920655 -0.28209764 0.76900005 50 49 27 255
-0.15486531 -0.27806547 0.75800002 68 66 46 255
-0.15098718 -0.2747671 0.74900001 60 59 37 255
-0.14755575 -0.2722024 0.74200004 58 57 33 255
-0.14475089 -0.2707383 0.73800004 52 52 26 255
-0.14216121 -0.26964113 0.73500001 54 54 28 255
-0.13958788 -0.26854402 0.73200005 47 46 22 255
-0.13759477 -0.26854759 0.73200005 48 47 25 255
-0.13541639 -0.26818427 0.73100001 45 43 23 255
-0.13360851 -0.26855484 0.73200005 46 44 24 255
-0.13143553 -0.2681917 0.73100001 51 49 31 255
-0.12962215 -0.26856238 0.73200005 45 43 25 255
-0.12762892 -0.26856622 0.73200005 41 39 21 255
-0.12563564 -0.26857007 0.73200005 40 38 18 255
-0.12364235 -0.268574 0.73200005 40 38 18 255
-0.12181519 -0.26894489 0.73300004 42 39 18 255
-0.11965562 -0.26858199 0.73200005 46 41 20 255
-0.11766218 -0.26858601 0.73200005 41 38 17 255
-0.11535265 -0.26785618 0.73000002 44 41 21 255
-0.11336458 -0.26786026 0.73000002 41 39 21 255
-0.11122385 -0.26749736 0.72900003 48 46 28 255
-0.10923837 -0.26750147 0.72900003 45 43 25 255
-0.10710572 -0.26713857 0.72800004 47 45 25 255
-0.10497845 -0.2667757 0.72700006 41 40 18 255
-0.10299824 -0.26677978 0.72700006 47 45 21 255
-0.1011569 -0.26715076 0.72800004 44 42 18 255
-0.099310085 -0.26752183 0.72900003 45 43 19 255
-0.096923701 -0.26642486 0.72600001 48 45 24 255
-0.094815187 -0.26606193 0.72500002 48 47 25 255
-0.092583992 -0.26533192 0.72300005 38 36 16 255
-0.090614274 -0.26533589 0.72300005 44 43 21 255
-0.088644497 -0.26533979 0.72300005 46 45 23 255
-0.086794533 -0.26571065 0.72400004 49 49 29 255
-0.084587574 -0.26498049 0.72200006 48 48 28 255
-0.082505889 -0.26461726 0.72100002 51 49 29 255
-0.080429561 -0.26425397 0.72000003 54 52 32 255
-0.078467615 -0.26425767 0.72000003 54 53 37 255
-0.076399341 -0.26389429 0.71900004 55 53 35 255
-0.07443998 -0.2638979 0.71900004 44 42 24 255
-0.072379731 -0.26353437 0.71800005 53 51 33 255
-0.070422962 -0.26353782 0.71800005 57 55 37 255
-0.068466127 -0.26354125 0.71800005 49 47 29 255
-0.066601843 -0.26391163 0.71900004 52 50 32 255
-0.064642146 -0.26391491 0.71900004 46 44 26 255
-0.062682375 -0.26391813 0.71900004 46 44 26 255
-0.060638089 -0.26355419 0.71800005 53 51 33 255
-0.058680918 -0.26355723 0.71800005 52 50 32 255
-0.056802697 -0.26392731 0.71900004 48 46 28 255
-0.054842677 -0.2639302 0.71900004 47 44 28 255
-0.052809048 -0.26356593 0.71800005 58 56 38 255
-0.050993286 -0.26430282 0.72000003 73 71 51 255
-0.049030375 -0.2643055 0.72000003 75 75 49 255
-0.047132764 -0.26467514 0.72100002 91 91 65 255
-0.045167021 -0.26467764 0.72100002 91 91 65 255
-0.043201216 -0.26468 0.72100002 87 87 61 255
-0.041178167 -0.26431522 0.72000003 77 78 56 255
-0.039160531 -0.26395032 0.71900004 73 71 53 255
-0.037148293 -0.2635853 0.71800005 63 61 43 255
-0.035239492 -0.2639544 0.71900004 55 53 35 255
-0.033325195 -0.26432341 0.72000003 57 55 37 255
-0.031361848 -0.2643252 0.72000003 57 55 37 255
-0.029316802 -0.26359269 0.71800005 63 61 41 255
-0.02735883 -0.26359427 0.71800005 58 56 38 255
-0.025436204 -0.26396286 0.71900004 51 49 31 255
-0.023475444 -0.26396427 0.71900004 58 56 38 255
-0.021484727 -0.26359838 0.71800005 82 80 62 255
-0.019526638 -0.26359957 0.71800005 80 78 58 255
-0.017568523 -0.26360062 0.71800005 85 84 62 255
-0.015610385 -0.26360157 0.71800005 71 69 49 255
-0.013633214 -0.26323524 0.71700001 79 77 57 255
-0.011677766 -0.26323599 0.71700001 83 81 61 255
-0.0097223045 -0.26323661 0.71700001 54 52 32 255
-0.0077559971 -0.26286995 0.71600002 50 48 28 255
-0.0057951347 -0.26250321 0.71500003 44 43 21 255
-0.0038397207 -0.26213637 0.71400005 46 45 23 255
-0.0018924061 -0.26213652 0.71400005 48 46 22 255
5.4987835e-05 -0.26250371 0.71500003 43 41 17 255
0.0019994236 -0.26176938 0.71300006 44 39 18 255
0.0039550737 -0.26250347 0.71500003 43 39 15 255
0.0059133698 -0.26287034 0.71600002 46 42 18 255
0.0078880982 -0.26360422 0.71800005 43 38 17 255
0.0098462999 -0.26360372 0.71800005 49 44 23 255
0.01185381 -0.2647045 0.72100002 45 40 19 255
0.013858501 -0.26543802 0.72300005 52 45 24 255
0.015895978 -0.26653856 0.72600001 51 44 23 255
0.017925179 -0.26727188 0.72800004 46 41 20 255
0.019992612 -0.26837221 0.73100001 42 37 17 255
0.022016231 -0.26873812 0.73200005 45 39 22 255
0.024110883 -0.26983818 0.73500001 40 36 19 255
0.026221871 -0.27093819 0.73800004 45 41 24 255
0.028349187 -0.27203801 0.74100006 43 37 20 255
0.030451845 -0.27277058 0.74300003 38 32 15 255
0.032477945 -0.27276883 0.74300003 48 43 22 255
0.034550454 -0.27313408 0.74400002 64 57 36 255
0.036677536 -0.27386639 0.74600005 64 57 37 255
0.038815476 -0.27459848 0.74800003 57 52 32 255
0.040909667 -0.27496341 0.74900001 48 43 23 255
0.042951908 -0.27496108 0.74900001 43 40 20 255
0.045054179 -0.27532583 0.75000006 39 35 18 255
0.047350239 -0.27679172 0.75400001 41 39 21 255
0.049471494 -0.27715623 0.75500005 35 31 14 255
0.051529884 -0.27715355 0.75500005 37 33 16 255
0.053588215 -0.27715072 0.75500005 43 39 22 255
0.055793889 -0.27788201 0.75700003 39 35 18 255
0.058010425 -0.27861324 0.75900006 52 49 29 255
0.060158636 -0.27897722 0.76000005 54 51 30 255
0.062312227 -0.27934113 0.76100004 49 47 23 255
0.064471215 -0.27970496 0.76200002 48 45 24 255
0.066460907 -0.27933457 0.76100004 47 44 23 255
0.068445094 -0.2789641 0.76000005 42 39 18 255
0.070516542 -0.27896065 0.76000005 35 32 11 255
0.072683439 -0.27932414 0.76100004 33 31 11 255
0.074855693 -0.27968755 0.76200002 37 35 15 255
0.076831423 -0.27931687 0.76100004 37 35 15 255
0.078905307 -0.27931312 0.76100004 36 34 16 255
0.08108554 -0.27967638 0.76200002 36 34 16 255
0.083380274 -0.28040653 0.76400006 37 34 14 255
0.085797705 -0.28150371 0.76700002 44 41 21 255
0.088231407 -0.28260073 0.77000004 51 48 28 255
0.090916008 -0.28443176 0.77500004 46 43 23 255
0.093987882 -0.28736365 0.78300005 39 37 19 255
0.097348787 -0.29102942 0.79300004 34 32 14 255
0.10063866 -0.29432806 0.80200005 27 26 10 255
0.1032082 -0.29542467 0.80500007 24 23 9 255
0.10474654 -0.2935853 0.80000001 22 21 7 255
0.10545567 -0.28954417 0.78900003 24 23 9 255
0.10624114 -0.28587008 0.77900004 30 27 11 255
0.1076676 -0.28403094 0.77400005 32 30 12 255
0.10920856 -0.28255877 0.77000004 36 34 16 255
0.1110168 -0.2818206 0.76800001 37 35 17 255
0.11266679 -0.28071544 0.76500005 34 32 14 255
0.11430037 -0.27961034 0.76200002 32 30 12 255
0.11607028 -0.27887222 0.76000005 35 33 15 255
0.11782922 -0.27813408 0.75800002 34 32 14 255
0.1197354 -0.27776295 0.75700003 33 31 13 255
0.12163608 -0.27739188 0.75600004 40 38 20 255
0.12320401 -0.27628696 0.75300002 38 36 18 255
0.12525457 -0.27628285 0.75300002 42 40 20 255
0.12713605 -0.27591187 0.75200003 37 35 15 255
0.12935559 -0.27627474 0.75300002 40 39 17 255
0.13088252 -0.27517009 0.75000006 36 34 14 255
0.1327475 -0.27479923 0.74900001 38 37 15 255
0.13478699 -0.27479535 0.74900001 36 33 12 255
0.13664377 -0.27442467 0.74800003 35 34 12 255
0.13868049 -0.27442095 0.74800003 37 34 14 255
0.14052904 -0.27405038 0.74700004 38 36 16 255
0.14256299 -0.27404678 0.74700004 37 35 15 255
0.14459692 -0.27404326 0.74700004 35 33 15 255
0.14663085 -0.27403983 0.74700004 36 34 16 255
0.14866479 -0.2740365 0.74700004 36 34 16 255
0.15090044 -0.27440006 0.74800003 38 36 18 255
0.15293711 -0.27439693 0.74800003 36 34 16 255
0.1547666 -0.27402702 0.74700004 36 34 16 255
0.15659066 -0.27365726 0.74600005 34 32 14 255
0.1584093 -0.27328762 0.74500006 34 32 12 255
0.16043788 -0.27328494 0.74500006 38 36 16 255
0.16246651 -0.27328241 0.74500006 31 31 13 255
0.16449516 -0.27327996 0.74500006 28 30 12 255
0.16652387 -0.2732777 0.74500006 32 34 16 255
0.16764766 -0.27180833 0.74100006 34 36 18 255
0.16852078 -0.26997232 0.73600006 31 31 13 255
0.1695984 -0.26850331 0.73200005 34 32 14 255
0.17135754 -0.26813486 0.73100001 38 36 18 255
0.17334849 -0.2681334 0.73100001 38 36 18 255
0.17533955 -0.26813218 0.73100001 40 36 19 255
0.1770881 -0.26776427 0.73000002 40 37 17 255
0.17956725 -0.26849699 0.73200005 47 45 21 255
0.18304954 -0.27069709 0.73800004 59 57 33 255
0.18756773 -0.27436456 0.74800003 72 69 48 255
0.19163354 -0.27729866 0.75600004 68 66 46 255
0.19548689 -0.27986616 0.76300001 62 60 42 255
0.20015539 -0.28353432 0.77300006 59 61 43 255
0.20644847 -0.28940347 0.78900003 59 63 46 255
-0.30134827 -0.29196674 0.78900003 154 157 145 255
-0.2919699 -0.28491583 0.77000004 60 62 45 255
-0.28495568 -0.28008646 0.75700003 71 69 51 255
-0.27988231 -0.27710825 0.74900001 60 57 37 255
-0.27559575 -0.27487093 0.74300003 66 64 44 255
-0.2728157 -0.27411416 0.74100006 80 78 58 255
-0.27041292 -0.27372798 0.74000001 79 77 59 255
-0.26837909 -0.27371228 0.74000001 95 93 75 255
-0.26670602 -0.27406704 0.74100006 112 110 92 255
-0.2653853 -0.27479213 0.74300003 108 106 88 255
-0.26440883 -0.27588749 0.74600005 116 114 96 255
-0.26306492 -0.27661347 0.74800003 111 109 91 255
-0.26205969 -0.27770972 0.75100005 127 125 107 255
-0.26138484 -0.27917615 0.75500005 129 126 110 255
-0.26068872 -0.28064293 0.75900006 130 127 111 255
-0.25928992 -0.28137064 0.76100004 123 120 104 255
-0.25754276 -0.28172904 0.76200002 109 109 91 255
-0.25579074 -0.28208789 0.76300001 89 89 71 255
-0.25403386 -0.28244725 0.76400006 87 87 69 255
-0.25227207 -0.28280702 0.76500005 78 78 60 255
-0.24985129 -0.28242788 0.76400006 70 68 50 255
-0.24808508 -0.28278852 0.76500005 64 62 44 255
-0.24631391 -0.2831496 0.76600003 48 46 28 255
-0.2445378 -0.28351104 0.76700002 61 59 39 255
-0.24244061 -0.28350332 0.76700002 55 54 32 255
-0.24034393 -0.28349599 0.76700002 60 57 37 255
-0.23886889 -0.2842283 0.76900005 54 51 31 255
-0.23676759 -0.2842218 0.76900005 53 50 30 255
-0.23527703 -0.28495482 0.77100003 46 45 23 255
-0.23286866 -0.28457949 0.77000004 47 46 24 255
-0.23106553 -0.28494364 0.77100003 42 40 20 255
-0.22925733 -0.28530818 0.77200001 42 40 20 255
-0.22744401 -0.28567311 0.77300006 42 40 22 255
-0.22533411 -0.28566879 0.77300006 38 36 18 255
-0.22351328 -0.28603435 0.77400005 37 35 17 255
-0.22140127 -0.28603071 0.77400005 36 34 14 255
-0.2198562 -0.28676644 0.77600002 39 37 17 255
-0.21830052 -0.28750253 0.77800006 42 40 22 255
-0.21673422 -0.28823885 0.78000003 38 36 18 255
-0.21460697 -0.28823644 0.78000003 34 32 14 255
-0.21275236 -0.28860381 0.78100002 34 32 14 255
-0.21062294 -0.28860202 0.78100002 38 36 18 255
-0.20902762 -0.28933951 0.78300005 36 34 16 255
-0.20689315 -0.28933823 0.78300005 33 31 13 255
-0.20554341 -0.29044577 0.78600001 36 34 16 255
-0.20443627 -0.29192314 0.79000002 26 25 9 255
-0.20356362 -0.29377022 0.79500002 25 26 12 255
-0.20291719 -0.29598707 0.80100006 22 23 9 255
-0.20198761 -0.29783466 0.80600005 19 20 8 255
-0.20103098 -0.2996825 0.81100005 15 15 5 255
-0.1985763 -0.29931343 0.81000006 19 19 9 255
-0.19612721 -0.29894453 0.80900002 23 21 10 255
-0.1932043 -0.29783687 0.80600005 24 23 9 255
-0.19029781 -0.29672936 0.80300003 32 29 13 255
-0.18740781 -0.29562205 0.80000001 34 32 14 255
-0.18430272 -0.29414544 0.79600006 36 34 16 255
-0.18121949 -0.29266891 0.79200006 40 38 18 255
-0.17838421 -0.29156211 0.78900003 43 41 21 255
-0.17534201 -0.29008591 0.78500003 42 40 20 255
-0.17298357 -0.28971851 0.78400004 40 38 20 255
-0.16997689 -0.28824261 0.78000003 42 40 22 255
-0.16785283 -0.28824502 0.78000003 46 44 24 255
-0.16509141 -0.28713891 0.77700001 45 44 22 255
-0.16213658 -0.2856634 0.77300006 47 46 24 255
-0.1583755 -0.28270972 0.76500005 55 54 32 255
-0.15445369 -0.27938658 0.75600004 68 66 48 255
-0.1507825 -0.27643302 0.74800003 73 72 58 255
-0.14755261 -0.27421865 0.74200004 63 61 41 255
-0.14494377 -0.27311301 0.73900002 59 58 36 255
-0.14235133 -0.2720075 0.73600006 52 51 27 255
-0.13977519 -0.27090198 0.73300004 46 45 21 255
-0.13777928 -0.27090529 0.73300004 43 42 20 255
-0.13559812 -0.27053913 0.73200005 45 44 22 255
-0.13378744 -0.27091217 0.73300004 48 47 25 255
-0.13125208 -0.26980686 0.73000002 48 46 26 255
-0.12944135 -0.27018005 0.73100001 47 45 27 255
-0.12745078 -0.27018368 0.73100001 43 41 21 255
-0.12563184 -0.27055702 0.73200005 43 41 21 255
-0.1236385 -0.27056074 0.73200005 44 41 21 255
-0.12164513 -0.27056453 0.73200005 45 40 19 255
-0.11948824 -0.2701987 0.73100001 44 39 18 255
-0.11749749 -0.27020252 0.73100001 47 42 21 255
-0.1153487 -0.26983675 0.73000002 39 36 16 255
-0.1133606 -0.26984063 0.73000002 42 40 20 255
-0.11121988 -0.26947486 0.72900003 46 44 26 255
-0.10923439 -0.2694788 0.72900003 48 46 26 255
-0.10710172 -0.269113 0.72800004 42 41 19 255
-0.10511885 -0.26911694 0.72800004 41 40 18 255
-0.10299426 -0.26875117 0.72700006 44 43 19 255
-0.10101397 -0.26875508 0.72700006 43 42 18 255
-0.099033654 -0.26875898 0.72700006 42 41 17 255
-0.096919768 -0.26839316 0.72600001 42 41 17 255
-0.094680496 -0.26765764 0.72400004 48 48 22 255
-0.092580102 -0.26729178 0.72300005 44 43 19 255
-0.090610407 -0.26729557 0.72300005 45 44 20 255
-0.088518068 -0.26692966 0.72200006 48 47 25 255
-0.086670861 -0.26730314 0.72300005 47 48 26 255
-0.084466666 -0.26656735 0.72100002 52 53 31 255
-0.082502171 -0.26657102 0.72100002 51 51 31 255
-0.080314204 -0.2658352 0.71900004 51 51 31 255
-0.078464009 -0.2662085 0.72000003 58 56 38 255
-0.07639578 -0.26584229 0.71900004 60 58 40 255
-0.074436478 -0.26584578 0.71900004 53 51 31 255
-0.072477102 -0.2658492 0.71900004 48 46 26 255
-0.07041958 -0.26548281 0.71800005 48 46 26 255
-0.068462804 -0.26548612 0.71800005 52 50 30 255
-0.066505954 -0.26548934 0.71800005 54 52 32 255
-0.06463895 -0.26586232 0.71900004 39 37 17 255
-0.062592074 -0.26549566 0.71800005 53 51 31 255
-0.060635045 -0.2654987 0.71800005 55 53 33 255
-0.058677945 -0.26550165 0.71800005 53 51 33 255
-0.056799795 -0.26587436 0.71900004 46 44 26 255
-0.054763582 -0.26550737 0.71800005 51 49 31 255
-0.052806314 -0.26551014 0.71800005 57 55 37 255
-0.050919812 -0.26588258 0.71900004 63 61 41 255
-0.048959706 -0.26588517 0.71900004 56 55 33 255
-0.047064912 -0.26625744 0.72000003 75 72 51 255
-0.045101978 -0.26625985 0.72000003 78 76 52 255
-0.043138985 -0.26626214 0.72000003 90 88 64 255
-0.041118763 -0.26589459 0.71900004 93 92 70 255
-0.039158411 -0.26589671 0.71900004 80 78 60 255
-0.037198011 -0.26589876 0.71900004 78 76 58 255
-0.035237569 -0.26590073 0.71900004 65 62 46 255
-0.03332337 -0.2662724 0.72000003 63 61 43 255
-0.031360123 -0.26627415 0.72000003 53 51 33 255
-0.029356007 -0.26590598 0.71900004 55 53 35 255
-0.02731921 -0.26516786 0.71700001 59 56 36 255
-0.025399415 -0.26553914 0.71800005 63 60 40 255
-0.023441486 -0.26554048 0.71800005 87 84 64 255
-0.021483526 -0.26554173 0.71800005 88 85 65 255
-0.019525541 -0.26554283 0.71800005 88 85 64 255
-0.017543066 -0.26517403 0.71700001 71 69 51 255
-0.015587764 -0.26517493 0.71700001 53 51 33 255
-0.013632443 -0.26517576 0.71700001 54 50 33 255
-0.011660821 -0.26480663 0.71600002 47 44 24 255
-0.0097217541 -0.26517707 0.71700001 53 50 30 255
-0.0077447258 -0.26443785 0.71500003 52 49 28 255
-0.005786703 -0.26406842 0.71400005 44 43 19 255
-0.0038341256 -0.26369885 0.71300006 43 42 18 255
-0.0018922986 -0.26406884 0.71400005 50 48 24 255
5.4984714e-05 -0.26443875 0.71500003 41 39 15 255
0.0020049184 -0.26443869 0.71500003 47 42 21 255
0.0039603803 -0.26480836 0.71600002 50 43 20 255
0.0059212926 -0.26517794 0.71700001 47 40 17 255
0.0078876521 -0.26554739 0.71800005 58 49 28 255
0.0098594548 -0.26591676 0.71900004 69 60 39 255
0.01185314 -0.26665583 0.72100002 65 56 33 255
0.013838553 -0.26702496 0.72200006 63 54 31 255
0.01587319 -0.26813364 0.72500002 55 46 25 255
0.017924169 -0.2692422 0.72800004 48 41 20 255
0.019991491 -0.27035066 0.73100001 41 36 16 255
0.022015002 -0.27071935 0.73200005 44 38 21 255
0.024109537 -0.27182755 0.73500001 41 35 18 255
0.026255939 -0.27330551 0.73900002 41 37 21 255
0.028347615 -0.27404368 0.74100006 43 39 23 255
0.03045016 -0.2747817 0.74300003 37 33 16 255
0.032388743 -0.2740404 0.74100006 38 33 13 255
0.034502123 -0.27477822 0.74300003 45 38 17 255
0.036626372 -0.27551594 0.74500006 58 51 30 255
0.038813371 -0.27662337 0.74800003 59 52 31 255
0.040852841 -0.27662125 0.74800003 52 45 24 255
0.042949598 -0.2769888 0.74900001 53 48 27 255
0.045111839 -0.27772611 0.75100005 45 40 19 255
0.047347717 -0.27883306 0.75400001 37 34 14 255
0.049468879 -0.2792004 0.75500005 41 36 16 255
0.051527172 -0.27919775 0.75500005 46 41 21 255
0.053585418 -0.27919504 0.75500005 53 47 30 255
0.055864699 -0.28030157 0.75800002 48 42 25 255
0.058083858 -0.28103825 0.76000005 49 43 26 255
0.060234707 -0.28140503 0.76100004 47 44 24 255
0.062309071 -0.28140199 0.76100004 41 38 17 255
0.064467967 -0.28176859 0.76200002 38 35 14 255
0.066544928 -0.28176537 0.76200002 36 33 13 255
0.068531774 -0.28139234 0.76100004 38 36 18 255
0.070605874 -0.28138894 0.76100004 34 32 14 255
0.0726799 -0.28138551 0.76100004 33 31 13 255
0.074753873 -0.28138199 0.76100004 37 35 17 255
0.076827772 -0.28137845 0.76100004 39 37 19 255
0.079005279 -0.28174454 0.76200002 35 32 12 255
0.081188165 -0.2821106 0.76300001 39 36 16 255
0.083485574 -0.28284633 0.76500005 47 44 23 255
0.085793808 -0.28358197 0.76700002 52 49 28 255
0.088342026 -0.28505704 0.77100003 51 48 27 255
0.090911977 -0.28653201 0.77500004 51 48 27 255
0.093623683 -0.28837657 0.78000003 45 43 25 255
0.096976325 -0.29206958 0.79000002 35 33 15 255
0.10025793 -0.29539281 0.79900002 28 25 9 255
0.10307566 -0.29723707 0.80400002 21 20 4 255
0.10448038 -0.29501468 0.79800004 20 19 5 255
0.10518408 -0.29094386 0.78700006 28 27 11 255
0.10582776 -0.28687316 0.77600002 30 28 10 255
0.10752426 -0.28575999 0.77300006 33 31 13 255
0.10920435 -0.28464684 0.77000004 39 37 19 255
0.11115714 -0.28427306 0.76900005 35 33 13 255
0.11280987 -0.28315994 0.76600003 37 35 17 255
0.11429621 -0.28167719 0.76200002 32 30 12 255
0.11576068 -0.28019449 0.75800002 33 31 13 255
0.11751422 -0.27945116 0.75600004 37 35 17 255
0.11957314 -0.27944714 0.75600004 40 38 20 255
0.12163199 -0.27944314 0.75600004 36 34 16 255
0.12319997 -0.2783303 0.75300002 36 34 14 255
0.12508424 -0.27795675 0.75200003 36 34 16 255
0.12696303 -0.27758327 0.75100005 37 35 17 255
0.12917989 -0.27794904 0.75200003 37 35 15 255
0.13087866 -0.27720606 0.75000006 35 33 13 255
0.13274372 -0.2768327 0.74900001 40 37 16 255
0.13478325 -0.27682903 0.74900001 38 35 14 255
0.13682278 -0.27682546 0.74900001 36 33 12 255
0.13867688 -0.27645233 0.74800003 35 30 10 255
0.14071363 -0.27644885 0.74800003 36 33 13 255
0.14275037 -0.27644548 0.74800003 38 36 18 255
0.14459357 -0.27607259 0.74700004 36 34 16 255
0.14662758 -0.27606943 0.74700004 35 33 15 255
0.14866158 -0.27606627 0.74700004 31 31 13 255
0.15049389 -0.27569371 0.74600005 35 33 15 255
0.15252522 -0.27569082 0.74600005 35 33 15 255
0.15455656 -0.27568802 0.74600005 36 34 14 255
0.15637802 -0.27531582 0.74500006 35 33 13 255
0.15819405 -0.27494368 0.74400002 35 33 13 255
0.16022006 -0.27494127 0.74400002 35 33 13 255
0.16224606 -0.27493897 0.74400002 36 36 18 255
0.16449295 -0.27530637 0.74500006 32 32 14 255
0.16652182 -0.27530441 0.74500006 36 36 18 255
0.16741951 -0.27345484 0.74000001 31 33 15 255
0.16783214 -0.27086645 0.73300004 35 35 17 255
0.16913344 -0.26975635 0.73000002 37 35 17 255
0.17088735 -0.26938552 0.72900003 35 33 15 255
0.17311014 -0.26975387 0.73000002 37 35 17 255
0.17461893 -0.26901388 0.72800004 43 38 18 255
0.1766021 -0.26901308 0.72800004 39 36 16 255
0.17932129 -0.27012107 0.73100001 55 51 27 255
0.18379322 -0.27381593 0.74100006 60 56 32 255
0.188069 -0.27714142 0.75000006 69 66 45 255
0.19163352 -0.2793586 0.75600004 63 61 41 255
0.1954871 -0.2819455 0.76300001 63 61 43 255
0.1998969 -0.28527173 0.77200001 61 60 44 255
0.20671085 -0.29192391 0.79000002 68 69 55 255
-0.30327931 -0.29600435 0.79400003 170 170 160 255
-0.29388595 -0.28890032 0.77500004 60 62 44 255
-0.28648055 -0.28366166 0.76100004 66 64 44 255
-0.28102165 -0.28028795 0.75200003 65 64 40 255
-0.2759842 -0.27728805 0.74400002 61 60 36 255
-0.27283257 -0.27615249 0.74100006 72 71 47 255
-0.27006376 -0.27539033 0.73900002 74 73 51 255
-0.2683948 -0.27574673 0.74000001 86 84 64 255
-0.26672113 -0.27610365 0.74100006 100 98 78 255
-0.26539996 -0.27683365 0.74300003 101 99 81 255
-0.26371408 -0.27719155 0.74400002 113 111 91 255
-0.26237515 -0.27792254 0.74600005 121 119 101 255
-0.26137495 -0.27902651 0.74900001 130 132 114 255
-0.26105136 -0.28087592 0.75400001 138 140 123 255
-0.26035756 -0.28235316 0.75800002 139 140 126 255
-0.25896102 -0.28308585 0.76000005 130 131 119 255
-0.25721613 -0.28344649 0.76100004 109 110 98 255
-0.25513113 -0.28343517 0.76100004 84 85 71 255
-0.25371176 -0.28416917 0.76300001 82 84 66 255
-0.25162244 -0.28415874 0.76300001 72 74 56 255
-0.24986078 -0.28452125 0.76400006 74 74 56 255
-0.24776982 -0.28451172 0.76400006 65 63 45 255
-0.24664409 -0.28561983 0.76700002 44 42 24 255
-0.24486484 -0.28598356 0.76800001 57 55 35 255
-0.24276446 -0.28597531 0.76800001 53 51 31 255
-0.2406646 -0.2859675 0.76800001 53 51 31 255
-0.23887585 -0.28633249 0.76900005 42 40 20 255
-0.23708203 -0.28669783 0.77000004 51 49 29 255
-0.23497806 -0.28669128 0.77000004 44 43 21 255
-0.23287444 -0.28668505 0.77000004 45 44 22 255
-0.23047155 -0.28630689 0.76900005 48 46 26 255
-0.22866845 -0.28667375 0.77000004 42 40 20 255
-0.22686024 -0.28704098 0.77100003 33 31 13 255
-0.22504696 -0.28740853 0.77200001 39 37 19 255
-0.22322853 -0.28777644 0.77300006 37 35 17 255
-0.221691 -0.28851691 0.77500004 37 35 17 255
-0.22042623 -0.28963 0.77800006 35 33 13 255
-0.21886477 -0.29037109 0.78000003 38 36 18 255
-0.21673699 -0.29036796 0.78000003 33 31 13 255
-0.21433429 -0.2899929 0.77900004 37 35 17 255
-0.21248214 -0.29036266 0.78000003 34 32 14 255
-0.2106248 -0.29073268 0.78100002 33 31 13 255
-0.20929618 -0.29184753 0.78400004 34 32 14 255
-0.20742296 -0.29221812 0.78500003 30 28 10 255
-0.2060675 -0.2933335 0.78800005 33 31 13 255
-0.20469585 -0.29444909 0.79100001 32 31 15 255
-0.20356418 -0.29593724 0.79500002 25 27 10 255
-0.20241086 -0.2974256 0.79900002 25 26 12 255
-0.20173711 -0.29965872 0.80500007 18 19 7 255
-0.20127872 -0.3022643 0.81200004 13 15 5 255
-0.19955653 -0.30300891 0.81400001 15 15 5 255
-0.19661148 -0.30189249 0.81100005 17 17 7 255
-0.19368288 -0.30077627 0.80800003 24 22 11 255
-0.19100775 -0.30003253 0.80600005 30 29 13 255
-0.18764086 -0.29817224 0.80100006 33 33 15 255
-0.18430132 -0.29631215 0.79600006 34 32 14 255
-0.18098912 -0.29445219 0.79100001 40 38 18 255
-0.17815641 -0.29333693 0.78800005 43 41 21 255
-0.17534012 -0.29222181 0.78500003 40 38 18 255
-0.17276089 -0.29147914 0.78300005 44 42 24 255
-0.17019261 -0.29073656 0.78100002 41 39 21 255
-0.1680657 -0.2907387 0.78100002 42 40 20 255
-0.16530141 -0.28962418 0.77800006 41 40 18 255
-0.16192426 -0.28739291 0.77200001 45 44 20 255
-0.15816578 -0.28441727 0.76400006 50 49 25 255
-0.15424663 -0.2810694 0.75500005 59 57 37 255
-0.15077963 -0.27846611 0.74800003 65 63 43 255
-0.14754967 -0.27623519 0.74200004 68 66 46 255
-0.14474463 -0.27474889 0.73800004 60 59 37 255
-0.14234823 -0.27400726 0.73600006 48 47 23 255
-0.13977201 -0.27289337 0.73300004 44 43 19 255
-0.13777603 -0.27289647 0.73300004 38 37 15 255
-0.13578004 -0.27289966 0.73300004 50 49 27 255
-0.13378403 -0.27290288 0.73300004 46 44 24 255
-0.13160822 -0.27253389 0.73200005 49 47 27 255
-0.12961492 -0.27253726 0.73200005 41 39 21 255
-0.12779593 -0.27291304 0.73300004 43 41 23 255
-0.12579985 -0.27291653 0.73300004 44 41 21 255
-0.12363484 -0.27254772 0.73200005 38 35 15 255
-0.12147524 -0.27217895 0.73100001 42 37 16 255
-0.11932106 -0.27181023 0.73000002 46 39 18 255
-0.117333 -0.27181387 0.73000002 44 39 19 255
-0.11534493 -0.27181756 0.73000002 47 42 22 255
-0.11335679 -0.27182126 0.73000002 50 47 27 255
-0.11136863 -0.27182499 0.73000002 48 45 25 255
-0.10938039 -0.27182871 0.73000002 44 41 20 255
-0.10724501 -0.27146012 0.72900003 41 38 17 255
-0.10511503 -0.27109149 0.72800004 39 38 14 255
-0.10299043 -0.27072287 0.72700006 46 45 21 255
-0.10101016 -0.27072659 0.72700006 42 41 17 255
-0.099166058 -0.27110273 0.72800004 42 41 17 255
-0.097049475 -0.27073407 0.72700006 46 45 21 255
-0.094938263 -0.27036536 0.72600001 50 50 24 255
-0.092832454 -0.26999667 0.72500002 47 46 22 255
-0.090732008 -0.26962793 0.72400004 55 54 30 255
-0.088636972 -0.26925915 0.72300005 53 52 28 255
-0.086667202 -0.26926276 0.72300005 50 51 29 255
-0.084463045 -0.26852149 0.72100002 57 56 34 255
-0.082498595 -0.26852503 0.72100002 52 51 29 255
-0.080422372 -0.26815608 0.72000003 45 46 24 255
-0.078460515 -0.26815951 0.72000003 51 49 29 255
-0.076286092 -0.26741806 0.71800005 57 55 35 255
-0.074329555 -0.26742139 0.71800005 53 51 31 255
-0.072272159 -0.26705226 0.71700001 48 46 26 255
-0.070318229 -0.26705551 0.71700001 49 47 27 255
-0.068364225 -0.2670587 0.71700001 52 50 30 255
-0.066502795 -0.2674343 0.71800005 52 51 29 255
-0.06463585 -0.26780987 0.71900004 43 42 20 255
-0.062676214 -0.26781288 0.71900004 45 43 23 255
-0.060632087 -0.26744339 0.71800005 49 47 27 255
-0.05875678 -0.26781872 0.71900004 47 45 27 255
-0.056796979 -0.26782155 0.71900004 48 46 28 255
-0.054760844 -0.26745179 0.71800005 57 55 37 255
-0.05280365 -0.26745445 0.71800005 55 53 35 255
-0.050846409 -0.26745704 0.71800005 55 53 33 255
-0.048957199 -0.26783204 0.71900004 59 57 37 255
-0.04699713 -0.26783448 0.71900004 51 50 28 255
-0.045099642 -0.26820934 0.72000003 63 60 39 255
-0.043076832 -0.26783907 0.71900004 81 80 58 255
-0.041059427 -0.26746869 0.71800005 93 91 71 255
-0.039101891 -0.26747081 0.71800005 89 87 69 255
-0.037144314 -0.26747277 0.71800005 87 85 67 255
-0.035235699 -0.26784721 0.71900004 71 70 54 255
-0.03327531 -0.26784897 0.71900004 65 63 45 255
-0.031314887 -0.26785067 0.71900004 65 63 45 255
-0.029354429 -0.26785228 0.71900004 75 73 55 255
-0.027355837 -0.26748127 0.71800005 70 67 46 255
-0.025398036 -0.26748267 0.71800005 93 88 67 255
-0.02344021 -0.26748401 0.71800005 96 92 75 255
-0.021512274 -0.26785776 0.71900004 89 85 68 255
-0.019551668 -0.26785883 0.71900004 76 73 53 255
-0.017591037 -0.26785982 0.71900004 60 58 38 255
-0.015608648 -0.26748821 0.71800005 42 40 22 255
-0.013650707 -0.26748902 0.71800005 45 42 22 255
-0.011676463 -0.26711711 0.71700001 51 48 28 255
-0.0097212177 -0.26711771 0.71700001 50 47 26 255
-0.0077442979 -0.26637307 0.71500003 48 44 20 255
-0.0057863821 -0.26600093 0.71400005 47 46 22 255
-0.0038392905 -0.26600116 0.71400005 44 43 19 255
-0.0018948439 -0.26637387 0.71500003 44 42 18 255
5.5058565e-05 -0.26674649 0.71600002 43 41 17 255
0.0020104151 -0.26711896 0.71700001 51 46 25 255
0.0039712237 -0.26749137 0.71800005 49 42 21 255
0.0059374808 -0.26786363 0.71900004 52 45 22 255
0.0078982003 -0.26786327 0.71900004 67 58 35 255
0.0098726228 -0.2682353 0.72000003 80 69 46 255
0.011852486 -0.26860726 0.72100002 74 65 42 255
0.013837791 -0.26897916 0.72200006 73 64 41 255
0.015872318 -0.27009594 0.72500002 67 58 35 255
0.017923189 -0.27121273 0.72800004 65 58 35 255
0.020017747 -0.27270186 0.73200005 53 48 28 255
0.022043874 -0.27307329 0.73300004 47 42 22 255
0.024108227 -0.27381709 0.73500001 51 45 28 255
0.026254518 -0.2753059 0.73900002 41 37 20 255
