ply
format ascii 1.0
comment PCL generated
element vertex 971
property float x
property float y
property float z
property uchar red
property uchar green
property uchar blue
property uchar alpha
element camera 0
property float view_px
property float view_py
property float view_pz
property float x_axisx
property float x_axisy
property float x_axisz
property float y_axisx
property float y_axisy
property float y_axisz
property float z_axisx
property float z_axisy
property float z_axisz
property float focal
property float scalex
property float scaley
property float centerx
property float centery
property int viewportx
property int viewporty
property float k1
property float k2
end_header
0.02231944 -0.30174574 0.68100005 45 40 20 255
0.024139525 -0.30130255 0.68000001 46 41 21 255
0.026030615 -0.30174562 0.68100005 48 40 23 255
0.027968097 -0.30263174 0.68300003 46 38 21 255
0.029960159 -0.30396098 0.68600005 42 34 17 255
0.03196856 -0.30529019 0.68900001 47 39 22 255
0.033944193 -0.30617633 0.69100004 50 42 25 255
0.035878874 -0.30661938 0.69200003 46 39 19 255
0.037709862 -0.30617625 0.69100004 46 39 19 255
0.039592702 -0.30617625 0.69100004 48 41 20 255
0.04153556 -0.30661935 0.69200003 47 40 17 255
0.043421123 -0.30661935 0.69200003 49 42 19 255
0.04550311 -0.30794868 0.69500005 46 39 16 255
0.047533248 -0.30883488 0.69700003 47 40 19 255
0.049645212 -0.31016421 0.70000005 52 43 22 255
0.051773522 -0.31149358 0.70300001 75 64 43 255
0.053841826 -0.31237987 0.70500004 79 68 47 255
0.056000125 -0.31370929 0.708 61 49 30 255
0.058011141 -0.31415257 0.70900005 53 42 21 255
0.06011216 -0.31503895 0.71100003 53 40 17 255
0.062136818 -0.31548229 0.71200001 54 43 22 255
0.064436927 -0.31725493 0.71600002 49 39 20 255
0.066480681 -0.31769836 0.71700001 50 40 21 255
0.068529896 -0.31814182 0.71800005 54 44 27 255
0.070682749 -0.31902838 0.72000003 50 42 25 255
0.072846532 -0.31991509 0.72200006 42 34 17 255
0.07512483 -0.3212449 0.72500002 42 34 17 255
0.07720682 -0.32168856 0.72600001 55 48 28 255
0.079403356 -0.32257542 0.72800004 70 63 43 255
0.081499018 -0.32301924 0.72900003 66 59 39 255
0.083600149 -0.32346308 0.73000002 63 56 36 255
0.08582402 -0.32435018 0.73200005 46 39 16 255
0.088058807 -0.3252373 0.73400003 42 35 12 255
0.090304539 -0.32612455 0.73600006 54 46 21 255
0.092561208 -0.32701185 0.73800004 57 45 18 255
0.094828822 -0.32789928 0.74000001 58 46 19 255
0.097107373 -0.32878679 0.74200004 68 55 31 255
0.099263273 -0.32923129 0.74300003 71 58 34 255
0.10169733 -0.33056214 0.74600005 70 57 34 255
0.10386968 -0.33100688 0.74700004 70 57 34 255
0.1063311 -0.33233798 0.75000006 68 57 36 255
0.10866443 -0.33322611 0.75200003 71 59 40 255
0.11115596 -0.33455741 0.75500005 60 48 29 255
0.11351395 -0.33544579 0.75700003 50 40 21 255
0.11634094 -0.33766371 0.76200002 48 38 19 255
0.11888448 -0.33899555 0.76500005 44 33 12 255
0.12176073 -0.34121382 0.77000004 44 33 12 255
0.12466431 -0.34343225 0.77500004 47 35 16 255
0.12759525 -0.34565088 0.78000003 43 33 14 255
0.13055356 -0.34786969 0.78500003 43 33 14 255
0.13320118 -0.34920248 0.78800005 44 34 17 255
0.13586523 -0.35053542 0.79100001 46 36 19 255
0.1385458 -0.35186863 0.79400003 40 30 13 255
0.14124285 -0.35320204 0.79700005 40 30 11 255
0.14377642 -0.35409245 0.79900002 44 34 15 255
0.14650373 -0.35542634 0.80200005 49 42 21 255
0.14924756 -0.35676044 0.80500007 48 43 22 255
0.15257227 -0.35942438 0.81100005 46 41 21 255
0.15612072 -0.36253178 0.81800002 38 34 17 255
0.15990116 -0.36608273 0.82600003 32 30 12 255
0.1621549 -0.36608839 0.82600003 28 25 9 255
0.16401073 -0.36520791 0.82400006 26 23 9 255
0.1654523 -0.36344114 0.82000005 27 24 10 255
0.16707674 -0.36211783 0.81700003 28 25 11 255
0.16847779 -0.36035156 0.81300002 28 25 11 255
0.17006718 -0.35902873 0.81000006 28 25 11 255
0.17185307 -0.35814935 0.80800003 26 23 9 255
0.17362832 -0.3572703 0.80600005 28 25 11 255
0.1760473 -0.35772127 0.80700004 30 27 13 255
0.17780936 -0.35684276 0.80500007 34 31 17 255
0.17956074 -0.35596448 0.80300003 29 26 12 255
0.18107513 -0.3546432 0.80000001 30 27 13 255
0.18280248 -0.35376552 0.79800004 32 29 13 255
0.18451922 -0.35288814 0.79600006 31 29 11 255
0.18645979 -0.35245433 0.79500002 34 32 14 255
0.18839526 -0.35202089 0.79400003 34 32 14 255
0.19008559 -0.35114446 0.79200006 31 29 11 255
0.19200802 -0.3507117 0.79100001 32 28 11 255
0.19367985 -0.34983587 0.78900003 29 25 8 255
0.1953411 -0.3489604 0.78700006 38 34 17 255
0.19749366 -0.34897211 0.78700006 41 37 20 255
0.1993929 -0.34854072 0.78600001 40 36 19 255
0.20103066 -0.34766632 0.78400004 37 35 17 255
0.20291701 -0.34723574 0.78300005 32 30 12 255
0.20532204 -0.34769246 0.78400004 34 32 14 255
0.20720378 -0.34726271 0.78300005 36 34 16 255
0.20908043 -0.34683335 0.78200006 35 33 15 255
0.21095206 -0.34640437 0.78100002 36 34 16 255
0.21281871 -0.34597588 0.78000003 35 32 16 255
0.2146803 -0.34554774 0.77900004 40 36 20 255
0.21653695 -0.34512007 0.77800006 37 34 18 255
0.21838859 -0.34469286 0.77700001 36 34 16 255
0.22023529 -0.34426612 0.77600002 42 40 22 255
0.22236358 -0.34428346 0.77600002 35 33 15 255
0.22420312 -0.34385768 0.77500004 37 33 16 255
0.22603777 -0.3434324 0.77400005 41 37 20 255
0.22816226 -0.34345129 0.77400005 40 37 17 255
0.23028737 -0.34347072 0.77400005 43 38 17 255
0.2324131 -0.34349072 0.77400005 38 33 12 255
0.2345394 -0.34351128 0.77400005 45 40 20 255
0.23636065 -0.3430886 0.77300006 47 42 22 255
0.23848557 -0.34311029 0.77300006 44 41 21 255
0.24092242 -0.34357649 0.77400005 45 41 24 255
0.24367951 -0.34448725 0.77600002 51 49 29 255
0.24739869 -0.34673068 0.78100002 64 64 44 255
0.25338277 -0.35208297 0.79300004 63 63 43 255
-0.33717477 -0.37031555 0.82600003 36 35 29 255
-0.3239153 -0.35815704 0.79900002 71 70 54 255
-0.31684771 -0.35272607 0.78700006 57 55 35 255
-0.31144813 -0.34909025 0.77900004 53 50 29 255
-0.30847681 -0.34814486 0.77700001 51 46 25 255
-0.30591241 -0.34764877 0.77600002 51 44 23 255
-0.30374655 -0.34760171 0.77600002 54 47 24 255
-0.30197069 -0.34800357 0.77700001 45 40 19 255
-0.29941905 -0.34751067 0.77600002 47 44 23 255
-0.29649121 -0.34657103 0.77400005 57 55 35 255
-0.29471672 -0.34697574 0.77500004 51 49 29 255
-0.29256052 -0.3469336 0.77500004 48 47 25 255
-0.29078028 -0.34733999 0.77600002 51 50 26 255
-0.28899574 -0.34774718 0.77700001 55 55 29 255
-0.28794524 -0.34905013 0.78000003 48 47 19 255
-0.28651288 -0.3499063 0.78200006 50 48 23 255
-0.28434336 -0.34986827 0.78200006 49 45 20 255
-0.28253585 -0.35027847 0.78300005 48 46 22 255
-0.28108197 -0.35113668 0.78500003 39 36 15 255
-0.27997348 -0.35244286 0.78800005 35 32 12 255
-0.27814436 -0.35285518 0.78900003 40 36 19 255
-0.27631077 -0.35326818 0.79000002 34 30 13 255
-0.27447265 -0.35368189 0.79100001 31 27 10 255
-0.27228585 -0.35364926 0.79100001 30 28 10 255
-0.27044153 -0.35406443 0.79200006 29 27 9 255
-0.2685926 -0.3544803 0.79300004 29 27 9 255
-0.26707503 -0.35534379 0.79500002 35 33 15 255
-0.26521417 -0.35576096 0.79600006 34 32 14 255
-0.26367912 -0.35662565 0.79800004 34 30 13 255
-0.26180628 -0.3570441 0.79900002 36 32 15 255
-0.26025367 -0.35791001 0.80100006 37 33 16 255
-0.25772437 -0.35743603 0.80000001 38 34 17 255
-0.2558403 -0.35785642 0.80100006 34 32 14 255
-0.25363484 -0.35783061 0.80100006 34 32 14 255
-0.25237185 -0.35914558 0.80400002 37 35 17 255
-0.25047082 -0.35956773 0.80500007 35 33 15 255
-0.24856502 -0.35999045 0.80600005 33 31 13 255
-0.24634883 -0.35996708 0.80600005 35 33 15 255
-0.24413328 -0.35994434 0.80600005 32 30 12 255
-0.24251875 -0.36081535 0.80800003 29 27 9 255
-0.24059653 -0.3612403 0.80900002 30 28 10 255
-0.23925874 -0.36255878 0.81200004 32 30 12 255
-0.23673749 -0.36209184 0.81100005 28 26 8 255
-0.23393321 -0.36117905 0.80900002 28 25 9 255
-0.23171329 -0.36115974 0.80900002 26 23 9 255
-0.23006137 -0.36203378 0.81100005 26 23 9 255
-0.22839899 -0.36290827 0.81300002 24 20 9 255
-0.22616985 -0.36289048 0.81300002 21 17 7 255
-0.22421665 -0.36331955 0.81400001 23 19 9 255
-0.22198582 -0.3633028 0.81400001 24 20 10 255
-0.21948554 -0.36284021 0.81300002 24 20 10 255
-0.21565506 -0.36014679 0.80700004 22 18 7 255
-0.2094775 -0.35343772 0.79200006 37 35 17 255
-0.20521483 -0.34985337 0.78400004 41 39 21 255
-0.20151439 -0.34716216 0.77800006 42 41 19 255
-0.19835979 -0.345364 0.77400005 43 42 20 255
-0.19522749 -0.34356642 0.77000004 50 49 27 255
-0.19261906 -0.34266171 0.76800001 41 40 18 255
-0.1897739 -0.34131131 0.76500005 46 44 26 255
-0.18743618 -0.34085372 0.76400006 46 44 26 255
-0.18461905 -0.33950418 0.76100004 46 44 26 255
-0.18205856 -0.33860129 0.75900006 44 42 24 255
-0.17903505 -0.3368066 0.75500005 47 46 22 255
-0.17579931 -0.33456627 0.75000006 49 47 23 255
-0.17282286 -0.33277246 0.74600005 43 42 18 255
-0.16963966 -0.33053306 0.74100006 47 46 22 255
-0.16693643 -0.32918614 0.73800004 48 47 23 255
-0.16424985 -0.32783964 0.73500001 49 48 24 255
-0.16135918 -0.32604748 0.73100001 44 43 19 255
-0.1584906 -0.32425573 0.72700006 56 56 30 255
-0.15542884 -0.32201833 0.72200006 63 62 38 255
-0.15281971 -0.32067329 0.71900004 58 57 33 255
-0.15043694 -0.31977448 0.71700001 61 60 36 255
-0.14785825 -0.31843013 0.71400005 51 50 28 255
-0.14488742 -0.31619403 0.70900005 50 48 28 255
-0.14214568 -0.31440428 0.70500004 58 55 34 255
-0.14022155 -0.31439865 0.70500004 50 48 30 255
-0.13790524 -0.31350136 0.70300001 47 45 27 255
-0.13560003 -0.31260428 0.70100003 48 46 26 255
-0.13311517 -0.31126156 0.69800001 48 46 26 255
-0.13121077 -0.31125686 0.69800001 42 41 19 255
-0.12967703 -0.31214419 0.70000005 47 46 24 255
-0.12776746 -0.3121399 0.70000005 48 43 22 255
-0.12549841 -0.31124392 0.69800001 48 44 20 255
-0.12324043 -0.31034821 0.69600004 45 40 19 255
-0.12116779 -0.30989859 0.69500005 42 37 17 255
-0.11910072 -0.30944914 0.69400001 42 40 22 255
-0.11687033 -0.30855396 0.69200003 47 45 27 255
-0.11481711 -0.3081049 0.69100004 40 38 20 255
-0.11276945 -0.30765596 0.69000006 43 41 23 255
-0.11104874 -0.30809897 0.69100004 42 40 22 255
-0.10932266 -0.30854204 0.69200003 42 40 22 255
-0.10728071 -0.30809361 0.69100004 47 43 26 255
-0.10524429 -0.30764526 0.69000006 48 45 25 255
-0.10336319 -0.30764294 0.69000006 47 44 23 255
-0.10148217 -0.30764073 0.69000006 44 41 20 255
-0.099601224 -0.30763865 0.69000006 49 46 25 255
-0.097295463 -0.30629915 0.68700004 50 49 27 255
-0.095283903 -0.30585146 0.68600005 48 46 26 255
-0.093141675 -0.30495802 0.68400002 48 46 28 255
-0.091277309 -0.30495638 0.68400002 51 49 31 255
-0.089412995 -0.30495489 0.68400002 50 48 30 255
-0.08754871 -0.30495343 0.68400002 53 50 34 255
-0.085559204 -0.30450627 0.68300003 49 47 29 255
-0.083575211 -0.30405921 0.68200004 56 54 36 255
-0.081476867 -0.30316639 0.68000001 48 46 28 255
-0.079389468 -0.30227366 0.67800003 54 51 31 255
-0.077312998 -0.30138102 0.67600006 50 48 30 255
-0.075359091 -0.30093426 0.67500001 53 51 31 255
-0.073410682 -0.30048758 0.67400002 51 50 28 255
-0.071680121 -0.30093262 0.67500001 51 50 26 255
-0.069840677 -0.3009319 0.67500001 55 54 32 255
-0.068101987 -0.30137706 0.67600006 58 57 35 255
-0.066063821 -0.30048481 0.67400002 61 59 39 255
-0.064131878 -0.30003846 0.67300004 61 59 41 255
-0.062297948 -0.30003792 0.67300004 68 66 48 255
-0.06055389 -0.30048332 0.67400002 58 56 36 255
-0.058543034 -0.29959124 0.67200005 49 47 29 255
-0.056880664 -0.30048248 0.67400002 47 44 23 255
-0.05504407 -0.30048218 0.67400002 51 48 27 255
-0.053286441 -0.3009277 0.67500001 48 46 22 255
-0.051370919 -0.30048162 0.67400002 51 49 25 255
-0.049534362 -0.30048138 0.67400002 51 49 25 255
-0.047627032 -0.30003539 0.67300004 54 49 28 255
-0.045861252 -0.30048099 0.67400002 45 40 20 255
-0.044024702 -0.30048081 0.67400002 50 44 27 255
-0.04231336 -0.30137238 0.67600006 58 52 35 255
-0.040411502 -0.30092642 0.67500001 81 76 55 255
-0.03862939 -0.30137214 0.67600006 84 82 58 255
-0.036732994 -0.30092624 0.67500001 77 75 51 255
-0.03489374 -0.30092618 0.67500001 81 79 55 255
-0.032956559 -0.30003452 0.67300004 64 63 39 255
-0.031215249 -0.30092609 0.67500001 44 42 22 255
-0.029376006 -0.30092606 0.67500001 49 47 29 255
-0.027536761 -0.30092603 0.67500001 52 50 30 255
-0.025659449 -0.30048022 0.67400002 45 43 23 255
-0.023822932 -0.30048022 0.67400002 48 44 27 255
-0.021953793 -0.3000344 0.67300004 49 46 26 255
-0.020149898 -0.30048022 0.67400002 47 44 24 255
-0.01828621 -0.3000344 0.67300004 52 49 29 255
-0.016501309 -0.30092603 0.67500001 45 43 23 255
-0.014640349 -0.30048028 0.67400002 43 40 20 255
-0.012803833 -0.30048028 0.67400002 46 43 23 255
-0.010951043 -0.30003446 0.67300004 43 40 19 255
-0.0091307983 -0.30048028 0.67400002 46 44 20 255
-0.0072942823 -0.30048028 0.67400002 44 40 16 255
-0.0054658628 -0.30092609 0.67500001 48 44 20 255
-0.0036212478 -0.30048028 0.67400002 48 42 17 255
-0.0017847305 -0.30048028 0.67400002 50 44 19 255
5.1940227e-05 -0.30137193 0.67600006 60 52 27 255
0.0018967086 -0.30181774 0.67700005 77 69 44 255
0.0037248209 -0.30048028 0.67400002 78 70 43 255
0.0055695893 -0.30092609 0.67500001 79 73 46 255
0.0074088313 -0.30092609 0.67500001 81 75 50 255
0.0092891753 -0.30226353 0.67800003 65 60 39 255
0.011120165 -0.30181772 0.67700005 61 56 35 255
0.012984008 -0.30226353 0.67800003 46 41 21 255
0.014875174 -0.30315515 0.68000001 38 34 17 255
0.016752638 -0.30360094 0.68100005 38 33 13 255
0.018608229 -0.30360094 0.68100005 45 40 19 255
0.020463819 -0.30360094 0.68100005 51 46 25 255
0.022352183 -0.30404675 0.68200004 47 42 21 255
0.0242105 -0.30404675 0.68200004 46 39 19 255
0.026068812 -0.30404675 0.68200004 50 43 23 255
0.027968077 -0.30449256 0.68300003 45 37 20 255
0.029872796 -0.30493844 0.68400002 48 38 21 255
0.031875759 -0.3062759 0.68700004 46 36 19 255
0.033845946 -0.30716756 0.68900001 49 39 22 255
0.035775192 -0.30761343 0.69000006 48 40 23 255
0.037600741 -0.30716768 0.68900001 45 38 18 255
0.039478142 -0.30716774 0.68900001 51 44 23 255
0.041415572 -0.3076137 0.69000006 53 46 25 255
0.043358449 -0.30805963 0.69100004 44 39 18 255
0.045437727 -0.30939719 0.69400001 54 47 26 255
0.047533356 -0.31073481 0.69700003 46 39 19 255
0.049716268 -0.31251827 0.70100003 55 48 27 255
0.051700044 -0.31296429 0.70200002 81 70 49 255
0.053765655 -0.31385621 0.70400006 76 65 42 255
0.056000352 -0.31563973 0.708 66 55 32 255
0.058175046 -0.31697753 0.71100003 68 55 31 255
0.060281552 -0.31786951 0.71300006 53 40 16 255
0.062224433 -0.31786993 0.71300006 52 41 18 255
0.064437307 -0.31920779 0.71600002 53 42 19 255
0.066388384 -0.31920829 0.71600002 51 42 21 255
0.068530373 -0.32010046 0.71800005 53 43 24 255
0.070585109 -0.3205469 0.71900004 46 39 19 255
0.07274621 -0.32143918 0.72100002 47 40 20 255
0.07491824 -0.32233155 0.72300005 51 43 26 255
0.076994836 -0.32277814 0.72400004 64 57 37 255
0.079295062 -0.32411647 0.72700006 69 62 41 255
0.081499867 -0.32500902 0.72900003 58 51 31 255
0.083486557 -0.32501003 0.72900003 54 47 27 255
0.085590526 -0.32545692 0.73000002 41 34 11 255
0.08769998 -0.32590389 0.73100001 41 34 11 255
0.090060323 -0.3272427 0.73400003 50 41 18 255
0.092311643 -0.3281357 0.73600006 59 47 20 255
0.094573893 -0.32902879 0.73800004 68 56 29 255
0.096847087 -0.32992202 0.74000001 70 57 33 255
0.09899766 -0.33036953 0.74100006 62 50 23 255
0.10156271 -0.33215469 0.74500006 54 41 17 255
0.10387151 -0.33304825 0.74700004 55 42 18 255
0.10633305 -0.33438784 0.75000006 64 53 32 255
0.1086665 -0.33528167 0.75200003 78 64 44 255
0.11115816 -0.33662149 0.75500005 70 56 36 255
0.11351629 -0.33751562 0.75700003 59 48 27 255
0.11603809 -0.33885583 0.76000005 48 39 18 255
0.11873174 -0.34064201 0.76400006 48 37 14 255
0.12160542 -0.34287423 0.76900005 43 34 13 255
0.12450646 -0.34510666 0.77400005 43 34 13 255
0.12727128 -0.34689343 0.77800006 41 34 14 255
0.12989168 -0.3482345 0.78100002 38 31 11 255
0.13252857 -0.34957579 0.78400004 42 34 17 255
0.13535371 -0.35136324 0.78800005 42 32 15 255
0.13820079 -0.35315084 0.79200006 42 34 17 255
0.14106981 -0.35493869 0.79600006 44 34 17 255
0.1436009 -0.35583505 0.79800004 38 31 11 255
0.14632572 -0.3571775 0.80100006 38 31 11 255
0.14888163 -0.35807428 0.80300003 38 33 13 255
0.15201302 -0.36030909 0.80800003 41 38 18 255
0.15555358 -0.3634361 0.81500006 39 35 18 255
0.15971331 -0.36790127 0.82500005 34 30 13 255
0.16235721 -0.36879924 0.82700002 30 27 11 255
0.16421603 -0.36791369 0.82500005 29 26 10 255
0.16566056 -0.36613643 0.82100004 27 24 10 255
0.16728798 -0.36480534 0.81800002 26 23 9 255
0.16869199 -0.36302853 0.81400001 29 26 12 255
0.1700744 -0.36125198 0.81000006 31 28 14 255
0.17186061 -0.36036763 0.80800003 27 24 8 255
0.17363612 -0.35948354 0.80600005 31 28 12 255
0.17583725 -0.35949168 0.80600005 30 27 13 255
0.17781779 -0.35905421 0.80500007 28 25 11 255
0.17979309 -0.35861695 0.80400002 29 26 12 255
0.18108414 -0.35684189 0.80000001 30 27 13 255
0.18258275 -0.35551316 0.79700005 32 29 13 255
0.18429704 -0.35463074 0.79500002 30 30 12 255
0.18646981 -0.35464078 0.79500002 33 31 13 255
0.18840562 -0.35420513 0.79400003 29 27 9 255
0.19009629 -0.3533237 0.79200006 32 30 12 255
0.19153355 -0.35199642 0.78900003 31 29 11 255
0.19320028 -0.35111561 0.78700006 34 32 14 255
0.19535287 -0.35112751 0.78700006 35 31 14 255
0.19725487 -0.35069355 0.78600001 37 34 14 255
0.19915174 -0.35025996 0.78500003 39 37 19 255
0.20053072 -0.34893441 0.78200006 34 32 14 255
0.20267119 -0.34894779 0.78200006 39 37 17 255
0.20481205 -0.34896168 0.78200006 35 33 15 255
0.20695335 -0.34897593 0.78200006 41 39 19 255
0.20882769 -0.34854439 0.78100002 37 35 15 255
0.21069704 -0.34811324 0.78000003 38 36 18 255
0.21228854 -0.34723628 0.77800006 38 36 18 255
0.21414511 -0.34680596 0.77700001 39 37 19 255
0.21627508 -0.34682247 0.77700001 35 33 15 255
0.21812448 -0.34639314 0.77600002 34 32 14 255
0.2199689 -0.34596422 0.77500004 38 36 18 255
0.2218084 -0.34553581 0.77400005 40 36 19 255
0.22393225 -0.34555429 0.77400005 38 35 15 255
0.22605672 -0.34557334 0.77400005 35 32 12 255
0.22788697 -0.34514639 0.77300006 42 37 16 255
0.23000987 -0.34516647 0.77300006 44 39 18 255
0.23243372 -0.34563369 0.77400005 43 38 17 255
0.23456061 -0.34565496 0.77400005 44 37 16 255
0.23607658 -0.34478357 0.77200001 49 42 22 255
0.23819937 -0.34480599 0.77200001 44 41 21 255
0.24094544 -0.34572235 0.77400005 48 45 25 255
0.24370319 -0.34663936 0.77600002 55 52 32 255
0.24742313 -0.3488974 0.78100002 63 63 43 255
0.25340828 -0.35428378 0.79300004 66 68 50 255
-0.33968118 -0.37534848 0.83200002 35 37 29 255
-0.32640189 -0.36311233 0.80500007 67 69 52 255
-0.31810763 -0.35629305 0.79000002 55 53 33 255
-0.31309789 -0.35308433 0.78300005 55 53 33 255
-0.31011426 -0.35213196 0.78100002 49 46 25 255
-0.3071433 -0.35118094 0.77900004 47 43 19 255
-0.30457658 -0.35068193 0.77800006 44 38 13 255
-0.30162811 -0.34973332 0.77600002 46 42 18 255
-0.29869229 -0.34878597 0.77400005 42 38 14 255
-0.29653522 -0.34874099 0.77400005 43 40 19 255
-0.29475984 -0.34914747 0.77500004 48 47 25 255
-0.29260269 -0.34910434 0.77500004 51 50 26 255
-0.29119635 -0.34996292 0.77700001 54 53 29 255
-0.2897802 -0.35082224 0.77900004 52 52 26 255
-0.28872338 -0.35213253 0.78200006 54 54 28 255
-0.2865518 -0.35209271 0.78200006 55 53 29 255
-0.28474507 -0.3525039 0.78300005 57 55 31 255
-0.28257307 -0.35246575 0.78300005 47 46 22 255
-0.28076038 -0.35287857 0.78400004 36 35 13 255
-0.27929857 -0.35374218 0.78600001 38 36 16 255
-0.27782679 -0.35460648 0.78800005 36 32 15 255
-0.27634504 -0.35547137 0.79000002 36 32 15 255
-0.27450615 -0.35588697 0.79100001 35 33 15 255
-0.27231854 -0.35585347 0.79100001 32 30 12 255
-0.27047348 -0.35627055 0.79200006 28 26 8 255
-0.26896256 -0.3571381 0.79400003 31 29 11 255
-0.2674416 -0.3580063 0.79600006 30 28 10 255
-0.26557726 -0.35842535 0.79700005 30 28 10 255
-0.26370835 -0.35884506 0.79800004 33 31 13 255
-0.2618348 -0.35926545 0.79900002 34 32 14 255
-0.2599566 -0.35968646 0.80000001 35 31 14 255
-0.25775155 -0.35965857 0.80000001 32 28 11 255
-0.25618625 -0.36053044 0.80200005 31 27 10 255
-0.25397736 -0.36050382 0.80200005 31 27 10 255
-0.25271103 -0.36182633 0.80500007 34 32 14 255
-0.25080663 -0.36225039 0.80600005 36 34 16 255
-0.24889746 -0.36267507 0.80700004 36 34 16 255
-0.24667789 -0.36265096 0.80700004 34 32 14 255
-0.24445899 -0.36262745 0.80700004 31 29 11 255
-0.24284118 -0.36350322 0.80900002 33 31 13 255
-0.24091563 -0.3639302 0.81000006 30 28 10 255
-0.23927991 -0.36480701 0.81200004 31 29 11 255
-0.23675804 -0.36433652 0.81100005 32 29 13 255
-0.23453151 -0.36431593 0.81100005 30 27 11 255
-0.23230554 -0.36429584 0.81100005 28 25 9 255
-0.23064761 -0.36517468 0.81300002 26 23 9 255
-0.22841735 -0.3651557 0.81300002 27 24 10 255
-0.22646591 -0.36558637 0.81400001 24 20 9 255
-0.22423403 -0.3655684 0.81400001 24 20 9 255
-0.22200269 -0.36555099 0.81400001 23 19 9 255
-0.21950185 -0.36508501 0.81300002 25 21 11 255
-0.21620525 -0.36327246 0.80900002 25 21 10 255
-0.20949246 -0.35562328 0.79200006 34 32 14 255
-0.20496739 -0.35156727 0.78300005 42 40 22 255
-0.20101014 -0.34840995 0.77600002 36 35 13 255
-0.19811682 -0.34704921 0.77300006 42 41 19 255
-0.19498676 -0.34524006 0.76900005 45 44 22 255
-0.19238062 -0.34432927 0.76700002 40 39 17 255
-0.18978587 -0.34341899 0.76500005 44 42 24 255
-0.18744773 -0.34295809 0.76400006 46 44 26 255
-0.18487279 -0.34204867 0.76200002 44 42 24 255
-0.1820693 -0.34069088 0.75900006 41 39 19 255
-0.17904536 -0.33888462 0.75500005 44 43 19 255
-0.17580922 -0.33663008 0.75000006 47 46 22 255
-0.17236902 -0.33392709 0.74400002 45 44 20 255
-0.16919088 -0.3316735 0.73900002 49 48 26 255
-0.16649278 -0.33031791 0.73600006 52 51 29 255
-0.1640348 -0.32941151 0.73400003 49 48 26 255
-0.16114651 -0.3276079 0.73000002 48 47 23 255
-0.15806232 -0.32535595 0.72500002 55 55 29 255
-0.15500566 -0.32310435 0.72000003 61 59 35 255
-0.15261425 -0.32219943 0.71800005 54 53 29 255
-0.15023392 -0.32129475 0.71600002 51 49 25 255
-0.14765768 -0.31994173 0.71300006 55 54 32 255
-0.14489365 -0.31814027 0.70900005 55 53 33 255
-0.14235325 -0.31678781 0.70600003 53 51 31 255
-0.14002836 -0.31588441 0.70400006 50 48 30 255
-0.13771452 -0.31498122 0.70200002 42 40 22 255
-0.13560526 -0.31452703 0.70100003 44 42 24 255
-0.13331088 -0.31362441 0.69900006 47 46 24 255
-0.13140355 -0.31361932 0.69900006 50 49 25 255
-0.1293111 -0.31316578 0.69800001 42 40 16 255
-0.12740678 -0.3131611 0.69800001 44 40 16 255
-0.12514301 -0.31225941 0.69600004 50 46 22 255
-0.12306734 -0.3118065 0.69500005 48 43 22 255
-0.12134593 -0.31225106 0.69600004 44 39 18 255
-0.11927597 -0.31179857 0.69500005 45 42 22 255
-0.11704268 -0.31089762 0.69300002 38 36 18 255
-0.11498656 -0.31044546 0.69200003 41 37 20 255
-0.112936 -0.30999348 0.69100004 40 36 19 255
-0.1110517 -0.30999029 0.69100004 38 36 18 255
-0.1091675 -0.30998725 0.69100004 41 39 21 255
-0.10712813 -0.30953577 0.69000006 44 42 24 255
-0.10524683 -0.30953303 0.69000006 47 43 26 255
-0.10321578 -0.30908179 0.68900001 47 44 24 255
-0.10148445 -0.30952793 0.69000006 46 43 23 255
-0.099459015 -0.30907699 0.68900001 53 50 30 255
-0.097297475 -0.30817762 0.68700004 52 49 28 255
-0.095146902 -0.30727834 0.68500006 45 43 23 255
-0.093279652 -0.3072764 0.68500006 49 47 29 255
-0.091412455 -0.30727452 0.68500006 49 47 29 255
-0.089414574 -0.30682415 0.68400002 58 56 38 255
-0.087422207 -0.30637395 0.68300003 51 51 33 255
-0.085560597 -0.30637237 0.68300003 53 53 35 255
-0.083453968 -0.3054738 0.68100005 57 55 37 255
-0.081478082 -0.30502385 0.68000001 49 47 29 255
-0.0792735 -0.30367687 0.67700005 48 46 28 255
-0.077428415 -0.30367571 0.67700005 55 53 35 255
-0.075360075 -0.30277747 0.67500001 55 53 35 255
-0.073520511 -0.30277643 0.67500001 52 50 30 255
-0.07168097 -0.30277544 0.67500001 49 47 27 255
-0.069944926 -0.3032231 0.67600006 51 49 29 255
-0.068102717 -0.30322227 0.67600006 44 43 21 255
-0.066162504 -0.30277291 0.67500001 51 49 29 255
-0.064227775 -0.30232364 0.67400002 48 46 28 255
-0.062483639 -0.30277154 0.67500001 61 59 41 255
-0.0605544 -0.30232236 0.67400002 54 53 31 255
-0.058717735 -0.30232179 0.67400002 52 51 29 255
-0.056965489 -0.30276984 0.67500001 44 42 18 255
-0.055289466 -0.30366644 0.67700005 44 42 18 255
-0.053444672 -0.30366603 0.67700005 48 46 22 255
-0.05159989 -0.30366561 0.67700005 46 44 19 255
-0.049681634 -0.30321673 0.67600006 43 41 16 255
-0.047768824 -0.30276781 0.67500001 45 43 19 255
-0.045861475 -0.30231896 0.67400002 50 45 24 255
-0.044090223 -0.30276728 0.67500001 47 44 23 255
-0.042250939 -0.30276701 0.67500001 61 58 37 255
-0.040411655 -0.3027668 0.67500001 76 74 50 255
-0.038572378 -0.30276659 0.67500001 88 86 62 255
-0.03667869 -0.30231789 0.67400002 69 68 44 255
-0.034842145 -0.30231771 0.67400002 60 59 35 255
-0.032956637 -0.30186903 0.67300004 57 56 34 255
-0.031169074 -0.30231747 0.67400002 51 49 29 255
-0.029376065 -0.30276591 0.67500001 48 46 26 255
-0.027496018 -0.30231729 0.67400002 47 45 25 255
-0.025659489 -0.3023172 0.67400002 48 46 28 255
-0.02378762 -0.30186862 0.67300004 43 41 21 255
-0.021953821 -0.30186853 0.67300004 48 47 25 255
-0.020120023 -0.30186847 0.67300004 51 50 28 255
-0.018313397 -0.30231696 0.67400002 44 43 21 255
-0.016501322 -0.30276546 0.67500001 49 48 26 255
-0.014640356 -0.3023169 0.67400002 45 42 22 255
-0.01280384 -0.3023169 0.67400002 44 41 21 255
-0.01096732 -0.30231687 0.67400002 45 42 22 255
-0.009130802 -0.30231687 0.67400002 39 34 14 255
-0.0073051052 -0.30276537 0.67500001 41 38 17 255
-0.0054658633 -0.30276537 0.67500001 43 40 19 255
-0.0036212481 -0.30231684 0.67400002 43 39 15 255
-0.0017847308 -0.30231684 0.67400002 43 39 15 255
5.1863397e-05 -0.30276537 0.67500001 47 43 19 255
0.0018939073 -0.30321392 0.67600006 54 48 21 255
0.0037358743 -0.30321392 0.67600006 73 68 38 255
0.0055778418 -0.30321392 0.67600006 73 70 42 255
0.007441761 -0.304111 0.67800003 78 76 51 255
0.0092891781 -0.30411103 0.67800003 69 66 45 255
0.011136594 -0.30411103 0.67800003 57 55 35 255
0.012964862 -0.30366254 0.67700005 38 36 18 255
0.014853307 -0.30455965 0.67900002 41 37 20 255
0.016728049 -0.30500817 0.68000001 43 40 20 255
0.018635569 -0.30590531 0.68200004 43 38 17 255
0.020463841 -0.30545685 0.68100005 42 37 16 255
0.022319436 -0.30545688 0.68100005 47 40 19 255
0.024175033 -0.30545697 0.68100005 45 38 17 255
0.02610708 -0.30635411 0.68300003 50 43 22 255
0.027968131 -0.30635417 0.68300003 44 36 19 255
0.029872855 -0.30680278 0.68400002 49 41 24 255
0.031829432 -0.30770001 0.68600005 49 41 24 255
0.033846039 -0.30904576 0.68900001 51 43 27 255
0.035723448 -0.30904588 0.68900001 49 41 24 255
0.03760086 -0.30904603 0.68900001 45 39 22 255
0.039478283 -0.30904621 0.68900001 48 43 23 255
0.041475751 -0.3099435 0.69100004 47 42 22 255
0.043421376 -0.31039226 0.69200003 48 45 25 255
0.045503404 -0.31173816 0.69500005 47 42 21 255
0.047533594 -0.31263554 0.69700003 44 39 19 255
0.049645614 -0.31398147 0.70000005 49 42 22 255
0.05162669 -0.31443033 0.70100003 71 61 42 255
0.05368961 -0.31532782 0.70300001 78 67 46 255
0.05584253 -0.3166739 0.70600003 76 65 42 255
0.058175448 -0.31891707 0.71100003 77 64 40 255
0.060282003 -0.31981468 0.71300006 65 52 28 255
0.062224921 -0.31981525 0.71300006 62 52 27 255
0.064347856 -0.32071292 0.71500003 57 47 22 255
0.06638898 -0.3211621 0.71600002 53 43 18 255
0.068626478 -0.32250851 0.71900004 49 40 17 255
0.070683986 -0.32295781 0.72000003 44 35 12 255
0.072746985 -0.3234072 0.72100002 47 40 17 255
0.074711829 -0.32340813 0.72100002 62 53 32 255
0.076889403 -0.32430622 0.72300005 71 62 41 255
0.079186969 -0.3256529 0.72600001 77 68 47 255
0.081389137 -0.32655117 0.72800004 65 56 35 255
0.083373182 -0.32655236 0.72800004 50 41 20 255
0.085357249 -0.32655364 0.72800004 41 34 13 255
0.087581322 -0.32745215 0.73000002 45 38 18 255
0.089939035 -0.32879934 0.73300004 47 40 19 255
0.092313156 -0.33014664 0.73600006 57 47 22 255
0.094575509 -0.33104545 0.73800004 78 65 42 255
0.0969797 -0.33239299 0.74100006 74 61 38 255
0.099133097 -0.33284342 0.74200004 57 44 21 255
0.10170099 -0.33463979 0.74600005 50 37 14 255
0.10401263 -0.33553907 0.74800003 50 36 16 255
0.10647704 -0.33688715 0.75100005 56 46 27 255
0.10866886 -0.33733815 0.75200003 72 60 41 255
0.11101343 -0.33823794 0.75400001 75 64 43 255
0.11336897 -0.33913779 0.75600004 68 57 36 255
0.11604089 -0.34093508 0.76000005 60 49 28 255
0.11857928 -0.3422839 0.76300001 51 40 17 255
0.12145042 -0.34453014 0.76800001 45 34 11 255
0.12434894 -0.34677663 0.77300006 45 36 15 255
0.1269476 -0.34812602 0.77600002 42 33 12 255
0.12939644 -0.34902704 0.77800006 46 37 16 255
0.13202536 -0.35037687 0.78100002 38 31 10 255
0.13484253 -0.35217559 0.78500003 40 33 13 255
0.13768163 -0.35397455 0.78900003 40 33 13 255
0.14071992 -0.35622236 0.79400003 38 31 11 255
0.14360569 -0.3580218 0.79800004 37 31 14 255
0.14633074 -0.35937288 0.80100006 33 29 12 255
0.1488869 -0.36027557 0.80300003 34 30 13 255
0.15201856 -0.36252451 0.80800003 34 30 13 255
0.15575029 -0.3661198 0.81600004 31 29 11 255
0.15952589 -0.36971545 0.82400006 33 31 13 255
0.16216733 -0.37061933 0.82600003 27 25 7 255
0.1638246 -0.36928001 0.82300001 30 27 11 255
0.16546573 -0.36794096 0.82000005 27 24 10 255
0.1672952 -0.36705083 0.81800002 27 24 10 255
0.1689067 -0.36571223 0.81500006 26 23 9 255
0.17050208 -0.36437386 0.81200004 30 27 11 255
0.17229399 -0.36348447 0.81000006 30 27 11 255
0.17407526 -0.36259538 0.80800003 32 29 13 255
0.17584585 -0.36170655 0.80600005 28 25 11 255
0.17760578 -0.36081797 0.80400002 26 23 9 255
0.17957868 -0.3603785 0.80300003 31 28 14 255
0.18086731 -0.35859296 0.79900002 32 29 13 255
0.18236348 -0.35725644 0.79600006 30 28 10 255
0.18384352 -0.3559202 0.79300004 32 30 12 255
0.18624575 -0.3563796 0.79400003 30 28 10 255
0.18794189 -0.35549286 0.79200006 34 32 14 255
0.18986745 -0.35505527 0.79100001 33 31 13 255
0.19154511 -0.35416919 0.78900003 29 27 9 255
0.19345769 -0.35373232 0.78800005 36 34 16 255
0.19536519 -0.3532958 0.78700006 36 34 16 255
0.19701661 -0.35241076 0.78500003 37 35 17 255
0.19891115 -0.35197499 0.78400004 35 33 15 255
0.20080066 -0.35153964 0.78300005 34 32 14 255
0.20294428 -0.35155362 0.78300005 35 33 13 255
0.20508832 -0.3515681 0.78300005 40 38 18 255
0.20696817 -0.35113397 0.78200006 41 39 19 255
0.20911033 -0.35114929 0.78200006 35 33 13 255
0.21098287 -0.35071602 0.78100002 41 39 19 255
0.21257754 -0.34983414 0.77900004 33 31 11 255
0.21443732 -0.34940174 0.77800006 33 31 13 255
0.21657056 -0.34941894 0.77800006 39 37 19 255
0.21870428 -0.34943664 0.77800006 39 37 19 255
0.22027081 -0.34855646 0.77600002 31 29 11 255
0.22182696 -0.34767675 0.77400005 38 36 18 255
0.22395135 -0.34769592 0.77400005 39 36 16 255
0.22607636 -0.34771562 0.77400005 38 35 15 255
0.22790715 -0.34728664 0.77300006 41 36 16 255
0.23003061 -0.34730741 0.77300006 43 38 18 255
0.23185438 -0.34687945 0.77200001 41 34 13 255
0.23397638 -0.34690136 0.77200001 44 37 17 255
0.23609903 -0.34692386 0.77200001 51 44 24 255
0.23822242 -0.34694698 0.77200001 49 46 25 255
0.24096915 -0.3478696 0.77400005 52 49 28 255
0.24372764 -0.34879297 0.77600002 60 57 36 255
0.24776524 -0.35151517 0.78200006 68 67 45 255
0.25279537 -0.35558698 0.79100001 61 61 41 255
-0.33769792 -0.37542382 0.82700002 37 39 31 255
-0.32605177 -0.36492631 0.80400002 72 74 57 255
-0.31816086 -0.35851747 0.79000002 60 60 42 255
-0.31354955 -0.35574168 0.78400004 55 53 33 255
-0.31016475 -0.35432884 0.78100002 50 47 26 255
-0.30679831 -0.35291743 0.77800006 46 42 18 255
-0.30384174 -0.35196102 0.77600002 47 43 18 255
-0.30089772 -0.35100588 0.77400005 49 45 21 255
-0.29835233 -0.35050541 0.77300006 53 49 25 255
-0.29619709 -0.35045946 0.77300006 44 42 18 255
-0.29480395 -0.35132104 0.77500004 48 46 22 255
-0.29302347 -0.35173017 0.77600002 41 39 15 255
-0.2912387 -0.3521401 0.77700001 49 46 25 255
-0.28944972 -0.35255089 0.77800006 49 48 26 255
-0.28802565 -0.35341555 0.78000003 51 50 28 255
-0.2862252 -0.35382786 0.78100002 41 39 19 255
-0.28442043 -0.35424098 0.78200006 48 46 26 255
-0.28225034 -0.35420191 0.78200006 45 44 22 255
-0.28043959 -0.35461664 0.78300005 40 38 18 255
-0.27897981 -0.3554849 0.78500003 39 37 17 255
-0.27751008 -0.35635394 0.78700006 35 33 13 255
-0.27603033 -0.35722354 0.78900003 33 31 13 255
-0.2741935 -0.3576411 0.79000002 32 30 12 255
-0.27235216 -0.35805938 0.79100001 33 31 13 255
-0.27050635 -0.35847837 0.79200006 31 29 11 255
-0.26899469 -0.35935062 0.79400003 30 30 12 255
-0.26780909 -0.36067608 0.79700005 28 28 10 255
-0.26627454 -0.3615495 0.79900002 30 30 12 255
-0.26439938 -0.36197105 0.80000001 31 29 11 255
-0.26186416 -0.36148843 0.79900002 29 27 9 255
-0.2596603 -0.36145905 0.79900002 31 29 11 255
-0.25777954 -0.36188266 0.80000001 33 29 12 255
-0.25621361 -0.36275929 0.80200005 29 25 8 255
-0.254004 -0.3627319 0.80200005 32 28 11 255
-0.25273713 -0.36406192 0.80500007 34 32 14 255
-0.25052091 -0.36403582 0.80500007 34 32 14 255
-0.2489223 -0.36491466 0.80700004 33 31 13 255
-0.24670206 -0.36488974 0.80700004 32 30 12 255
-0.24508846 -0.36576977 0.80900002 29 27 9 255
-0.24286416 -0.36574605 0.80900002 30 28 10 255
-0.24064055 -0.36572298 0.80900002 31 29 11 255
-0.23841763 -0.36570051 0.80900002 30 27 11 255
-0.23648736 -0.36613071 0.81000006 30 27 11 255
-0.23426296 -0.3661094 0.81000006 32 29 13 255
-0.23261212 -0.36699256 0.81200004 29 26 10 255
-0.23066723 -0.36742431 0.81300002 30 27 11 255
-0.2287174 -0.36785653 0.81400001 30 27 13 255
-0.22676273 -0.36828929 0.81500006 28 24 13 255
-0.22452757 -0.36827064 0.81500006 25 21 10 255
-0.22229296 -0.36825255 0.81500006 22 18 8 255
-0.21951884 -0.36733124 0.81300002 21 19 9 255
-0.21622168 -0.36550701 0.80900002 21 19 8 255
-0.21030164 -0.35916561 0.79500002 29 26 10 255
-0.20472054 -0.353277 0.78200006 36 34 16 255
-0.20102447 -0.35055152 0.77600002 41 38 17 255
-0.19787437 -0.34873021 0.77200001 46 44 20 255
-0.19525371 -0.34781286 0.77000004 44 41 20 255
-0.1926444 -0.34689599 0.76800001 45 42 21 255
-0.18979836 -0.34552795 0.76500005 45 44 22 255
-0.18721442 -0.34461206 0.76300001 44 43 21 255
-0.18415658 -0.34279341 0.75900006 46 43 22 255
-0.18136084 -0.34142679 0.75600004 43 40 19 255
-0.17834471 -0.33960909 0.75200003 51 49 25 255
-0.17535076 -0.33779186 0.74800003 46 43 23 255
-0.1721473 -0.33552355 0.74300003 49 47 29 255
-0.16920044 -0.33370721 0.73900002 51 49 31 255
-0.16627574 -0.33189136 0.73500001 53 51 33 255
-0.16359667 -0.33052745 0.73200005 54 52 34 255
-0.16093425 -0.32916397 0.72900003 45 44 20 255
-0.15807046 -0.32734928 0.72500002 59 57 32 255
-0.15522878 -0.32553503 0.72100002 59 57 33 255
-0.15262175 -0.32417268 0.71800005 58 56 32 255
-0.15003131 -0.32281065 0.71500003 53 50 29 255
-0.14745748 -0.32144892 0.71200001 63 61 41 255
-0.14490026 -0.32008755 0.70900005 60 58 40 255
-0.14235961 -0.31872651 0.70600003 51 49 31 255
-0.14003445 -0.31781718 0.70400006 49 47 29 255
-0.13752419 -0.31645671 0.70100003 46 44 26 255
-0.13561085 -0.3164508 0.70100003 53 51 31 255
-0.13312551 -0.31509084 0.69800001 56 54 30 255
-0.13140871 -0.31553689 0.69900006 57 55 30 255
-0.12913077 -0.31462884 0.69700003 47 45 21 255
-0.12741151 -0.31507522 0.69800001 49 44 23 255
-0.12514752 -0.31416765 0.69600004 48 45 25 255
-0.12307166 -0.3137117 0.69500005 49 46 26 255
-0.12117572 -0.31370729 0.69500005 44 41 21 255
-0.11927992 -0.31370312 0.69500005 45 42 22 255
-0.11721533 -0.31324768 0.69400001 47 44 24 255
-0.11499015 -0.31234109 0.69200003 45 42 21 255
-0.11310287 -0.31233746 0.69200003 46 41 21 255
-0.11105496 -0.31188262 0.69100004 46 41 21 255
-0.10917061 -0.31187928 0.69100004 47 42 21 255
-0.10713109 -0.31142476 0.69000006 46 43 23 255
-0.10524964 -0.31142169 0.69000006 48 45 24 255
-0.10336827 -0.31141883 0.69000006 47 44 24 255
-0.10148699 -0.31141609 0.69000006 49 46 26 255
-0.099172719 -0.31005946 0.68700004 54 51 31 255
-0.09687487 -0.30870304 0.68400002 50 48 28 255
-0.094871245 -0.30824938 0.68300003 46 44 24 255
-0.093009323 -0.30824715 0.68300003 51 49 29 255
-0.091280937 -0.30869639 0.68400002 57 55 35 255
-0.089154959 -0.30779177 0.68200004 49 47 27 255
-0.087295935 -0.30778989 0.68200004 48 48 30 255
-0.085186407 -0.30688548 0.68000001 50 50 32 255
-0.083332941 -0.30688381 0.68000001 52 50 32 255
-0.081359692 -0.30643094 0.67900002 45 43 25 255
-0.079274841 -0.30552688 0.67700005 51 49 31 255
-0.077429675 -0.30552545 0.67700005 50 48 30 255
-0.075249605 -0.30417025 0.67400002 48 46 28 255
-0.073412694 -0.30416903 0.67400002 52 50 32 255
-0.071469605 -0.30371654 0.67300004 46 44 24 255
-0.069842413 -0.30461806 0.67500001 47 45 25 255
-0.067902125 -0.30416575 0.67400002 49 48 26 255
-0.065967306 -0.3037135 0.67300004 52 51 27 255
-0.064133257 -0.30371261 0.67300004 51 50 28 255
-0.062484365 -0.30461434 0.67500001 55 53 33 255
-0.060734764 -0.30506489 0.67600006 48 46 22 255
-0.058718357 -0.30416158 0.67400002 45 43 19 255
-0.05679727 -0.30370963 0.67300004 44 42 18 255
-0.05504499 -0.3041603 0.67400002 48 44 19 255
-0.053208325 -0.30415967 0.67400002 43 41 16 255
-0.051371682 -0.30415916 0.67400002 46 45 17 255
-0.049461555 -0.30370739 0.67300004 47 46 18 255
-0.047556888 -0.30325568 0.67200005 45 43 19 255
-0.045793775 -0.3037065 0.67300004 57 55 31 255
-0.043959897 -0.30370614 0.67300004 62 60 36 255
-0.042188626 -0.30415708 0.67400002 56 54 30 255
-0.040292174 -0.30370548 0.67300004 68 66 42 255
-0.038458325 -0.30370519 0.67300004 86 84 60 255
-0.036570061 -0.30325362 0.67200005 84 83 59 255
-0.034738947 -0.30325338 0.67200005 67 66 42 255
-0.032907844 -0.30325317 0.67200005 56 55 33 255
-0.031076735 -0.30325297 0.67200005 55 53 33 255
-0.02928916 -0.30370402 0.67300004 53 51 31 255
-0.027414549 -0.30325264 0.67200005 49 49 29 255
-0.025583457 -0.30325249 0.67200005 51 49 31 255
-0.023752367 -0.30325234 0.67200005 46 44 24 255
-0.021921284 -0.30325222 0.67200005 47 46 24 255
-0.020149991 -0.30415466 0.67400002 48 47 25 255
-0.01834063 -0.30460578 0.67500001 47 46 24 255
-0.016550271 -0.30550829 0.67700005 46 43 22 255
-0.014662124 -0.30460566 0.67500001 43 40 20 255
-0.012822874 -0.3046056 0.67500001 44 40 23 255
-0.010983624 -0.30460554 0.67500001 39 35 18 255
-0.0091308272 -0.30415425 0.67400002 43 39 22 255
-0.0073051262 -0.30460548 0.67500001 41 38 18 255
-0.0054658777 -0.30460545 0.67500001 46 43 23 255
-0.0036212581 -0.30415419 0.67400002 46 42 18 255
-0.0017847354 -0.30415416 0.67400002 46 42 18 255
5.1863532e-05 -0.30460542 0.67500001 50 46 22 255
0.0018939122 -0.30505669 0.67600006 58 52 25 255
0.0037358846 -0.30505675 0.67600006 73 67 40 255
0.0055778567 -0.30505675 0.67600006 80 76 51 255
0.0074198302 -0.30505675 0.67600006 78 75 45 255
0.0092755035 -0.30550808 0.67700005 70 67 47 255
0.011136627 -0.30595937 0.67800003 50 47 27 255
0.012984051 -0.3059594 0.67800003 40 36 19 255
0.014853353 -0.30641073 0.67900002 44 40 23 255
0.016728105 -0.30686209 0.68000001 42 39 19 255
0.018635632 -0.30776468 0.68200004 45 40 19 255
0.020463914 -0.30731353 0.68100005 46 41 20 255
0.022352295 -0.30776492 0.68200004 42 37 16 255
0.024246125 -0.3082163 0.68300003 46 39 16 255
0.026145414 -0.30866769 0.68400002 47 40 19 255
0.027968254 -0.30821657 0.68300003 45 38 18 255
0.029829323 -0.30821675 0.68300003 56 48 31 255
0.031829592 -0.30957076 0.68600005 56 48 31 255
0.033747964 -0.31002221 0.68700004 48 42 25 255
0.035619948 -0.31002244 0.68700004 43 37 20 255
0.037491933 -0.31002271 0.68700004 50 44 27 255
0.039421219 -0.31047422 0.68800002 51 46 26 255
0.041476015 -0.31182837 0.69100004 50 45 25 255
0.043547157 -0.3131825 0.69400001 51 46 26 255
0.045569204 -0.31408539 0.69600004 40 35 14 255
0.047602143 -0.31498834 0.69800001 46 41 20 255
0.049575083 -0.31544009 0.69900006 47 40 20 255
0.051627126 -0.31634313 0.70100003 56 47 26 255
0.053690068 -0.31724614 0.70300001 63 54 31 255
0.055843033 -0.31860054 0.70600003 74 63 40 255
0.058012363 -0.31995499 0.70900005 77 66 43 255
0.060113516 -0.32085821 0.71100003 79 66 43 255
0.062138308 -0.32131019 0.71200001 65 54 31 255
0.06416858 -0.32176226 0.71300006 64 53 30 255
0.066389754 -0.32311693 0.71600002 52 41 18 255
0.068627313 -0.32447165 0.71900004 52 41 18 255
0.070684895 -0.32492387 0.72000003 48 39 16 255
0.072546154 -0.32447359 0.71900004 60 52 27 255
0.07450562 -0.32447472 0.71900004 70 62 37 255
0.076784164 -0.32582974 0.72200006 72 63 40 255
0.079079092 -0.32718486 0.72500002 68 59 36 255
0.081166804 -0.32763746 0.72600001 51 42 21 255
0.083145477 -0.32763889 0.72600001 48 39 18 255
0.085241452 -0.32809171 0.72700006 46 39 18 255
0.087582864 -0.32944718 0.73000002 45 38 18 255
0.089817978 -0.3303515 0.73200005 58 49 28 255
0.092064053 -0.33125594 0.73400003 71 60 37 255
0.094321072 -0.33216047 0.73600006 75 64 41 255
0.096850805 -0.33396772 0.74000001 70 57 34 255
0.099268809 -0.33532384 0.74300003 53 39 19 255
0.10170323 -0.33668005 0.74600005 52 41 20 255
0.10387595 -0.33713382 0.74700004 48 38 19 255
0.10633775 -0.33849034 0.75000006 46 36 19 255
0.10838248 -0.33849305 0.75000006 51 41 24 255
0.11086898 -0.33984986 0.75300002 67 55 36 255
0.11337192 -0.34120688 0.75600004 69 58 37 255
0.11589132 -0.34256408 0.75900006 73 62 41 255
0.118738 -0.34482414 0.76400006 54 40 20 255
0.1214539 -0.34663299 0.76800001 48 37 14 255
0.12419171 -0.34844211 0.77200001 43 34 13 255
0.12678787 -0.34980011 0.77500004 45 38 17 255
0.12940051 -0.35115832 0.77800006 46 39 18 255
0.13202961 -0.35251671 0.78100002 46 39 18 255
0.13450344 -0.35342401 0.78300005 46 39 18 255
0.13768634 -0.35613704 0.78900003 45 38 17 255
0.14054763 -0.35794753 0.79300004 43 36 16 255
0.14379084 -0.36066112 0.79900002 35 29 12 255
0.14633618 -0.36156946 0.80100006 41 35 18 255
0.149078 -0.3629294 0.80400002 33 29 12 255
0.15221268 -0.3651925 0.80900002 35 31 14 255
0.15594745 -0.36881015 0.81700003 31 29 11 255
0.15953247 -0.37197679 0.82400006 33 31 13 255
0.16197787 -0.37243518 0.82500005 29 25 8 255
0.16383174 -0.37153953 0.82300001 26 23 7 255
0.16547312 -0.37019268 0.82000005 25 22 8 255
0.16730285 -0.36929747 0.81800002 28 25 11 255
0.16912191 -0.36840263 0.81600004 28 25 11 255
0.17051028 -0.36660498 0.81200004 27 24 8 255
0.1723025 -0.36571062 0.81000006 29 26 10 255
0.17365316 -0.36391348 0.80600005 31 28 12 255
0.17541859 -0.36301965 0.80400002 31 28 14 255
0.17761518 -0.36302909 0.80400002 28 25 11 255
0.17958839 -0.36258736 0.80300003 28 25 11 255
0.18110369 -0.36124286 0.80000001 30 27 11 255
0.18237379 -0.35944706 0.79600006 36 34 16 255
0.18362233 -0.35765153 0.79200006 33 31 13 255
0.18555304 -0.35721099 0.79100001 30 30 12 255
0.18747863 -0.35677081 0.79000002 35 33 15 255
0.18939909 -0.35633102 0.78900003 33 31 13 255
0.19131444 -0.35589159 0.78800005 32 30 12 255
0.19347021 -0.35590419 0.78800005 33 31 13 255
0.1951298 -0.35501379 0.78600001 35 33 15 255
0.19677886 -0.35412374 0.78400004 32 30 12 255
0.19867109 -0.35368583 0.78300005 34 32 14 255
0.20081474 -0.35369998 0.78300005 37 35 17 255
0.2026996 -0.35326284 0.78200006 38 36 18 255
0.20457941 -0.35282609 0.78100002 35 33 15 255
0.20671888 -0.35284156 0.78100002 36 34 14 255
0.20885882 -0.3528575 0.78100002 35 33 13 255
0.21072905 -0.35242209 0.78000003 39 37 17 255
0.21232142 -0.35153529 0.77800006 40 38 18 255
0.21390326 -0.35064885 0.77600002 37 35 17 255
0.21630988 -0.35111851 0.77700001 36 34 16 255
0.21816026 -0.35068491 0.77600002 39 37 19 255
0.22028956 -0.35070375 0.77600002 36 34 16 255
0.22184619 -0.34981915 0.77400005 36 32 15 255
0.22368173 -0.34938702 0.77300006 39 36 16 255
0.22551244 -0.34895533 0.77200001 37 34 14 255
0.22733827 -0.34852421 0.77100003 35 32 12 255
0.2294568 -0.34854564 0.77100003 41 36 16 255
0.23187636 -0.34901977 0.77200001 47 42 22 255
0.23430207 -0.34949455 0.77300006 44 37 17 255
0.23612224 -0.34906563 0.77200001 47 40 19 255
0.23824623 -0.34908947 0.77200001 50 43 20 255
0.24099362 -0.35001841 0.77400005 51 47 23 255
0.24406694 -0.35140035 0.77700001 58 54 30 255
0.2481081 -0.35413998 0.78300005 57 56 34 255
0.25186351 -0.35642838 0.78800005 56 54 34 255
-0.33571514 -0.37547314 0.82200003 41 43 33 255
-0.32448587 -0.36536658 0.80000001 74 76 58 255
-0.31740966 -0.35983062 0.78800005 55 53 35 255
-0.31320244 -0.35749352 0.78300005 51 49 29 255
-0.30942199 -0.35561466 0.77900004 51 48 28 255
-0.3068487 -0.35510671 0.77800006 48 43 22 255
-0.30389091 -0.35414356 0.77600002 47 43 19 255
-0.30133459 -0.35363799 0.77500004 50 46 22 255
-0.29878533 -0.35313362 0.77400005 47 43 19 255
-0.29662633 -0.35308653 0.77400005 53 46 23 255
-0.29522955 -0.35395265 0.77600002 48 41 18 255
-0.29344541 -0.35436347 0.77700001 48 41 18 255
-0.29165694 -0.35477516 0.77800006 49 42 21 255
-0.28986427 -0.35518765 0.77900004 48 45 25 255
-0.28806728 -0.35560092 0.78000003 51 49 29 255
-0.286266 -0.35601506 0.78100002 49 47 29 255
-0.2844604 -0.35643002 0.78200006 42 40 20 255
-0.28228945 -0.35639 0.78200006 44 42 22 255
-0.28047785 -0.35680655 0.78300005 43 40 20 255
-0.27866191 -0.35722387 0.78400004 40 37 17 255
-0.27719417 -0.35809755 0.78600001 40 37 17 255
-0.27571645 -0.35897186 0.78800005 35 33 15 255
-0.27422869 -0.3598468 0.79000002 33 31 13 255
-0.27238664 -0.36026701 0.79100001 33 31 13 255
-0.27088162 -0.36114326 0.79300004 30 28 10 255
-0.26936659 -0.36202019 0.79500002 31 29 11 255
-0.26817751 -0.36335307 0.79800004 31 29 11 255
-0.26663953 -0.36423117 0.80000001 31 29 11 255
-0.26409984 -0.36374414 0.79900002 28 26 8 255
-0.26222214 -0.36416832 0.80000001 33 31 13 255
-0.26001477 -0.36413801 0.80000001 32 30 12 255
-0.25877512 -0.3654739 0.80300003 32 30 12 255
-0.25688076 -0.36590001 0.80400002 35 31 14 255
-0.25466496 -0.3658717 0.80400002 34 30 13 255
-0.25276405 -0.36629918 0.80500007 35 31 14 255
-0.25054708 -0.36627218 0.80500007 35 29 12 255
-0.2486394 -0.36670089 0.80600005 35 29 12 255
-0.24672702 -0.36713016 0.80700004 34 30 13 255
-0.24511284 -0.36801493 0.80900002 29 27 9 255
-0.24288793 -0.36799049 0.80900002 34 32 14 255
-0.24096119 -0.36842155 0.81000006 32 29 13 255
-0.23844017 -0.36794347 0.80900002 29 26 10 255
-0.23650932 -0.36837569 0.81000006 28 25 9 255
-0.23428433 -0.36835361 0.81000006 30 27 11 255
-0.23291947 -0.36969635 0.81300002 29 26 10 255
-0.23097129 -0.37013012 0.81400001 28 25 9 255
-0.22901818 -0.37056443 0.81500006 28 25 11 255
-0.22733849 -0.37145385 0.81700003 28 24 13 255
-0.22509728 -0.37143445 0.81700003 27 23 12 255
-0.22285669 -0.37141564 0.81700003 19 17 7 255
-0.22007658 -0.37048814 0.81500006 17 15 5 255
-0.21650602 -0.36819756 0.81000006 19 17 6 255
-0.21031792 -0.36136225 0.79500002 30 27 11 255
-0.2049979 -0.35589162 0.78300005 39 37 19 255
-0.20103946 -0.35269448 0.77600002 44 41 20 255
-0.19763249 -0.350407 0.77100003 40 38 14 255
-0.1947605 -0.34902909 0.76800001 43 40 19 255
-0.19240707 -0.34856066 0.76700002 47 44 23 255
-0.18956329 -0.34718379 0.76400006 47 46 24 255
-0.18673632 -0.34580746 0.76100004 47 46 24 255
-0.18368345 -0.34397721 0.75700003 45 44 22 255
-0.18089277 -0.34260187 0.75400001 44 43 21 255
-0.17788167 -0.34077266 0.75000006 47 44 23 255
-0.17489277 -0.3389439 0.74600005 49 46 26 255
