ply
format ascii 1.0
comment PCL generated
element vertex 909
property float x
property float y
property float z
property uchar red
property uchar green
property uchar blue
property uchar alpha
element camera 0
property float view_px
property float view_py
property float view_pz
property float x_axisx
property float x_axisy
property float x_axisz
property float y_axisx
property float y_axisy
property float y_axisz
property float z_axisx
property float z_axisy
property float z_axisz
property float focal
property float scalex
property float scaley
property float centerx
property float centery
property int viewportx
property int viewporty
property float k1
property float k2
end_header
-0.085626334 -0.042016912 0.78000003 128 135 124 255
-0.083274499 -0.04191139 0.77800006 115 120 108 255
-0.081037596 -0.041859675 0.77700001 109 114 102 255
-0.078907415 -0.04186178 0.77700001 100 101 89 255
-0.076678127 -0.041809965 0.77600002 110 111 99 255
-0.074454024 -0.041758098 0.77500004 116 116 106 255
-0.072048455 -0.041598398 0.77200001 129 126 119 255
-0.069840237 -0.041546416 0.77100003 123 122 116 255
-0.067637227 -0.041494373 0.77000004 128 127 121 255
-0.065354332 -0.041388381 0.76800001 104 106 98 255
-0.063246854 -0.041390114 0.76800001 113 115 105 255
-0.061059527 -0.041337904 0.76700002 119 122 108 255
-0.058954298 -0.041339535 0.76700002 121 124 110 255
-0.056700602 -0.041233312 0.76500005 129 132 120 255
-0.054457638 -0.041127026 0.76300001 119 121 111 255
-0.052156825 -0.040966775 0.76000005 109 111 101 255
-0.049938139 -0.040860362 0.75800002 100 102 92 255
-0.04785651 -0.040861707 0.75800002 100 102 92 255
-0.045774687 -0.040862996 0.75800002 113 116 104 255
-0.043635029 -0.040810324 0.75700003 112 115 103 255
-0.041445784 -0.040703677 0.75500005 98 100 90 255
-0.039267354 -0.040596969 0.75300002 109 111 101 255
-0.037099749 -0.040490199 0.75100005 115 115 107 255
-0.034942981 -0.040383369 0.74900001 114 114 106 255
-0.03284096 -0.040330395 0.74800003 123 125 117 255
-0.03070314 -0.040223442 0.74600005 116 118 110 255
-0.028576178 -0.040116429 0.74400002 101 102 96 255
-0.026460094 -0.040009357 0.74200004 119 120 114 255
-0.024387803 -0.039956152 0.74100006 125 126 120 255
-0.022320898 -0.039902881 0.74000001 114 115 109 255
-0.020259401 -0.039849553 0.73900002 115 117 109 255
-0.018203314 -0.039796174 0.73800004 108 110 102 255
-0.016108811 -0.039634876 0.73500001 105 106 100 255
-0.014069071 -0.039581377 0.73400003 115 116 110 255
-0.01201835 -0.039473895 0.73200005 115 116 110 255
-0.0099785728 -0.03936635 0.73000002 113 114 108 255
-0.0079497509 -0.039258752 0.72800004 115 116 110 255
-0.005931891 -0.039151091 0.72600001 131 133 125 255
-0.0039358465 -0.039151229 0.72600001 131 133 125 255
-0.0019397844 -0.039151311 0.72600001 120 121 115 255
5.6130652e-05 -0.039043486 0.72400004 117 119 111 255
0.0020410481 -0.038935605 0.72200006 111 112 106 255
0.0040093823 -0.038773734 0.71900004 109 109 101 255
0.0059695295 -0.038665738 0.71700001 119 120 108 255
0.0079075778 -0.038503762 0.71400005 134 132 121 255
0.0098705692 -0.038503513 0.71400005 127 128 116 255
0.011833518 -0.038503204 0.71400005 124 127 113 255
0.013777095 -0.038448922 0.71300006 135 138 124 255
0.015693039 -0.038340654 0.71100003 141 146 135 255
0.017573101 -0.03817841 0.708 136 141 130 255
0.019464165 -0.038070045 0.70600003 131 135 127 255
0.021344151 -0.037961628 0.70400006 135 139 131 255
0.023213048 -0.037853159 0.70200002 128 129 123 255
0.025070854 -0.037744641 0.70000005 127 129 121 255
0.026917558 -0.037636071 0.69800001 123 125 117 255
0.028794466 -0.037581373 0.69700003 144 145 139 255
0.030621702 -0.037472714 0.69500005 148 149 143 255
0.032484617 -0.037417915 0.69400001 141 145 138 255
0.03419324 -0.03720133 0.69000006 144 145 141 255
0.036088947 -0.037200354 0.69000006 153 154 150 255
0.037874401 -0.037091501 0.68800002 149 150 144 255
0.03970651 -0.037036523 0.68700004 151 150 144 255
0.041411866 -0.036873668 0.68400002 133 135 127 255
0.043163862 -0.036764689 0.68200004 127 129 121 255
0.04497074 -0.036709573 0.68100005 141 145 137 255
0.046703141 -0.036600504 0.67900002 142 146 138 255
0.048424389 -0.036491401 0.67700005 123 127 119 255
0.050060168 -0.036328357 0.67400002 125 130 119 255
0.05167928 -0.036165271 0.671 134 139 127 255
0.053441234 -0.036109954 0.67000002 145 147 137 255
0.055197485 -0.036054589 0.66900003 129 131 121 255
0.057118528 -0.036106963 0.67000002 130 132 124 255
0.059044831 -0.036159292 0.671 131 133 125 255
0.060794909 -0.036103796 0.67000002 118 120 112 255
0.062352296 -0.035940494 0.66700006 111 113 105 255
0.064085431 -0.035884924 0.66600001 117 119 109 255
0.065614901 -0.035721567 0.66300005 111 116 105 255
0.067432791 -0.035719804 0.66300005 103 108 96 255
0.069041505 -0.035610251 0.66100001 114 119 108 255
0.070960581 -0.035662286 0.66200006 99 103 95 255
0.072445124 -0.035498802 0.65900004 106 108 100 255
0.074363649 -0.035550751 0.66000003 94 98 91 255
0.07605654 -0.035494927 0.65900004 102 106 99 255
0.078098126 -0.035600655 0.66100001 114 115 109 255
0.079908602 -0.035598617 0.66100001 116 116 108 255
0.081471525 -0.035488844 0.65900004 104 104 94 255
0.08302319 -0.035379034 0.65700001 99 100 88 255
0.084692717 -0.035323054 0.65600002 104 105 91 255
0.086356454 -0.035267044 0.65500003 114 115 101 255
0.088014431 -0.035211008 0.65400004 107 109 99 255
0.089941233 -0.035262614 0.65500003 84 86 76 255
0.091453046 -0.035152681 0.65300006 99 101 91 255
0.093096375 -0.035096556 0.65200001 99 104 93 255
0.094733931 -0.035040408 0.65100002 99 104 93 255
0.096513934 -0.035038061 0.65100002 109 111 101 255
0.098293617 -0.035035681 0.65100002 119 121 111 255
0.099765532 -0.03492564 0.64900005 118 120 110 255
0.10138261 -0.034869391 0.648 130 130 122 255
0.10315311 -0.034866937 0.648 136 136 128 255
0.10492328 -0.034864452 0.648 119 121 113 255
0.10619914 -0.034700539 0.64500004 143 144 138 255
0.10779306 -0.03464422 0.64400005 112 112 104 255
0.10938116 -0.034587875 0.64300001 120 120 110 255
0.11148201 -0.034692883 0.64500004 107 105 95 255
0.11341783 -0.034744065 0.64600003 106 104 93 255
0.11518049 -0.034741435 0.64600003 90 91 77 255
0.11658075 -0.03463123 0.64400005 68 70 53 255
0.11815351 -0.034574796 0.64300001 99 103 86 255
0.12009344 -0.03462588 0.64400005 100 104 87 255
0.12166004 -0.034569409 0.64300001 95 98 84 255
0.12341279 -0.034566686 0.64300001 112 115 103 255
0.12516521 -0.034563947 0.64300001 106 108 98 255
0.12691727 -0.034561191 0.64300001 121 123 115 255
0.12866899 -0.034558415 0.64300001 120 122 114 255
0.13021754 -0.034501888 0.64200002 122 124 116 255
0.13217142 -0.034552824 0.64300001 98 98 88 255
0.1339221 -0.03455 0.64300001 110 108 97 255
0.13588347 -0.034600899 0.64400005 96 93 79 255
0.1376362 -0.034598049 0.64400005 90 88 70 255
0.13917217 -0.034541469 0.64300001 90 90 72 255
0.14070235 -0.034484889 0.64200002 82 82 64 255
0.14222676 -0.034428306 0.64100003 93 95 75 255
0.1441946 -0.034479134 0.64200002 80 80 62 255
0.14594024 -0.034476247 0.64200002 81 81 63 255
0.14791559 -0.034527045 0.64300001 82 81 65 255
0.14943054 -0.034470446 0.64200002 104 105 91 255
0.15070426 -0.034360167 0.64000005 124 125 111 255
0.15220501 -0.034303583 0.63900006 102 103 91 255
0.15369998 -0.034247 0.63800001 101 102 90 255
0.15592013 -0.034351453 0.64000005 111 112 98 255
0.15815081 -0.034455881 0.64200002 112 113 99 255
0.15989393 -0.03445296 0.64200002 104 105 93 255
0.16163678 -0.034450043 0.64200002 107 108 96 255
0.16337931 -0.034447126 0.64200002 92 92 82 255
0.16537878 -0.034497865 0.64300001 111 111 103 255
0.16686358 -0.034441303 0.64200002 120 120 112 255
0.16886792 -0.034492042 0.64300001 114 114 106 255
0.17061207 -0.034489132 0.64300001 124 124 114 255
0.17262404 -0.034539875 0.64400005 121 121 111 255
0.17382884 -0.034429718 0.64200002 119 120 108 255
0.17529604 -0.034373216 0.64100003 134 135 123 255
0.17675757 -0.034316733 0.64000005 122 123 111 255
0.17849237 -0.034313887 0.64000005 123 125 115 255
0.18050852 -0.034364667 0.64100003 122 122 112 255
0.18224554 -0.034361836 0.64100003 137 139 129 255
0.18398237 -0.034359023 0.64100003 133 135 127 255
0.18600871 -0.034409821 0.64200002 131 131 123 255
0.18774782 -0.034407035 0.64200002 142 142 132 255
0.18948677 -0.034404263 0.64200002 135 136 124 255
0.19062978 -0.034294341 0.64000005 127 125 114 255
0.19236295 -0.034291614 0.64000005 131 128 114 255
0.19409592 -0.034288913 0.64000005 108 105 91 255
0.19674674 -0.034446944 0.64300001 67 64 50 255
0.19848756 -0.034444273 0.64300001 48 45 29 255
0.20116243 -0.034602314 0.64600003 58 55 39 255
0.20228291 -0.03449256 0.64400005 76 74 56 255
0.20434287 -0.034543507 0.64500004 79 75 58 255
0.20704716 -0.034701582 0.648 66 63 43 255
0.20944539 -0.034806114 0.65000004 70 64 47 255
0.2115294 -0.034857117 0.65100002 74 70 53 255
0.2136188 -0.034908142 0.65200001 67 63 46 255
0.21670455 -0.035119794 0.65600002 69 65 49 255
0.21914583 -0.035224393 0.65800005 75 71 55 255
0.22126213 -0.035275478 0.65900004 72 66 50 255
0.22338378 -0.035326593 0.66000003 78 72 55 255
0.22585204 -0.035431258 0.66200006 78 72 55 255
0.22867499 -0.035589464 0.66500002 79 77 59 255
0.23220733 -0.03585472 0.67000002 93 91 73 255
0.23716392 -0.036334023 0.67900002 88 87 71 255
-0.17673087 -0.049250722 0.87200004 194 199 196 255
-0.17355594 -0.049028751 0.86800003 191 196 192 255
-0.17079681 -0.0489197 0.86600006 183 189 182 255
-0.16804808 -0.048810601 0.86400002 182 186 179 255
-0.16530983 -0.048701465 0.86200005 181 184 180 255
-0.16220391 -0.048479281 0.85800004 179 182 178 255
-0.15893301 -0.048200525 0.85300004 171 174 170 255
-0.15587252 -0.047978207 0.84900004 178 181 177 255
-0.15301429 -0.047812339 0.84600002 174 177 173 255
-0.15035009 -0.047702946 0.84400004 170 173 169 255
-0.14734553 -0.047480449 0.84000003 182 183 179 255
-0.14418969 -0.047201362 0.83500004 182 185 181 255
-0.14038087 -0.046696059 0.82600003 180 181 175 255
-0.13745689 -0.046473343 0.82200003 159 163 156 255
-0.13455433 -0.046250556 0.81800002 162 166 158 255
-0.13215843 -0.046197332 0.81700003 159 163 155 255
-0.12960857 -0.046087522 0.81500006 147 153 145 255
-0.12691294 -0.045921106 0.81200004 143 147 140 255
-0.12423326 -0.045754623 0.80900002 154 158 150 255
-0.12187123 -0.045701202 0.80800003 154 158 150 255
-0.11906997 -0.045478042 0.80400002 154 158 151 255
-0.11643555 -0.045311376 0.80100006 150 154 147 255
-0.11367451 -0.045088083 0.79700005 140 144 136 255
-0.11093495 -0.04486471 0.79300004 130 134 127 255
-0.10835406 -0.044697847 0.79000002 126 130 122 255
-0.10592363 -0.044587504 0.78800005 135 137 129 255
-0.10376712 -0.044590276 0.78800005 133 135 127 255
-0.10148131 -0.044536415 0.78700006 117 119 111 255
-0.099074386 -0.044425905 0.78500003 129 131 123 255
-0.096801534 -0.044371936 0.78400004 128 132 124 255
-0.094413079 -0.044261314 0.78200006 124 128 120 255
-0.092035219 -0.044150632 0.78000003 126 131 120 255
-0.089898497 -0.044153102 0.78000003 122 127 116 255
-0.087536402 -0.044042304 0.77800006 95 100 89 255
-0.0854045 -0.044044673 0.77800006 117 122 111 255
-0.083058186 -0.04393376 0.77600002 123 125 117 255
-0.080931112 -0.043936018 0.77600002 129 130 124 255
-0.078803726 -0.043938234 0.77600002 119 121 104 255
-0.076676041 -0.043940391 0.77600002 108 110 93 255
-0.074451998 -0.043885875 0.77500004 119 121 104 255
-0.072046481 -0.043718033 0.77200001 112 113 99 255
-0.069657162 -0.043550134 0.76900005 109 109 99 255
-0.06745968 -0.043495424 0.76800001 121 121 111 255
-0.065352522 -0.043497298 0.76800001 116 119 107 255
-0.063162759 -0.043442488 0.76700002 121 124 112 255
-0.060898624 -0.043330967 0.76500005 110 113 101 255
-0.058798939 -0.04333267 0.76500005 118 119 107 255
-0.056699015 -0.043334316 0.76500005 111 111 103 255
-0.054527491 -0.043279264 0.76400006 99 98 92 255
-0.052155357 -0.043054193 0.76000005 124 125 119 255
-0.049936738 -0.04294236 0.75800002 112 113 107 255
-0.047792032 -0.042887118 0.75700003 124 126 118 255
-0.045773391 -0.04294512 0.75800002 127 129 119 255
-0.043633789 -0.042889759 0.75700003 105 108 96 255
-0.041389715 -0.042721018 0.75400001 99 99 89 255
-0.039266236 -0.04266553 0.75300002 95 95 87 255
-0.037049297 -0.042496659 0.75000006 103 104 98 255
-0.034941979 -0.04244104 0.74900001 104 105 99 255
-0.032840021 -0.042385366 0.74800003 85 89 82 255
-0.030743418 -0.042329632 0.74700004 111 115 108 255
-0.028575365 -0.0421605 0.74400002 134 138 131 255
-0.026423678 -0.041991305 0.74100006 122 123 117 255
-0.024387103 -0.04199205 0.74100006 102 106 99 255
-0.022350421 -0.041992739 0.74100006 125 126 120 255
-0.020258818 -0.041880023 0.73900002 131 133 125 255
-0.018178124 -0.041767243 0.73700005 105 107 99 255
-0.016086433 -0.041597731 0.73400003 110 111 105 255
-0.014030331 -0.041484829 0.73200005 122 124 116 255
-0.012001584 -0.041428536 0.73100001 111 113 105 255
-0.009964617 -0.041315515 0.72900003 109 110 104 255
-0.0079604406 -0.041315783 0.72900003 111 113 105 255
-0.0059317197 -0.041145962 0.72600001 130 132 124 255
-0.0039411536 -0.041202784 0.72700006 122 124 116 255
-0.0019343849 -0.041032843 0.72400004 121 122 116 255
5.6051504e-05 -0.0409762 0.72300005 124 125 119 255
0.0020353352 -0.040806141 0.72000003 121 122 116 255
0.0040092668 -0.040749379 0.71900004 125 127 119 255
0.0059776828 -0.040692557 0.71800005 115 118 106 255
0.0079294993 -0.040578999 0.71600002 106 109 97 255
0.0098841088 -0.040522065 0.71500003 106 109 97 255
0.011816604 -0.040408392 0.71300006 106 111 99 255
0.013738053 -0.04029467 0.71100003 131 136 124 255
0.015648445 -0.040180888 0.70900005 135 140 129 255
0.017572595 -0.040123727 0.708 139 144 133 255
0.019518744 -0.04012318 0.708 126 131 120 255
0.021373857 -0.039952569 0.70500004 139 144 133 255
0.023179317 -0.039725237 0.70100003 158 160 152 255
0.024998505 -0.039554518 0.69800001 129 131 123 255
0.026839664 -0.039440427 0.69600004 139 141 133 255
0.028711023 -0.039382946 0.69500005 138 139 133 255
0.03062083 -0.039382078 0.69500005 137 138 132 255
0.032483689 -0.039324488 0.69400001 137 141 134 255
0.034291372 -0.039210193 0.69200003 146 150 143 255
0.036087919 -0.039095841 0.69000006 131 135 127 255
0.037763231 -0.038868133 0.68600005 151 153 145 255
0.039531998 -0.038753692 0.68400002 141 143 135 255
0.041289616 -0.03863921 0.68200004 139 141 131 255
0.043099362 -0.038581338 0.68100005 132 134 124 255
0.044837404 -0.038466763 0.67900002 128 133 122 255
0.046495497 -0.0382955 0.67600006 134 138 130 255
0.048208453 -0.038180843 0.67400002 143 147 139 255
0.049835958 -0.038009498 0.671 130 132 122 255
0.051600829 -0.037951406 0.67000002 127 129 119 255
0.053280231 -0.03783663 0.66800004 128 130 122 255
0.055195954 -0.037891723 0.66900003 127 129 119 255
0.056946456 -0.037833501 0.66800004 123 125 117 255
0.058779232 -0.037831873 0.66800004 124 126 118 255
0.060430296 -0.037716921 0.66600001 123 123 115 255
0.062163632 -0.037658568 0.66500002 127 127 119 255
0.063987464 -0.03765681 0.66500002 118 118 110 255
0.065613121 -0.037541755 0.66300005 101 103 93 255
0.067430958 -0.037539903 0.66300005 86 89 77 255
0.068935193 -0.037368156 0.66000003 111 114 102 255
0.070851475 -0.037422843 0.66100001 121 123 113 255
0.072333261 -0.03725104 0.65800005 113 115 107 255
0.074023649 -0.037192419 0.65700001 110 112 104 255
0.075823702 -0.037190381 0.65700001 106 108 100 255
0.077859759 -0.037301503 0.65900004 100 101 89 255
0.07966473 -0.03729938 0.65900004 101 102 88 255
0.081222132 -0.037184011 0.65700001 91 92 78 255
0.082768299 -0.037068628 0.65500003 98 100 83 255
0.084303215 -0.036953215 0.65300006 119 120 106 255
0.085958704 -0.036894362 0.65200001 113 114 100 255
0.087743014 -0.036892068 0.65200001 101 102 90 255
0.08980161 -0.037002895 0.65400004 129 130 116 255
0.091590755 -0.037000522 0.65400004 115 116 104 255
0.093236804 -0.036941543 0.65300006 108 109 97 255
0.094731547 -0.036825962 0.65100002 109 110 98 255
0.096511506 -0.036823496 0.65100002 114 115 103 255
0.097989194 -0.036707882 0.64900005 113 114 102 255
0.099763043 -0.036705356 0.64900005 113 114 102 255
0.10122366 -0.036589697 0.64700001 119 120 108 255
0.1029914 -0.036587127 0.64700001 112 112 102 255
0.10459688 -0.036527976 0.64600003 130 130 122 255
0.10619656 -0.036468808 0.64500004 118 118 110 255
0.10762307 -0.036353085 0.64300001 122 122 114 255
0.10920843 -0.036293883 0.64200002 101 99 89 255
0.11113366 -0.036347717 0.64300001 104 102 92 255
0.11306404 -0.036401525 0.64400005 85 83 73 255
0.11464289 -0.036342252 0.64300001 94 91 77 255
0.11639701 -0.036339484 0.64300001 90 89 75 255
0.11796702 -0.036280185 0.64200002 89 90 76 255
0.11990419 -0.036333881 0.64300001 98 101 87 255
0.12127887 -0.036218047 0.64100003 97 102 90 255
0.12321807 -0.036271699 0.64200002 105 110 99 255
0.12496774 -0.03626883 0.64200002 105 109 101 255
0.12691444 -0.03632243 0.64300001 107 111 103 255
0.12886624 -0.036376007 0.64400005 105 109 101 255
0.13062033 -0.036373075 0.64400005 113 115 107 255
0.13237409 -0.036370128 0.64400005 100 102 92 255
0.13371094 -0.036254227 0.64200002 79 80 68 255
0.13545857 -0.036251262 0.64200002 85 84 70 255
0.13720582 -0.036248282 0.64200002 73 71 53 255
0.13895281 -0.036245294 0.64200002 89 87 69 255
0.14048025 -0.036185842 0.64100003 75 73 55 255
0.14200194 -0.036126386 0.64000005 73 73 55 255
0.14351785 -0.036066931 0.63900006 89 88 74 255
0.14570996 -0.036176793 0.64100003 82 83 69 255
0.14814267 -0.03634306 0.64400005 100 101 89 255
0.14989309 -0.036340009 0.64400005 96 96 86 255
0.15093677 -0.036167681 0.64100003 114 114 104 255
0.15244022 -0.036108214 0.64000005 112 112 102 255
0.15417883 -0.036105167 0.64000005 104 104 94 255
0.15616077 -0.036158528 0.64100003 108 109 97 255
0.1581478 -0.036211874 0.64200002 102 103 91 255
0.15964189 -0.036152419 0.64100003 109 110 98 255
0.161382 -0.036149364 0.64100003 86 88 78 255
0.16312185 -0.036146309 0.64100003 110 113 101 255
0.16511862 -0.036199648 0.64200002 106 108 98 255
0.16686061 -0.036196597 0.64200002 117 119 109 255
0.16860232 -0.03619355 0.64200002 123 125 115 255
0.17034379 -0.036190514 0.64200002 114 115 103 255
0.17181692 -0.036131114 0.64100003 127 128 116 255
0.1732844 -0.036071729 0.64000005 117 118 106 255
0.17501965 -0.036068723 0.64000005 147 148 136 255
0.17675465 -0.036065727 0.64000005 123 125 115 255
0.17876834 -0.036119089 0.64100003 134 136 128 255
0.17994243 -0.036003429 0.63900006 136 138 128 255
0.18110541 -0.035887793 0.63700002 123 125 115 255
0.18283142 -0.035884865 0.63700002 126 128 118 255
0.18513666 -0.035994612 0.63900006 119 122 110 255
0.18774498 -0.036160674 0.64200002 142 143 131 255
0.18948394 -0.036157772 0.64200002 140 141 127 255
0.19032913 -0.035985943 0.63900006 119 116 102 255
0.19236016 -0.036039401 0.64000005 116 113 97 255
0.19439645 -0.036092874 0.64100003 91 88 72 255
0.19674397 -0.036202662 0.64300001 53 50 34 255
0.19817616 -0.036143564 0.64200002 60 57 41 255
0.20022552 -0.036197085 0.64300001 63 60 44 255
0.20196612 -0.036194336 0.64300001 76 73 57 255
0.20402342 -0.036247898 0.64400005 62 58 42 255
0.206725 -0.036414046 0.64700001 61 57 40 255
0.20944278 -0.036580198 0.65000004 70 68 44 255
0.21120189 -0.03657753 0.65000004 78 74 57 255
0.21361621 -0.036687434 0.65200001 70 66 49 255
0.21670201 -0.036909893 0.65600002 67 63 47 255
0.2191433 -0.03701983 0.65800005 63 59 43 255
0.22125964 -0.03707353 0.65900004 68 62 45 255
0.22338133 -0.037127256 0.66000003 68 61 41 255
0.22584961 -0.037237268 0.66200006 74 67 47 255
0.22798486 -0.037291054 0.66300005 70 65 44 255
0.23081867 -0.037457366 0.66600001 78 75 55 255
0.2343673 -0.03773617 0.671 85 83 65 255
0.24040699 -0.038408633 0.68300003 88 88 70 255
-0.1795122 -0.051752955 0.87400001 188 195 192 255
-0.17591614 -0.051401827 0.86800003 197 202 198 255
-0.1729521 -0.051228289 0.86500007 182 188 181 255
-0.17039837 -0.051173151 0.86400002 181 187 180 255
-0.16765514 -0.051058747 0.86200005 178 182 175 255
-0.16473059 -0.050885063 0.85900003 179 182 178 255
-0.1616329 -0.050652083 0.85500002 186 189 186 255
-0.15874286 -0.05047828 0.85200006 167 170 166 255
-0.15550157 -0.050185923 0.84700006 169 170 166 255
-0.15246797 -0.049952745 0.84300005 161 162 158 255
-0.14981198 -0.049838014 0.84100002 169 172 168 255
-0.14699109 -0.04966398 0.83800006 178 182 175 255
-0.14366806 -0.049312066 0.83200002 186 190 183 255
-0.14003746 -0.048841529 0.82400006 161 167 160 255
-0.137119 -0.04860799 0.82000005 154 160 152 255
-0.13438641 -0.048433669 0.81700003 158 164 156 255
-0.13199329 -0.048377853 0.81600004 165 169 161 255
-0.12912817 -0.048144124 0.81200004 153 157 150 255
-0.12628448 -0.047910322 0.80800003 155 159 152 255
-0.12361579 -0.047735751 0.80500007 144 148 141 255
-0.12126473 -0.047679711 0.80400002 156 160 153 255
-0.11891875 -0.047623631 0.80300003 151 155 148 255
-0.11657783 -0.047567502 0.80200005 150 154 147 255
-0.11395673 -0.047392685 0.79900002 142 143 137 255
-0.11121176 -0.047158483 0.79500002 143 144 138 255
-0.10848829 -0.046924211 0.79100001 139 140 134 255
-0.10592076 -0.046749197 0.78800005 133 135 127 255
-0.10376431 -0.046752095 0.78800005 136 138 130 255
-0.10134959 -0.04663628 0.78600001 127 131 123 255
-0.098945469 -0.046520408 0.78400004 133 138 127 255
-0.096675411 -0.046463814 0.78300005 123 128 117 255
-0.094410479 -0.046407163 0.78200006 119 126 115 255
-0.091914684 -0.046231758 0.77900004 123 128 117 255
-0.089895993 -0.046293691 0.78000003 121 126 115 255
-0.08742144 -0.046118159 0.77700001 110 115 104 255
-0.085182555 -0.046061281 0.77600002 125 127 117 255
-0.082841784 -0.045944978 0.77400005 128 133 119 255
-0.080928832 -0.046066068 0.77600002 111 116 102 255
-0.078699939 -0.046009008 0.77500004 123 128 107 255
-0.076476254 -0.045951903 0.77400005 122 126 108 255
-0.074257746 -0.045894735 0.77300006 114 116 99 255
-0.072044425 -0.045837499 0.77200001 111 112 98 255
-0.069655158 -0.045661446 0.76900005 124 125 113 255
-0.067457736 -0.045604084 0.76800001 110 111 99 255
-0.065180451 -0.045487281 0.76600003 117 120 108 255
-0.063078575 -0.045489185 0.76600003 108 111 99 255
-0.060896847 -0.045431636 0.76500005 111 114 100 255
-0.058797222 -0.045433424 0.76500005 107 110 98 255
-0.056549128 -0.045316361 0.76300001 114 114 106 255
-0.054383151 -0.04525863 0.76200002 123 123 115 255
-0.052085206 -0.045082044 0.75900006 132 133 127 255
-0.049935266 -0.045024183 0.75800002 117 118 112 255
-0.047790624 -0.044966254 0.75700003 104 106 98 255
-0.045651272 -0.044908267 0.75600004 106 109 97 255
-0.043574858 -0.044909615 0.75600004 96 97 85 255
-0.041443374 -0.044851501 0.75500005 99 100 88 255
-0.03926507 -0.044733912 0.75300002 114 114 104 255
-0.036998793 -0.044497442 0.74900001 124 126 118 255
-0.034894291 -0.04443913 0.74800003 121 122 116 255
-0.032795139 -0.044380751 0.74700004 109 113 106 255
-0.030742496 -0.044381723 0.74700004 118 122 114 255
-0.028612914 -0.044263806 0.74500006 112 114 106 255
-0.026494201 -0.044145823 0.74300003 115 117 109 255
-0.024353459 -0.043968353 0.74000001 112 113 107 255
-0.022289427 -0.043909654 0.73900002 139 140 134 255
-0.020230796 -0.043850891 0.73800004 121 123 115 255
-0.018177576 -0.043792062 0.73700005 127 129 121 255
-0.016085947 -0.043614335 0.73400003 114 116 108 255
-0.014049075 -0.043555375 0.73300004 113 115 107 255
-0.012001222 -0.043436937 0.73100001 119 121 113 255
-0.0099779833 -0.043377854 0.73000002 117 119 111 255
-0.0079492806 -0.043259289 0.72800004 112 114 106 255
-0.0059315409 -0.043140661 0.72600001 113 115 107 255
-0.0039301924 -0.043081388 0.72500002 106 108 100 255
-0.0019316545 -0.042962637 0.72300005 104 105 99 255
5.5894761e-05 -0.042843819 0.72100002 112 114 106 255
0.0020324469 -0.042724937 0.71900004 129 131 123 255
0.0039979932 -0.042606 0.71700001 138 140 130 255
0.0059691761 -0.042605847 0.71700001 115 118 106 255
0.007929259 -0.042546209 0.71600002 129 131 121 255
0.0098699862 -0.042427089 0.71400005 126 128 118 255
0.011783102 -0.042248495 0.71100003 134 137 125 255
0.013718315 -0.042188678 0.71000004 113 118 106 255
0.015625902 -0.042069383 0.708 102 107 96 255
0.017547246 -0.04200945 0.70700002 126 131 120 255
0.019463019 -0.041949462 0.70600003 114 119 108 255
0.021342896 -0.04183 0.70400006 137 142 131 255
0.023112491 -0.041532233 0.69900006 136 138 130 255
0.024926126 -0.041353244 0.69600004 139 141 133 255
0.026761733 -0.041233618 0.69400001 135 136 130 255
0.028668851 -0.041232768 0.69400001 135 136 130 255
0.030575853 -0.041231867 0.69400001 137 139 131 255
0.032482721 -0.041230898 0.69400001 141 145 137 255
0.034240801 -0.041051656 0.69100004 145 149 141 255
0.035929952 -0.040812954 0.68700004 136 140 132 255
0.037652016 -0.040633611 0.68400002 141 143 135 255
0.03941524 -0.040513635 0.68200004 143 145 135 255
0.041167311 -0.040393606 0.68000001 139 144 132 255
0.043034803 -0.040392336 0.68000001 122 127 116 255
0.04470402 -0.040212814 0.67700005 123 130 118 255
0.046425346 -0.040092643 0.67500001 125 129 121 255
0.048135519 -0.039972439 0.67300004 121 125 117 255
0.049983036 -0.039970968 0.67300004 128 132 124 255
0.051676333 -0.039850667 0.671 138 140 132 255
0.053358436 -0.039730322 0.66900003 119 121 113 255
0.055194356 -0.039728716 0.66900003 127 129 121 255
0.057030052 -0.039727047 0.66900003 125 127 119 255
0.058865517 -0.039725337 0.66900003 100 102 94 255
0.060519293 -0.039604824 0.66700006 103 103 95 255
0.062255327 -0.039543644 0.66600001 104 104 94 255
0.063889414 -0.039423048 0.66400003 87 87 77 255
0.065512292 -0.039302427 0.66200006 105 106 94 255
0.067225635 -0.039241124 0.66100001 134 135 123 255
0.068933256 -0.039179791 0.66000003 120 121 109 255
0.070849478 -0.03923713 0.66100001 124 126 116 255
0.072331227 -0.039057001 0.65800005 109 111 103 255
0.074021593 -0.038995549 0.65700001 84 86 78 255
0.075706184 -0.038934059 0.65600002 84 84 74 255
0.07773947 -0.039050583 0.65800005 89 90 78 255
0.079541646 -0.039048355 0.65800005 90 91 77 255
0.081219897 -0.038986746 0.65700001 101 102 88 255
0.082639679 -0.038806435 0.65400004 89 91 74 255
0.08430092 -0.03874477 0.65300006 113 117 100 255
0.085956372 -0.038683068 0.65200001 104 108 91 255
0.08800979 -0.038799323 0.65400004 110 113 99 255
0.089799203 -0.038796876 0.65400004 133 134 120 255
0.091588303 -0.038794387 0.65400004 130 131 119 255
0.093091533 -0.038673233 0.65200001 112 113 101 255
0.094729021 -0.038611379 0.65100002 119 120 108 255
0.096360736 -0.038549494 0.65000004 122 123 111 255
0.097986631 -0.038487583 0.64900005 117 120 108 255
0.099453017 -0.038366344 0.64700001 127 130 116 255
0.10090816 -0.038245097 0.64500004 115 116 104 255
0.10251123 -0.038183123 0.64400005 107 107 97 255
0.10427039 -0.038180407 0.64400005 134 134 126 255
0.10602924 -0.038177673 0.64400005 125 125 117 255
0.10762036 -0.038115624 0.64300001 113 113 105 255
0.1092057 -0.038053554 0.64200002 115 112 105 255
0.11078524 -0.037991472 0.64100003 89 85 75 255
0.11253454 -0.037988633 0.64100003 112 108 97 255
0.11446179 -0.03804503 0.64200002 99 96 82 255
0.11603214 -0.037982885 0.64100003 106 105 91 255
0.11778042 -0.037979975 0.64100003 91 92 78 255
0.11971483 -0.038036287 0.64200002 78 79 65 255
0.12165436 -0.038092569 0.64300001 94 97 85 255
0.12340707 -0.038089581 0.64300001 94 96 86 255
0.1249648 -0.038027339 0.64200002 112 114 106 255
0.12671411 -0.038024325 0.64200002 99 101 91 255
0.12866315 -0.038080506 0.64300001 129 131 123 255
0.13041449 -0.038077444 0.64300001 94 96 86 255
0.13216552 -0.03807437 0.64300001 104 106 96 255
0.13370791 -0.038012069 0.64200002 94 95 83 255
0.13524452 -0.037949763 0.64100003 90 89 73 255
0.13656166 -0.037828255 0.63900006 84 82 64 255
0.13851687 -0.03788434 0.64000005 75 73 55 255
0.14025803 -0.037881207 0.64000005 81 79 61 255
0.14177699 -0.037818883 0.63900006 77 74 58 255
0.14329018 -0.037756559 0.63800001 95 93 82 255
0.14525224 -0.037812583 0.63900006 95 96 84 255
0.14767948 -0.037986927 0.64200002 104 105 93 255
0.14965719 -0.03804291 0.64300001 93 93 83 255
0.15093365 -0.037921399 0.64100003 98 98 88 255
0.15243709 -0.037859056 0.64000005 106 106 96 255
0.15417573 -0.037855875 0.64000005 113 113 105 255
0.15615763 -0.037911829 0.64100003 113 114 102 255
0.15765202 -0.037849493 0.64000005 91 92 80 255
0.15914068 -0.037787173 0.63900006 93 96 84 255
0.16062361 -0.037724853 0.63800001 112 114 104 255
0.1623553 -0.037721675 0.63800001 114 119 108 255
0.16408671 -0.037718501 0.63800001 127 132 121 255
0.16581787 -0.037715334 0.63800001 126 128 118 255
0.16781136 -0.037771281 0.63900006 157 160 148 255
0.1695447 -0.037768118 0.63900006 131 134 122 255
0.17127775 -0.037764963 0.63900006 139 139 129 255
0.17273979 -0.037702713 0.63800001 128 128 118 255
0.17446965 -0.037699584 0.63800001 119 119 109 255
0.17619924 -0.037696458 0.63800001 131 131 123 255
0.17792861 -0.037693344 0.63800001 124 125 119 255
0.1793762 -0.037631176 0.63700002 137 139 131 255
0.18081811 -0.037569027 0.63600004 133 135 125 255
0.18254142 -0.037565969 0.63600004 125 127 117 255
0.18426451 -0.037562925 0.63600004 140 141 127 255
0.18657227 -0.037678011 0.63800001 128 129 115 255
0.18859556 -0.03773405 0.63900006 128 127 113 255
0.19002837 -0.037672002 0.63800001 103 100 86 255
0.19235729 -0.037787113 0.64000005 91 88 72 255
0.19469683 -0.037902225 0.64200002 47 45 27 255
0.19643515 -0.037899278 0.64200002 46 42 25 255
0.19817328 -0.037896354 0.64200002 66 64 46 255
0.19991133 -0.037893459 0.64200002 70 68 50 255
0.20227744 -0.03800863 0.64400005 87 84 68 255
0.20402063 -0.038005777 0.64400005 85 82 66 255
0.20672223 -0.03817999 0.64700001 89 85 74 255
0.20847337 -0.038177188 0.64700001 68 64 53 255
0.21087427 -0.038292423 0.64900005 71 67 53 255
0.21263067 -0.038289677 0.64900005 71 67 51 255
0.21570836 -0.038522948 0.65300006 72 68 52 255
0.21814153 -0.038638234 0.65500003 65 59 42 255
0.22058551 -0.038753543 0.65700001 66 60 43 255
0.2223634 -0.038750917 0.65700001 74 67 47 255
0.22482361 -0.038866285 0.65900004 75 68 47 255
0.22660692 -0.038863733 0.65900004 78 71 48 255
0.2294299 -0.039038133 0.66200006 69 64 43 255
0.23191993 -0.039153587 0.66400003 70 67 46 255
0.23688471 -0.039681811 0.67300004 67 65 47 255
-0.178481 -0.053836297 0.86900002 197 204 200 255
-0.17530391 -0.053592812 0.86500007 189 195 188 255
-0.17254801 -0.053473186 0.86300004 185 191 184 255
-0.16999976 -0.053415481 0.86200005 184 190 183 255
-0.16745654 -0.053357743 0.86100006 189 193 186 255
-0.16434298 -0.053114031 0.85700005 174 178 171 255
-0.16106173 -0.052808277 0.85200006 173 177 170 255
-0.15817992 -0.052626412 0.84900004 167 171 164 255
-0.15513046 -0.052382506 0.84500003 160 164 157 255
-0.15228322 -0.052200522 0.84200007 159 163 156 255
-0.14945188 -0.052018479 0.83900005 166 170 163 255
-0.14681186 -0.051898371 0.83700001 175 181 174 255
-0.14331897 -0.051468175 0.83000004 168 174 166 255
-0.1396939 -0.050975848 0.82200003 164 170 162 255
-0.13694815 -0.050793521 0.81900007 151 157 149 255
-0.13405387 -0.050549101 0.81500006 158 162 154 255
-0.13166627 -0.050490692 0.81400001 157 161 153 255
-0.12896568 -0.050308168 0.81100005 148 152 145 255
-0.12628105 -0.050125584 0.80800003 142 146 139 255
-0.12361243 -0.049942926 0.80500007 153 157 150 255
-0.12095977 -0.049760204 0.80200005 144 148 141 255
-0.11861929 -0.049701512 0.80100006 144 145 139 255
-0.11613853 -0.049580712 0.79900002 148 149 143 255
-0.11381096 -0.049521916 0.79800004 141 142 136 255
-0.11106877 -0.049276873 0.79400003 141 145 138 255
-0.10848525 -0.049093828 0.79100001 131 135 128 255
-0.10591778 -0.048910707 0.78800005 147 152 141 255
-0.10362969 -0.048851661 0.78700006 130 135 123 255
-0.10121778 -0.048730481 0.78500003 128 133 121 255
-0.099068843 -0.048733406 0.78500003 128 133 119 255
-0.096672632 -0.048612103 0.78300005 117 122 110 255
-0.094407752 -0.048552833 0.78200006 117 122 110 255
-0.092030011 -0.048431404 0.78000003 126 129 117 255
-0.089778133 -0.048372008 0.77900004 112 117 105 255
-0.087418884 -0.048250452 0.77700001 121 126 114 255
-0.085289821 -0.048253037 0.77700001 118 121 107 255
-0.082946375 -0.048131354 0.77500004 117 123 106 255
-0.080822147 -0.04813382 0.77500004 116 122 105 255
-0.078494519 -0.048012011 0.77300006 124 127 115 255
-0.076375172 -0.048014365 0.77300006 110 111 99 255
-0.074063398 -0.047892421 0.77100003 102 102 94 255
-0.071948946 -0.047894653 0.77100003 110 112 102 255
-0.06956248 -0.047710452 0.76800001 123 123 113 255
-0.067367867 -0.047650438 0.76700002 109 111 101 255
-0.065093391 -0.047528226 0.76500005 107 110 98 255
-0.06307666 -0.047592334 0.76600003 115 118 106 255
-0.060974602 -0.04759426 0.76600003 114 117 105 255
-0.058795426 -0.047533993 0.76500005 113 116 104 255
-0.0565474 -0.047411516 0.76300001 116 118 108 255
-0.054310117 -0.047288965 0.76100004 89 93 85 255
-0.052083604 -0.047166359 0.75900006 109 113 105 255
-0.049999606 -0.047167961 0.75900006 107 109 99 255
-0.047726016 -0.046983059 0.75600004 103 105 95 255
-0.045589473 -0.046922386 0.75500005 102 105 93 255
-0.043458235 -0.046861641 0.75400001 113 114 102 255
-0.041387197 -0.046862986 0.75400001 107 110 98 255
-0.039263844 -0.046802111 0.75300002 99 102 90 255
-0.037047036 -0.04661686 0.75000006 95 98 86 255
-0.0348932 -0.046493694 0.74800003 100 102 92 255
-0.032794114 -0.046432614 0.74700004 102 107 95 255
-0.030700382 -0.046371467 0.74600005 119 124 112 255
-0.028612018 -0.046310257 0.74500006 119 121 111 255
-0.02645771 -0.046124652 0.74200004 118 120 110 255
-0.024352692 -0.046001144 0.74000001 115 117 109 255
-0.022258565 -0.045877565 0.73800004 105 107 99 255
-0.020202748 -0.045816086 0.73700005 96 98 88 255
-0.018152341 -0.045754533 0.73600006 102 104 94 255
-0.016063524 -0.045568582 0.73300004 110 112 102 255
-0.014010299 -0.045444727 0.73100001 109 111 101 255
-0.011984427 -0.045382984 0.73000002 117 119 109 255
-0.0099640004 -0.045321167 0.72900003 123 125 115 255
-0.0079381112 -0.045197122 0.72700006 113 115 105 255
-0.0059313527 -0.045135166 0.72600001 121 123 113 255
-0.0039192266 -0.044948824 0.72300005 108 110 100 255
-0.0019315936 -0.044948921 0.72300005 105 107 99 255
5.5815468e-05 -0.044762436 0.72000003 91 93 85 255
0.0020323826 -0.044700235 0.71900004 86 88 80 255
0.0040034428 -0.044637971 0.71800005 110 111 105 255
0.0059773126 -0.044637803 0.71800005 121 122 116 255
0.0079400819 -0.044575408 0.71700001 137 141 134 255
0.0098696742 -0.044388615 0.71400005 133 137 130 255
0.011815875 -0.0443261 0.71300006 134 138 131 255
0.013737204 -0.044201352 0.71100003 115 119 111 255
0.015647482 -0.044076543 0.70900005 119 123 115 255
0.017521877 -0.043889508 0.70600003 120 124 116 255
0.019407274 -0.043764584 0.70400006 142 146 138 255
0.021281591 -0.043639593 0.70200002 131 136 125 255
0.023078699 -0.043390226 0.69800001 140 142 134 255
0.024889534 -0.04320297 0.69500005 135 135 127 255
0.026683776 -0.043015655 0.69200003 144 143 137 255
0.028544031 -0.042952608 0.69100004 146 145 139 255
0.030486783 -0.043013826 0.69200003 139 138 132 255
0.032341301 -0.042950671 0.69100004 146 147 141 255
0.034190182 -0.042887449 0.69000006 151 152 146 255
0.035824236 -0.042575568 0.68500006 139 143 136 255
0.03754076 -0.042387944 0.68200004 142 143 137 255
0.039240643 -0.042200267 0.67900002 138 142 134 255
0.041044962 -0.042136848 0.67800003 127 132 121 255
0.042843621 -0.042073376 0.67700005 118 123 112 255
0.04457058 -0.041947708 0.67500001 132 139 128 255
0.046286374 -0.041821994 0.67300004 140 144 136 255
0.048062522 -0.041758377 0.67200005 134 138 131 255
0.049907241 -0.041756842 0.67200005 138 139 133 255
0.051751774 -0.041755263 0.67200005 149 150 144 255
0.053436566 -0.041629352 0.67000002 124 125 119 255
0.055192679 -0.041565534 0.66900003 135 136 130 255
0.056943085 -0.041501671 0.66800004 123 125 117 255
0.058775757 -0.041499887 0.66800004 114 116 106 255
0.060336016 -0.041311681 0.66500002 104 106 96 255
0.062066518 -0.041247685 0.66400003 107 109 99 255
0.06379129 -0.041183647 0.66300005 98 98 88 255
0.065411381 -0.041057449 0.66100001 128 128 118 255
0.067020252 -0.040931214 0.65900004 119 117 107 255
0.068826765 -0.040929157 0.65900004 99 100 88 255
0.070633031 -0.040927056 0.65900004 90 90 80 255
0.072219178 -0.040800706 0.65700001 93 95 87 255
0.073906757 -0.040736422 0.65600002 87 89 81 255
0.075934798 -0.040858388 0.65800005 97 99 89 255
0.077619068 -0.040794011 0.65700001 103 105 95 255
0.079418458 -0.040791694 0.65700001 98 101 89 255
0.080970332 -0.040665165 0.65500003 113 116 104 255
0.08263731 -0.040600687 0.65400004 110 113 101 255
0.084298521 -0.040536176 0.65300006 108 111 97 255
0.085953943 -0.040471632 0.65200001 113 116 102 255
0.087872744 -0.040531192 0.65300006 113 116 102 255
0.089659385 -0.04052864 0.65300006 118 119 105 255
0.091585755 -0.040588114 0.65400004 113 114 100 255
0.093088955 -0.040461365 0.65200001 116 117 105 255
0.094580904 -0.040334597 0.65000004 113 114 102 255
0.096061587 -0.040207814 0.648 121 124 112 255
0.097681999 -0.040143054 0.64700001 115 120 109 255
0.099296615 -0.040078267 0.64600003 114 119 107 255
0.10074899 -0.039951421 0.64400005 135 140 129 255
0.10234929 -0.03988659 0.64300001 144 146 138 255
0.10394379 -0.039821737 0.64200002 120 121 115 255
0.10569713 -0.039818883 0.64200002 111 112 106 255
0.10745015 -0.039816003 0.64200002 103 104 98 255
0.10920282 -0.03981309 0.64200002 121 118 112 255
0.11078235 -0.03974814 0.64100003 96 93 87 255
0.11253162 -0.039745178 0.64100003 94 92 82 255
0.11445885 -0.039804194 0.64200002 88 86 76 255
0.11602918 -0.03973918 0.64100003 101 99 89 255
0.11796116 -0.039798133 0.64200002 106 106 96 255
0.11989829 -0.039857052 0.64300001 92 94 84 255
0.12184051 -0.039915942 0.64400005 93 93 85 255
0.12321208 -0.039788865 0.64200002 118 118 110 255
0.12476707 -0.039723761 0.64100003 108 108 98 255
0.12631626 -0.039658647 0.64000005 95 95 85 255
0.12825985 -0.039717447 0.64100003 85 85 75 255
0.13000573 -0.039714262 0.64100003 95 96 84 255
0.13175128 -0.039711062 0.64100003 91 92 80 255
0.13328823 -0.039645903 0.64000005 111 112 98 255
0.13481939 -0.039580729 0.63900006 75 77 60 255
0.13634476 -0.039515551 0.63800001 90 87 71 255
0.13829726 -0.039574247 0.63900006 61 58 42 255
0.14003567 -0.039570983 0.63900006 79 77 59 255
0.14155191 -0.039505791 0.63800001 91 88 72 255
0.14306238 -0.039440595 0.63700002 95 93 82 255
0.14502171 -0.039499223 0.63800001 94 95 81 255
0.14721619 -0.039619744 0.64000005 99 100 88 255
0.14918847 -0.039678335 0.64100003 107 108 96 255
0.15069494 -0.039613117 0.64000005 102 102 92 255
0.15219568 -0.039547905 0.63900006 111 111 101 255
0.15417247 -0.039606471 0.64000005 117 117 107 255
0.15639798 -0.039726906 0.64200002 110 111 99 255
0.1581414 -0.039723564 0.64200002 90 91 79 255
0.15938646 -0.039596487 0.64000005 79 82 70 255
0.16062038 -0.039469432 0.63800001 125 128 116 255
0.16209757 -0.039404254 0.63700002 126 131 119 255
0.1638263 -0.039400954 0.63700002 133 140 128 255
0.16581465 -0.039459497 0.63800001 121 126 114 255
0.16754551 -0.039456196 0.63800001 122 127 113 255
0.16954146 -0.039514743 0.63900006 129 132 118 255
0.17100649 -0.03944961 0.63800001 135 135 125 255
0.17246585 -0.039384507 0.63700002 125 125 117 255
0.17419298 -0.03938124 0.63700002 121 120 114 255
0.17591989 -0.039377987 0.63700002 137 136 130 255
0.17764659 -0.03937475 0.63700002 132 133 127 255
0.17909145 -0.039309714 0.63600004 131 132 126 255
0.18053068 -0.039244708 0.63500005 134 136 128 255
0.1822513 -0.039241523 0.63500005 130 132 122 255
0.1842614 -0.039300147 0.63600004 127 130 116 255
0.18656917 -0.039420564 0.63800001 116 117 103 255
0.18859248 -0.039479204 0.63900006 100 99 85 255
0.19032317 -0.039476078 0.63900006 70 67 53 255
0.19265479 -0.039596513 0.64100003 50 47 33 255
0.1946938 -0.03965519 0.64200002 44 41 25 255
0.19643214 -0.039652117 0.64200002 65 63 45 255
0.19755299 -0.039525554 0.64000005 88 86 68 255
0.19928561 -0.03952254 0.64000005 81 79 61 255
0.20164631 -0.039643057 0.64200002 86 84 66 255
0.20401774 -0.039763585 0.64400005 86 83 67 255
0.20608038 -0.039822385 0.64500004 77 74 60 255
0.20814833 -0.039881211 0.64600003 64 60 46 255
0.2102216 -0.039940055 0.64700001 71 67 50 255
0.21197265 -0.039937209 0.64700001 66 62 45 255
0.2147146 -0.040119562 0.65000004 64 60 43 255
0.21780576 -0.040363643 0.65400004 65 59 42 255
0.22024709 -0.040484302 0.65600002 61 55 38 255
0.22168386 -0.040419862 0.65500003 69 64 44 255
0.2237975 -0.040478874 0.65600002 71 64 41 255
0.22591659 -0.040537927 0.65700001 78 73 43 255
0.22873421 -0.040720414 0.66000003 73 69 45 255
0.23086959 -0.040779535 0.66100001 69 67 47 255
0.23477034 -0.04114715 0.66700006 74 72 54 255
0.24118638 -0.041946564 0.68000001 80 78 60 255
-0.18125874 -0.056340367 0.87100005 194 202 199 255
-0.17765504 -0.055956785 0.86500007 188 196 189 255
-0.17469154 -0.055767197 0.86200005 186 194 187 255
-0.17214379 -0.055706955 0.86100006 180 186 179 255
-0.16960099 -0.055646673 0.86000001 178 184 177 255
-0.16686876 -0.055521648 0.85800004 166 172 165 255
-0.16337992 -0.055137716 0.85200006 166 172 165 255
-0.16030142 -0.054883137 0.84800005 151 157 150 255
-0.15780316 -0.054822657 0.84700006 155 159 152 255
-0.15512635 -0.054697409 0.84500003 145 149 141 255
-0.15246001 -0.054572113 0.84300005 160 164 157 255
-0.14944787 -0.054317269 0.83900005 170 176 169 255
-0.1462817 -0.053997621 0.83400005 170 176 169 255
-0.14279707 -0.053548381 0.82700002 158 164 156 255
-0.13952014 -0.053163789 0.82100004 153 160 149 255
-0.13660996 -0.052908622 0.81700003 152 159 148 255
-0.13388568 -0.052718151 0.81400001 149 155 147 255
-0.13150086 -0.05265715 0.81300002 154 158 150 255
-0.12880304 -0.052466553 0.81000006 141 145 138 255
-0.12596492 -0.052211095 0.80600005 133 137 130 255
-0.12330181 -0.052020356 0.80300003 132 136 129 255
-0.12065466 -0.051829543 0.80000001 133 137 130 255
-0.11831971 -0.05176824 0.79900002 144 145 139 255
-0.11569915 -0.051577296 0.79600006 148 149 143 255
-0.11309457 -0.051386274 0.79300004 146 147 141 255
-0.11050601 -0.051195182 0.79000002 155 156 150 255
-0.10807064 -0.051068828 0.78800005 135 139 132 255
-0.10564584 -0.050942406 0.78600001 134 139 128 255
-0.10336328 -0.050880734 0.78500003 122 127 115 255
-0.10108583 -0.05081901 0.78400004 127 132 118 255
-0.098939687 -0.050822053 0.78400004 118 123 109 255
-0.096669741 -0.050760213 0.78300005 114 119 107 255
-0.094404913 -0.05069831 0.78200006 108 113 101 255
-0.092145205 -0.050636344 0.78100002 119 122 110 255
-0.089890651 -0.050574321 0.78000003 119 122 110 255
-0.087528728 -0.050447393 0.77800006 122 124 114 255
-0.085287213 -0.05038524 0.77700001 116 119 107 255
-0.082943819 -0.050258178 0.77500004 114 117 105 255
-0.080715366 -0.050195895 0.77400005 109 112 100 255
-0.078390546 -0.050068695 0.77200001 113 115 105 255
-0.076273993 -0.050071139 0.77200001 87 89 79 255
-0.073965035 -0.049943797 0.77000004 100 101 95 255
-0.071760066 -0.049881265 0.76900005 98 100 92 255
-0.069469728 -0.049753781 0.76700002 117 119 109 255
-0.067365751 -0.049755972 0.76700002 111 113 103 255
-0.065176427 -0.049693231 0.76600003 98 103 91 255
-0.063157015 -0.04976017 0.76700002 102 107 93 255
-0.061052263 -0.049762182 0.76700002 100 103 89 255
-0.058793556 -0.049634364 0.76500005 109 112 100 255
-0.056397375 -0.049376704 0.76100004 105 108 96 255
-0.054165654 -0.049248736 0.75900006 104 109 98 255
-0.052013315 -0.049185582 0.75800002 104 106 96 255
-0.04993213 -0.04918725 0.75800002 105 107 97 255
-0.047661353 -0.048994172 0.75500005 102 104 96 255
-0.045527618 -0.048930813 0.75400001 112 114 104 255
-0.043341558 -0.048802491 0.75200003 110 113 101 255
-0.041276082 -0.048803885 0.75200003 110 113 101 255
-0.039106153 -0.048675414 0.75000006 111 114 102 255
-0.036996439 -0.048611771 0.74900001 100 103 89 255
-0.034892067 -0.048548061 0.74800003 100 103 91 255
-0.032749146 -0.048419379 0.74600005 102 105 93 255
-0.030617075 -0.048290621 0.74400002 104 107 93 255
-0.028534273 -0.048226699 0.74300003 97 100 88 255
-0.026456846 -0.04816271 0.74200004 120 123 111 255
-0.024351893 -0.048033737 0.74000001 113 115 105 255
-0.022197515 -0.047774874 0.73600006 98 103 92 255
-0.02014726 -0.047710672 0.73500001 101 106 94 255
-0.018102419 -0.0476464 0.73400003 113 116 104 255
-0.016062995 -0.04758206 0.73300004 119 122 110 255
-0.014029005 -0.04751765 0.73200005 120 123 111 255
-0.011984032 -0.047388252 0.73000002 119 121 111 255
-0.0099500045 -0.047258798 0.72800004 115 117 107 255
-0.0079160109 -0.047064345 0.72500002 126 128 118 255
-0.0059229876 -0.047064576 0.72500002 105 107 97 255
-0.0039190976 -0.046934906 0.72300005 108 108 98 255
-0.0019315298 -0.046935011 0.72300005 102 104 96 255
5.5813634e-05 -0.04674029 0.72000003 108 110 102 255
0.0020351422 -0.046740253 0.72000003 124 125 119 255
0.004003311 -0.046610318 0.71800005 112 113 107 255
0.0059604663 -0.046480317 0.71600002 120 121 115 255
0.0079066008 -0.046350256 0.71400005 118 122 115 255
0.0098417029 -0.04622012 0.71200001 130 134 127 255
0.011765769 -0.046089925 0.71000004 145 149 142 255
0.01369811 -0.04602458 0.70900005 135 139 132 255
0.015602828 -0.045894265 0.70700002 129 133 126 255
0.017471666 -0.045698971 0.70400006 147 151 144 255
0.01929637 -0.045438696 0.70000005 130 134 126 255
0.021189952 -0.045373112 0.69900006 121 125 117 255
0.023011817 -0.045177635 0.69600004 130 132 124 255
0.024888719 -0.045111928 0.69500005 126 126 118 255
0.026682904 -0.044916343 0.69200003 136 135 129 255
0.028584406 -0.044915415 0.69200003 147 146 140 255
0.030397685 -0.044784624 0.69000006 146 147 141 255
0.032246638 -0.044718675 0.68900001 153 154 148 255
0.034040425 -0.044587772 0.68700004 158 162 155 255
0.035770774 -0.044391908 0.68400002 148 152 145 255
0.037539542 -0.0442609 0.68200004 160 161 155 255
0.039239377 -0.044064939 0.67900002 143 144 138 255
0.040983107 -0.043933831 0.67700005 140 142 134 255
0.042778958 -0.043867555 0.67600006 140 145 134 255
0.044503123 -0.043736339 0.67400002 144 149 138 255
0.046216115 -0.043605074 0.67200005 132 137 126 255
0.047917947 -0.043473762 0.67000002 136 140 132 255
0.049831387 -0.043537054 0.671 118 119 113 255
0.0515191 -0.043405645 0.66900003 134 135 129 255
0.053275369 -0.043339066 0.66800004 114 115 111 255
0.054943435 -0.04320756 0.66600001 117 118 112 255
0.056770809 -0.043205764 0.66600001 130 132 124 255
0.058597937 -0.043203901 0.66600001 122 127 116 255
0.060243402 -0.043072268 0.66400003 103 108 97 255
0.061877638 -0.042940583 0.66200006 106 109 97 255
0.063693099 -0.042938586 0.66200006 111 113 103 255
0.065409347 -0.042871673 0.66100001 113 113 103 255
0.067018174 -0.042739864 0.65900004 115 113 103 255
0.068615764 -0.042608019 0.65700001 112 113 101 255
0.070416503 -0.042605836 0.65700001 107 107 97 255
0.072216965 -0.042603604 0.65700001 107 107 97 255
0.074017167 -0.042601328 0.65700001 106 108 98 255
0.075932488 -0.04266385 0.65800005 89 91 83 255
0.077616714 -0.042596631 0.65700001 106 106 98 255
0.079174332 -0.042464558 0.65500003 118 120 110 255
0.080844291 -0.042397276 0.65400004 112 114 106 255
0.082508504 -0.042329963 0.65300006 121 124 112 255
0.084296018 -0.04232743 0.65300006 122 125 113 255
0.085951395 -0.042260032 0.65200001 116 119 107 255
