ply
format ascii 1.0
comment PCL generated
element vertex 963
property float x
property float y
property float z
property uchar red
property uchar green
property uchar blue
property uchar alpha
element camera 0
property float view_px
property float view_py
property float view_pz
property float x_axisx
property float x_axisy
property float x_axisz
property float y_axisx
property float y_axisy
property float y_axisz
property float z_axisx
property float z_axisy
property float z_axisz
property float focal
property float scalex
property float scaley
property float centerx
property float centery
property int viewportx
property int viewporty
property float k1
property float k2
end_header
0.011627003 -0.16479538 0.60500002 55 55 35 255
0.013281253 -0.1647943 0.60500002 47 47 29 255
0.014910785 -0.16452073 0.60400003 42 40 22 255
0.016507387 -0.16397461 0.60200006 47 45 27 255
0.018153321 -0.16397315 0.60200006 48 45 29 255
0.019766318 -0.16369915 0.60100001 41 39 21 255
0.02140942 -0.16369739 0.60100001 43 41 23 255
0.022937398 -0.16287841 0.59800005 43 41 21 255
0.024490008 -0.16233166 0.59600002 49 48 26 255
0.026075445 -0.16205715 0.59500003 47 46 24 255
0.027701905 -0.1620549 0.59500003 46 44 24 255
0.029377589 -0.16232486 0.59600002 46 44 24 255
0.03100664 -0.16232231 0.59600002 45 43 25 255
0.032526102 -0.16177498 0.59400004 45 43 25 255
0.034034546 -0.16122751 0.59200001 47 46 24 255
0.035652425 -0.16122459 0.59200001 45 44 20 255
0.037207261 -0.16094925 0.59100002 44 43 19 255
0.038690858 -0.16040148 0.58900005 42 41 19 255
0.040300265 -0.16039822 0.58900005 41 40 18 255
0.041980729 -0.16066715 0.59000003 41 40 18 255
0.043666556 -0.16093597 0.59100002 41 40 18 255
0.04505128 -0.16011542 0.588 46 44 24 255
0.046419501 -0.15929481 0.58500004 40 38 18 255
0.047935389 -0.15901871 0.58400005 46 44 24 255
0.049530514 -0.15901478 0.58400005 46 44 24 255
0.051037971 -0.15873845 0.583 39 37 17 255
0.052539859 -0.15846205 0.58200002 41 40 18 255
0.054129168 -0.1584578 0.58200002 45 43 23 255
0.055622626 -0.15818121 0.58100003 44 42 22 255
0.057110488 -0.15790452 0.58000004 47 45 25 255
0.05859277 -0.15762775 0.57900006 46 43 22 255
0.060277309 -0.15789537 0.58000004 42 39 19 255
0.061647207 -0.15734614 0.57800001 45 40 19 255
0.06322483 -0.15734135 0.57800001 43 40 19 255
0.064802319 -0.15733643 0.57800001 40 38 14 255
0.066494517 -0.15760365 0.57900006 42 40 16 255
0.068309598 -0.15814294 0.58100003 47 42 21 255
0.069774553 -0.15786555 0.58000004 45 40 19 255
0.07135693 -0.15786026 0.58000004 47 42 21 255
0.072436139 -0.15676624 0.57600003 45 40 19 255
0.074007317 -0.15676084 0.57600003 46 41 20 255
0.075971998 -0.15757179 0.57900006 42 38 14 255
0.077685006 -0.15783833 0.58000004 48 41 18 255
0.079403326 -0.15810479 0.58100003 47 40 19 255
0.080708757 -0.15755481 0.57900006 49 42 21 255
0.082429484 -0.1578211 0.58000004 47 42 22 255
0.083865859 -0.15754314 0.57900006 45 40 20 255
0.085591741 -0.15780929 0.58000004 45 40 20 255
0.087322906 -0.15807533 0.58100003 41 36 16 255
0.088906378 -0.15806928 0.58100003 44 39 19 255
0.090801172 -0.15860724 0.583 55 48 28 255
0.092548259 -0.1588731 0.58400005 57 50 30 255
0.094461828 -0.15941089 0.58600003 55 48 28 255
0.096222207 -0.15967657 0.58700001 55 46 25 255
0.097987883 -0.15994219 0.588 58 47 26 255
0.099758871 -0.16020778 0.58900005 58 49 28 255
0.10153513 -0.16047324 0.59000003 57 48 27 255
0.10366633 -0.16128266 0.59300005 55 46 25 255
0.10563616 -0.16181998 0.59500003 51 42 21 255
0.10761674 -0.16235721 0.597 52 42 23 255
0.1092421 -0.16235051 0.597 55 46 25 255
0.1112387 -0.16288766 0.59900004 52 43 20 255
0.11305764 -0.16315281 0.60000002 56 46 21 255
0.11507301 -0.16368984 0.60200006 59 49 24 255
0.11709912 -0.1642268 0.60400003 55 47 22 255
0.11933256 -0.16503559 0.60700005 54 45 22 255
0.12158218 -0.16584429 0.61000001 58 51 30 255
0.12344391 -0.16610922 0.611 61 55 38 255
0.12633476 -0.16773339 0.61700004 61 57 40 255
0.13029546 -0.17071661 0.62800002 65 62 48 255
-0.20914182 -0.21699746 0.79100001 116 111 90 255
-0.20542218 -0.21535897 0.78500003 103 100 79 255
-0.20328894 -0.2153666 0.78500003 77 75 57 255
-0.20089942 -0.21509998 0.78400004 65 63 45 255
-0.19851528 -0.21483348 0.78300005 51 50 28 255
-0.19513322 -0.21346949 0.77800006 52 51 29 255
-0.19277067 -0.21320306 0.77700001 54 52 32 255
-0.18967736 -0.21211351 0.77300006 64 62 44 255
-0.18514973 -0.20937748 0.76300001 104 103 87 255
-0.17947666 -0.20526919 0.74800003 136 139 125 255
-0.17554562 -0.2030817 0.74000001 107 112 100 255
-0.17306498 -0.20254074 0.73800004 106 113 101 255
-0.17059511 -0.20199984 0.73600006 161 166 155 255
-0.16836506 -0.2017334 0.73500001 150 155 144 255
-0.16500863 -0.20009461 0.72900003 95 100 89 255
-0.16079016 -0.19735776 0.71900004 134 138 130 255
-0.15662591 -0.19462073 0.70900005 162 166 158 255
-0.15360692 -0.19325608 0.70400006 121 123 113 255
-0.15061498 -0.19189134 0.69900006 94 97 85 255
-0.14786284 -0.19080102 0.69500005 97 99 82 255
-0.1457624 -0.19053428 0.69400001 110 112 95 255
-0.1438746 -0.1905421 0.69400001 115 119 101 255
-0.14178206 -0.19027537 0.69300002 82 87 66 255
-0.13929106 -0.18945947 0.69000006 82 87 66 255
-0.13721454 -0.18919267 0.68900001 75 77 57 255
-0.13514328 -0.18892583 0.68800002 59 59 39 255
-0.13327104 -0.1889336 0.68800002 59 57 39 255
-0.13082567 -0.18811749 0.68500006 57 55 37 255
-0.12858473 -0.18757591 0.68300003 63 61 43 255
-0.12635452 -0.18703429 0.68100005 61 59 41 255
-0.12431783 -0.18676724 0.68000001 51 51 33 255
-0.12228643 -0.18650015 0.67900002 55 55 37 255
-0.12008294 -0.18595834 0.67700005 73 71 53 255
-0.11789016 -0.18541645 0.67500001 91 89 71 255
-0.11570811 -0.18487446 0.67300004 71 69 51 255
-0.11336757 -0.1840577 0.67000002 54 52 34 255
-0.1112097 -0.18351555 0.66800004 52 49 33 255
-0.10906252 -0.18297328 0.66600001 49 49 31 255
-0.10708712 -0.1827057 0.66500002 46 46 28 255
-0.10495868 -0.18216327 0.66300005 47 44 28 255
-0.10299655 -0.18189552 0.66200006 52 50 32 255
-0.10088684 -0.1813529 0.66000003 60 57 36 255
-0.099088125 -0.18135977 0.66000003 73 70 49 255
-0.097141832 -0.18109176 0.65900004 58 55 34 255
-0.095490187 -0.18137325 0.66000003 52 49 28 255
-0.093549013 -0.18110511 0.65900004 40 39 17 255
-0.091752335 -0.18111168 0.65900004 42 41 19 255
-0.089819007 -0.18084334 0.65800005 44 45 23 255
-0.088024728 -0.18084973 0.65800005 48 49 27 255
-0.08609923 -0.18058118 0.65700001 46 44 24 255
-0.084435679 -0.18086228 0.65800005 50 48 28 255
-0.082640879 -0.1808684 0.65800005 53 51 31 255
-0.080723085 -0.18059959 0.65700001 59 57 37 255
-0.078690439 -0.18005574 0.65500003 65 63 43 255
-0.076668553 -0.17951179 0.65300006 73 73 53 255
-0.074886769 -0.17951748 0.65300006 71 70 48 255
-0.073216796 -0.17979804 0.65400004 66 65 41 255
-0.071322761 -0.17952862 0.65300006 67 66 42 255
-0.069327533 -0.17898414 0.65100002 73 72 48 255
-0.067550622 -0.17898944 0.65100002 67 66 42 255
-0.065874584 -0.17926955 0.65200001 45 44 20 255
-0.064094648 -0.17927463 0.65200001 47 46 24 255
-0.062218994 -0.17900462 0.65100002 44 43 21 255
-0.060255818 -0.17845951 0.64900005 40 38 18 255
-0.05848366 -0.1784642 0.64900005 39 37 17 255
-0.056798752 -0.17874378 0.65000004 39 37 17 255
-0.055108249 -0.17902325 0.65100002 37 35 17 255
-0.053494085 -0.1795776 0.65300006 40 36 19 255
-0.05171049 -0.17958184 0.65300006 37 33 16 255
-0.04992678 -0.17958598 0.65300006 37 33 16 255
-0.048142955 -0.17958994 0.65300006 40 38 20 255
-0.046429999 -0.17986882 0.65400004 38 36 18 255
-0.044643223 -0.17987254 0.65400004 37 35 17 255
-0.042790797 -0.1796011 0.65300006 37 35 17 255
-0.040943738 -0.17932948 0.65200001 41 39 21 255
-0.039162114 -0.17933281 0.65200001 43 39 22 255
-0.037380394 -0.17933597 0.65200001 38 36 18 255
-0.035598584 -0.17933901 0.65200001 39 37 19 255
-0.033868555 -0.17961697 0.65300006 40 38 20 255
-0.032034706 -0.17934464 0.65200001 45 43 23 255
-0.030252647 -0.17934725 0.65200001 40 38 18 255
-0.028470518 -0.17934971 0.65200001 42 40 20 255
-0.02677018 -0.17990221 0.65400004 42 40 20 255
-0.024982443 -0.17990437 0.65400004 42 40 20 255
-0.023194641 -0.1799064 0.65400004 40 38 20 255
-0.021406785 -0.17990829 0.65400004 37 35 17 255
-0.019618873 -0.17991003 0.65400004 43 41 23 255
-0.017858177 -0.18018672 0.65500003 42 40 22 255
-0.016067438 -0.18018815 0.65500003 48 46 28 255
-0.014298455 -0.18046455 0.65600002 52 50 32 255
-0.012504905 -0.18046568 0.65600002 56 54 36 255
-0.010727651 -0.18074176 0.65700001 57 55 37 255
-0.0089584971 -0.18129282 0.65900004 45 43 25 255
-0.0071566622 -0.1812935 0.65900004 45 43 25 255
-0.00535481 -0.18129402 0.65900004 38 35 19 255
-0.0035421615 -0.1807442 0.65700001 34 32 14 255
-0.0017430979 -0.18046932 0.65600002 33 31 13 255
5.0347244e-05 -0.17964409 0.65300006 35 33 15 255
0.0018217639 -0.17826846 0.648 45 43 25 255
0.0035325596 -0.17524208 0.63700002 46 44 24 255
0.0051583541 -0.17139024 0.62300003 52 52 34 255
0.0067736609 -0.1691889 0.61500001 46 47 25 255
0.0083864471 -0.16781272 0.61000001 47 47 27 255
0.010021319 -0.16726175 0.60800004 50 50 30 255
0.011626011 -0.16643552 0.60500002 48 48 28 255
0.013302072 -0.16670956 0.60600001 47 45 27 255
0.0149342 -0.16643326 0.60500002 45 43 25 255
0.016560821 -0.16615684 0.60400003 50 48 30 255
0.018151781 -0.16560519 0.60200006 41 39 21 255
0.01979753 -0.16560358 0.60200006 45 43 23 255
0.02137199 -0.16505165 0.60000002 40 38 18 255
0.022897109 -0.16422454 0.597 43 41 21 255
0.024487944 -0.16394745 0.59600002 50 49 25 255
0.02611707 -0.16394532 0.59600002 47 46 24 255
0.027746134 -0.16394307 0.59600002 45 43 23 255
0.029375128 -0.16394067 0.59600002 44 42 22 255
0.031004051 -0.16393815 0.59600002 49 47 29 255
0.032523394 -0.16338539 0.59400004 48 46 28 255
0.034089208 -0.16310757 0.59300005 46 44 24 255
0.035649471 -0.16282961 0.59200001 50 49 27 255
0.037141237 -0.16227651 0.59000003 44 45 23 255
0.038753353 -0.16227339 0.59000003 44 43 21 255
0.040433787 -0.16254517 0.59100002 46 45 23 255
0.042190745 -0.16309188 0.59300005 47 45 25 255
0.043662999 -0.1625383 0.59100002 43 41 21 255
0.045047622 -0.16170967 0.588 33 31 11 255
0.04641575 -0.16088091 0.58500004 44 42 24 255
0.047931526 -0.16060212 0.58400005 45 43 25 255
0.049441729 -0.1603232 0.583 44 42 24 255
0.050946362 -0.16004419 0.58200002 40 38 20 255
0.052535683 -0.16004008 0.58200002 44 42 22 255
0.054124884 -0.16003585 0.58200002 45 43 23 255
0.055618245 -0.15975657 0.58100003 45 43 23 255
0.05720447 -0.15975215 0.58100003 45 43 25 255
0.058689389 -0.15947267 0.58000004 43 41 23 255
0.060376551 -0.159743 0.58100003 39 37 19 255
0.061749104 -0.1591884 0.57900006 39 36 16 255
0.063329354 -0.15918359 0.57900006 43 40 20 255
0.064909488 -0.1591787 0.57900006 37 34 13 255
0.066604301 -0.15944862 0.58000004 42 39 18 255
0.068186879 -0.15944354 0.58000004 45 42 21 255
0.069769323 -0.15943837 0.58000004 42 39 19 255
0.071351625 -0.15943313 0.58000004 47 42 22 255
0.072556533 -0.15860315 0.57700002 45 40 20 255
0.074130356 -0.15859775 0.57700002 42 39 19 255
0.075966455 -0.15914202 0.57900006 45 40 20 255
0.077545457 -0.15913646 0.57900006 42 37 16 255
0.079124309 -0.15913083 0.57900006 44 39 18 255
0.080424227 -0.15857545 0.57700002 50 45 25 255
0.082281552 -0.15911935 0.57900006 46 40 23 255
0.083859965 -0.15911351 0.57900006 42 36 19 255
0.085585773 -0.1593824 0.58000004 42 36 19 255
0.087316886 -0.1596512 0.58100003 43 37 20 255
0.08890029 -0.15964518 0.58100003 48 42 25 255
0.090639271 -0.15991384 0.58200002 52 44 27 255
0.092542037 -0.16045721 0.58400005 53 45 28 255
0.094294347 -0.16072573 0.58500004 52 44 27 255
0.096215852 -0.1612689 0.58700001 56 46 27 255
0.097648211 -0.16098782 0.58600003 60 50 31 255
0.099583045 -0.16153087 0.588 61 51 32 255
0.10170071 -0.16234852 0.59100002 58 49 28 255
0.10365977 -0.16289142 0.59300005 55 46 25 255
0.10562954 -0.16343421 0.59500003 53 44 23 255
0.10742983 -0.16370228 0.59600002 51 42 21 255
0.10941838 -0.16424496 0.59800005 55 46 25 255
0.11160336 -0.16506217 0.60100001 54 43 22 255
0.11361612 -0.16560471 0.60300004 57 46 23 255
0.11525734 -0.16559793 0.60300004 54 43 20 255
0.11747999 -0.16641498 0.60600001 52 43 20 255
0.11952227 -0.16695733 0.60800004 53 44 23 255
0.12177456 -0.16777423 0.611 61 54 34 255
0.12384105 -0.16831651 0.61300004 62 57 37 255
0.12653251 -0.16968241 0.61800003 62 58 41 255
0.1307033 -0.17297012 0.63000005 67 64 48 255
-0.20886998 -0.21886936 0.79000002 120 115 95 255
-0.2054147 -0.21749148 0.78500003 88 86 66 255
-0.20302236 -0.21722192 0.78400004 66 64 46 255
-0.20037924 -0.21667537 0.78200006 56 54 36 255
-0.19800042 -0.21640597 0.78100002 53 52 30 255
-0.19487453 -0.21530536 0.77700001 56 52 35 255
-0.19226655 -0.21475899 0.77500004 55 53 35 255
-0.18893325 -0.21338134 0.77000004 71 69 51 255
-0.18392849 -0.21006371 0.75800002 117 119 102 255
-0.178749 -0.20646882 0.74500006 128 131 117 255
-0.17530051 -0.20481375 0.73900002 123 128 116 255
-0.17258808 -0.20399015 0.73600006 108 113 101 255
-0.17035538 -0.20372084 0.73500001 171 176 165 255
-0.16789897 -0.2031744 0.73300004 115 120 109 255
-0.16477431 -0.2017964 0.72800004 120 125 114 255
-0.16055864 -0.19903231 0.71800005 129 133 125 255
-0.15639716 -0.19626801 0.708 164 166 158 255
-0.15316273 -0.19461244 0.70200002 114 116 106 255
-0.15039171 -0.19351128 0.69800001 104 107 95 255
-0.1480678 -0.19296454 0.69600004 83 84 70 255
-0.14575464 -0.19241776 0.69400001 110 112 95 255
-0.14365952 -0.19214824 0.69300002 123 125 107 255
-0.14177427 -0.19215596 0.69300002 113 118 97 255
-0.1392833 -0.19133185 0.69000006 102 104 84 255
-0.13700765 -0.19078498 0.68800002 68 70 50 255
-0.13474272 -0.19023803 0.68600005 69 69 49 255
-0.13287593 -0.19024572 0.68600005 60 60 42 255
-0.13043603 -0.18942136 0.68300003 59 59 41 255
-0.12838884 -0.18915161 0.68200004 65 63 45 255
-0.12597583 -0.18832713 0.67900002 50 50 32 255
-0.12412746 -0.18833469 0.67900002 47 47 29 255
-0.12209883 -0.18806481 0.67800003 56 54 36 255
-0.12025283 -0.18807229 0.67800003 71 69 51 255
-0.11805739 -0.18752493 0.67600006 85 83 65 255
-0.11570075 -0.18670008 0.67300004 88 86 68 255
-0.11336028 -0.18587509 0.67000002 65 63 45 255
-0.111036 -0.18505004 0.66700006 52 52 34 255
-0.10889163 -0.18450229 0.66500002 49 49 31 255
-0.10691901 -0.18423194 0.66400003 44 44 26 255
-0.10495166 -0.1839615 0.66300005 44 42 24 255
-0.10298961 -0.18369099 0.66200006 48 46 28 255
-0.10087998 -0.18314292 0.66000003 50 48 28 255
-0.098931201 -0.18287222 0.65900004 70 67 46 255
-0.096987709 -0.18260145 0.65800005 64 61 40 255
-0.095338851 -0.18288563 0.65900004 63 62 40 255
-0.093542419 -0.18289223 0.65900004 49 48 26 255
-0.091745831 -0.18289877 0.65900004 45 44 22 255
-0.089676075 -0.1823501 0.65700001 48 49 27 255
-0.088018388 -0.18263403 0.65800005 51 49 29 255
-0.085961945 -0.18208517 0.65600002 51 49 29 255
-0.084301181 -0.18236892 0.65700001 56 55 33 255
-0.08250922 -0.18237503 0.65700001 63 62 40 255
-0.080594242 -0.18210343 0.65600002 70 69 47 255
-0.078564443 -0.18155415 0.65400004 74 73 51 255
-0.076662794 -0.18128234 0.65300006 76 75 51 255
-0.074995786 -0.18156564 0.65400004 76 75 51 255
-0.07321123 -0.18157125 0.65400004 71 70 46 255
-0.071317315 -0.18129911 0.65300006 72 71 47 255
-0.069428697 -0.18102683 0.65200001 68 67 43 255
-0.067649156 -0.18103208 0.65200001 67 66 44 255
-0.065768443 -0.18075958 0.65100002 49 48 26 255
-0.064089641 -0.1810423 0.65200001 44 43 21 255
-0.062214117 -0.18076958 0.65100002 43 42 20 255
-0.060343903 -0.18049668 0.65000004 39 37 17 255
-0.058569137 -0.18050139 0.65000004 42 41 19 255
-0.056794226 -0.18050595 0.65000004 39 37 17 255
-0.055103846 -0.18078808 0.65100002 38 36 18 255
-0.053407874 -0.18107016 0.65200001 37 35 17 255
-0.051706325 -0.18135209 0.65300006 33 31 13 255
-0.049922738 -0.18135621 0.65300006 37 35 17 255
-0.048065316 -0.1810824 0.65200001 41 39 21 255
-0.046355233 -0.181364 0.65300006 44 42 24 255
-0.044639569 -0.18164542 0.65400004 39 37 19 255
-0.042721763 -0.18109351 0.65200001 39 37 19 255
-0.040877581 -0.1808192 0.65100002 40 38 20 255
-0.039098822 -0.18082248 0.65100002 36 34 16 255
-0.037319973 -0.18082562 0.65100002 43 41 23 255
-0.035541035 -0.18082865 0.65100002 42 40 22 255
-0.033813871 -0.18110929 0.65200001 41 39 21 255
-0.031982906 -0.18083426 0.65100002 40 38 20 255
-0.030203721 -0.18083686 0.65100002 40 38 18 255
-0.028424468 -0.18083929 0.65100002 41 39 19 255
-0.026727002 -0.1813972 0.65300006 43 41 21 255
-0.02498034 -0.18167715 0.65400004 46 44 24 255
-0.023192687 -0.18167917 0.65400004 38 36 18 255
-0.021372247 -0.18140325 0.65300006 41 39 21 255
-0.019587221 -0.18140501 0.65300006 43 41 23 255
-0.017829403 -0.18168436 0.65400004 51 49 31 255
-0.016041549 -0.18168581 0.65400004 55 53 35 255
-0.014275446 -0.1819649 0.65500003 53 51 33 255
-0.012522902 -0.18252164 0.65700001 49 47 29 255
-0.010726739 -0.18252262 0.65700001 51 49 31 255
-0.0089441417 -0.18280129 0.65800005 48 46 28 255
-0.0071343351 -0.18252416 0.65700001 36 35 19 255
-0.0053462288 -0.18280251 0.65800005 35 32 16 255
-0.0035418598 -0.18252507 0.65700001 32 30 12 255
-0.0017482634 -0.18280312 0.65800005 34 32 14 255
5.0574232e-05 -0.18224753 0.65600002 34 32 14 255
0.0018187977 -0.17974713 0.64700001 45 43 25 255
0.0035156233 -0.17613529 0.634 49 47 29 255
0.0051413565 -0.17252332 0.62100005 50 50 32 255
0.0067510577 -0.17030029 0.61300004 49 49 29 255
0.0083719864 -0.1691884 0.60900003 48 49 27 255
0.010003986 -0.16863199 0.60700005 53 51 31 255
0.011625023 -0.16807544 0.60500002 52 50 30 255
0.013278995 -0.16807437 0.60500002 46 44 24 255
0.014932933 -0.16807318 0.60500002 44 42 22 255
0.016532002 -0.16751625 0.60300004 45 43 23 255
0.018180395 -0.16751477 0.60300004 41 39 19 255
0.019795857 -0.16723537 0.60200006 41 40 18 255
0.021405805 -0.16695584 0.60100001 45 44 22 255
0.022933532 -0.16612059 0.59800005 49 47 27 255
0.024485886 -0.16556302 0.59600002 47 46 22 255
0.026158698 -0.16583867 0.597 51 50 28 255
0.027790362 -0.16583642 0.597 44 43 21 255
0.029372679 -0.16555627 0.59600002 45 43 23 255
0.03089744 -0.16499822 0.59400004 41 39 21 255
0.032411192 -0.16444002 0.59200001 41 39 21 255
0.034028903 -0.16443728 0.59200001 47 45 27 255
0.03558632 -0.16415666 0.59100002 45 43 23 255
0.037201125 -0.16415367 0.59100002 40 41 19 255
0.038750172 -0.16387278 0.59000003 45 45 25 255
0.040362071 -0.16386956 0.59000003 40 38 18 255
0.042045016 -0.16414393 0.59100002 44 42 24 255
0.043659456 -0.16414045 0.59100002 39 37 19 255
0.045120586 -0.16358142 0.58900005 34 32 14 255
0.046491344 -0.16274454 0.58600003 39 37 19 255
0.04800975 -0.16246304 0.58500004 47 45 27 255
0.049437784 -0.16190371 0.583 41 39 19 255
0.051029835 -0.16189972 0.583 42 40 20 255
0.052621778 -0.1618956 0.583 43 41 21 255
0.054120623 -0.16161372 0.58200002 47 45 27 255
0.0557096 -0.16160941 0.58200002 45 43 25 255
0.0572 -0.16132732 0.58100003 43 41 23 255
0.058786012 -0.16132283 0.58100003 44 42 24 255
0.060267981 -0.16104057 0.58000004 41 39 19 255
0.061851002 -0.16103588 0.58000004 41 38 17 255
0.063433893 -0.1610311 0.58000004 41 38 18 255
0.064904556 -0.16074859 0.57900006 41 38 18 255
0.06659928 -0.16102123 0.58000004 43 40 20 255
0.068299323 -0.16129379 0.58100003 42 39 19 255
0.069764122 -0.16101103 0.58000004 40 36 19 255
0.071346343 -0.16100581 0.58000004 42 38 21 255
0.072551198 -0.16016772 0.57700002 46 43 23 255
0.07425341 -0.16043992 0.57800001 47 44 24 255
0.076092146 -0.16098964 0.58000004 46 43 23 255
0.077673793 -0.1609841 0.58000004 49 44 24 255
0.078981996 -0.16042337 0.57800001 43 38 18 255
0.080279157 -0.15986264 0.57600003 46 40 23 255
0.082133651 -0.16041197 0.57800001 46 40 23 255
0.08370927 -0.16040619 0.57800001 42 36 19 255
0.085579857 -0.16095535 0.58000004 44 38 22 255
0.087461166 -0.1615044 0.58200002 42 36 19 255
0.089047238 -0.1614984 0.58200002 52 46 29 255
0.090633161 -0.16149233 0.58200002 43 37 20 255
0.092218935 -0.16148621 0.58200002 51 45 28 255
0.094126932 -0.16203497 0.58400005 56 48 31 255
0.096045651 -0.16258362 0.58600003 48 40 23 255
0.097641885 -0.16257735 0.58600003 53 43 24 255
0.099407308 -0.1628484 0.58700001 55 45 26 255
0.10152218 -0.16367428 0.59000003 60 49 28 255
0.10330365 -0.16394523 0.59100002 56 45 24 255
0.10526795 -0.16449355 0.59300005 59 50 29 255
0.10724299 -0.16504176 0.59500003 53 44 23 255
0.10941172 -0.16586728 0.59800005 48 39 18 255
0.11122528 -0.16613801 0.59900004 53 44 23 255
0.11342097 -0.16696337 0.60200006 57 46 25 255
0.11525058 -0.167234 0.60300004 50 39 16 255
0.11727934 -0.1677819 0.60500002 56 45 22 255
0.11912228 -0.16805245 0.60600001 59 50 29 255
0.12136911 -0.16887757 0.60900003 58 51 30 255
0.12383415 -0.16997994 0.61300004 66 61 40 255
0.12652557 -0.17135948 0.61800003 66 63 43 255
0.13028131 -0.17412528 0.62800002 65 63 45 255
-0.20939149 -0.22157511 0.79200006 127 121 104 255
-0.20593067 -0.22018352 0.78700006 103 99 82 255
-0.20353279 -0.21991108 0.78600001 85 82 66 255
-0.20062789 -0.21907921 0.78300005 66 64 46 255
-0.19799273 -0.21852718 0.78100002 55 53 35 255
-0.19486679 -0.21741556 0.77700001 53 50 34 255
-0.19225876 -0.21686365 0.77500004 63 60 46 255
-0.18868005 -0.21519245 0.76900005 77 73 62 255
-0.18319277 -0.21128245 0.75500005 127 127 117 255
-0.17850129 -0.20821179 0.74400002 126 128 118 255
-0.17505556 -0.20654033 0.73800004 111 113 103 255
-0.17258029 -0.2059883 0.73600006 151 156 144 255
-0.16988401 -0.20515642 0.73300004 158 160 150 255
-0.16743299 -0.20460443 0.73100001 121 124 112 255
-0.16431378 -0.20321274 0.72600001 127 130 118 255
-0.1603272 -0.20070128 0.71700001 129 131 121 255
-0.15594767 -0.19762985 0.70600003 157 160 148 255
-0.15293686 -0.19623783 0.70100003 127 130 116 255
-0.15038402 -0.19540565 0.69800001 97 98 84 255
-0.14827286 -0.19513336 0.69700003 76 75 59 255
-0.14574693 -0.1943011 0.69400001 91 90 74 255
-0.14323725 -0.19346882 0.69100004 117 116 100 255
-0.14135744 -0.19347647 0.69100004 117 119 102 255
-0.13907377 -0.1929241 0.68900001 105 107 89 255
-0.13719912 -0.19293173 0.68900001 84 88 70 255
-0.13473508 -0.19209927 0.68600005 74 78 60 255
-0.13286829 -0.1921069 0.68600005 67 69 52 255
-0.13042845 -0.19127433 0.68300003 56 58 41 255
-0.12856951 -0.19128188 0.68300003 59 58 42 255
-0.12615384 -0.19044921 0.68000001 55 54 38 255
-0.12430275 -0.19045669 0.68000001 56 56 38 255
-0.12191128 -0.18962388 0.67700005 57 56 40 255
-0.1202454 -0.18991138 0.67800003 70 69 53 255
-0.11787537 -0.18907842 0.67500001 81 81 63 255
-0.11569344 -0.18852547 0.67300004 102 102 84 255
-0.11318387 -0.1874122 0.66900003 69 69 49 255
-0.11102884 -0.18685907 0.66700006 51 53 33 255
-0.10888454 -0.18630585 0.66500002 50 51 29 255
-0.10707298 -0.1863129 0.66500002 45 45 25 255
-0.10510298 -0.18603972 0.66400003 47 45 27 255
-0.10329383 -0.18604666 0.66400003 45 43 25 255
-0.10117884 -0.18549313 0.66200006 41 39 21 255
-0.099074557 -0.18493949 0.66000003 52 50 32 255
-0.096981041 -0.18438576 0.65800005 64 62 42 255
-0.095332243 -0.18467261 0.65900004 71 70 48 255
-0.093677819 -0.1849594 0.66000003 65 64 40 255
-0.091878563 -0.18496589 0.66000003 48 47 25 255
-0.090079159 -0.18497232 0.66000003 56 55 33 255
-0.08827959 -0.18497866 0.66000003 57 56 34 255
-0.086348832 -0.18470466 0.65900004 60 58 38 255
-0.084423363 -0.18443054 0.65800005 65 63 43 255
-0.082377605 -0.18387602 0.65600002 69 68 46 255
-0.080588311 -0.18388198 0.65600002 71 68 47 255
-0.078678735 -0.18360755 0.65500003 66 65 43 255
-0.076891847 -0.18361332 0.65500003 73 72 48 255
-0.075219475 -0.18389933 0.65600002 62 61 37 255
-0.073429562 -0.18390492 0.65600002 62 61 37 255
-0.071639508 -0.1839104 0.65600002 55 54 32 255
-0.069742821 -0.18363543 0.65500003 52 51 29 255
-0.067851454 -0.18336034 0.65400004 47 45 25 255
-0.065965392 -0.18308511 0.65300006 44 43 21 255
-0.064182952 -0.18309014 0.65300006 40 39 17 255
-0.06230481 -0.18281464 0.65200001 39 38 16 255
-0.060431998 -0.18253908 0.65100002 38 36 12 255
-0.058654614 -0.18254372 0.65100002 38 36 12 255
-0.056789733 -0.1822679 0.65000004 47 45 25 255
-0.055099465 -0.18255273 0.65100002 45 43 25 255
-0.053321701 -0.18255703 0.65100002 39 37 19 255
-0.051622998 -0.18284166 0.65200001 38 36 18 255
-0.049842272 -0.18284574 0.65200001 37 34 18 255
-0.047987722 -0.18256924 0.65100002 35 32 16 255
-0.046280481 -0.18285349 0.65200001 43 41 23 255
-0.044567682 -0.18313763 0.65300006 42 40 22 255
-0.04284931 -0.18342166 0.65400004 38 36 18 255
-0.0409998 -0.1831446 0.65300006 37 35 17 255
-0.039215717 -0.18314791 0.65300006 42 38 21 255
-0.037374217 -0.18287055 0.65200001 41 39 21 255
-0.035538096 -0.18259309 0.65100002 39 37 19 255
-0.033811066 -0.18287644 0.65200001 39 37 19 255
-0.032029372 -0.18287916 0.65200001 43 41 23 255
-0.030201206 -0.18260127 0.65100002 38 36 18 255
-0.028422093 -0.1826037 0.65100002 44 42 22 255
-0.026724767 -0.18316703 0.65300006 43 41 21 255
-0.024978245 -0.18344966 0.65400004 41 39 19 255
-0.023155279 -0.18317118 0.65300006 41 39 19 255
-0.021403177 -0.18345356 0.65400004 47 45 25 255
-0.019615561 -0.18345527 0.65400004 51 49 29 255
-0.017855158 -0.18373738 0.65500003 57 55 35 255
-0.016064718 -0.18373878 0.65500003 57 55 37 255
-0.014296031 -0.18402059 0.65600002 53 51 33 255
-0.012540902 -0.18458277 0.65800005 44 42 24 255
-0.010742155 -0.18458375 0.65800005 40 38 20 255
-0.0089433827 -0.1845846 0.65800005 35 33 15 255
-0.0071337288 -0.18430473 0.65700001 33 31 13 255
-0.0053376504 -0.18430528 0.65700001 35 32 16 255
-0.0035361683 -0.18402512 0.65600002 34 31 15 255
-0.001745458 -0.18430586 0.65700001 31 29 11 255
5.0492847e-05 -0.18374488 0.65500003 33 33 15 255
0.0018158323 -0.18122008 0.64600003 37 37 19 255
0.0035042353 -0.17729248 0.63200003 47 45 27 255
0.0051326407 -0.1739258 0.62 51 49 31 255
0.0067614969 -0.17224215 0.61400002 53 51 33 255
0.0083850222 -0.17111939 0.61000001 51 49 29 255
0.010019617 -0.1705576 0.60800004 48 46 26 255
0.011643251 -0.16999562 0.60600001 43 41 21 255
0.013299818 -0.16999458 0.60600001 46 45 23 255
0.01490699 -0.16943236 0.60400003 50 48 28 255
0.016503194 -0.16887 0.60200006 44 42 24 255
0.018148715 -0.16886854 0.60200006 42 40 22 255
0.01979419 -0.16886695 0.60200006 43 41 23 255
0.021439623 -0.16886523 0.60200006 46 44 26 255
0.022969957 -0.16802184 0.59900004 41 39 19 255
0.024565998 -0.16773935 0.59800005 46 44 24 255
0.026200328 -0.16773723 0.59800005 48 46 26 255
0.027834596 -0.16773498 0.59800005 41 39 19 255
0.029370233 -0.16717161 0.59600002 47 45 25 255
0.030842867 -0.16632767 0.59300005 41 39 21 255
0.032353766 -0.16576408 0.59100002 41 39 21 255
0.03396862 -0.16576134 0.59100002 43 41 23 255
0.035583396 -0.16575851 0.59100002 46 44 26 255
0.037198078 -0.16575551 0.59100002 38 36 18 255
0.038812678 -0.16575241 0.59100002 44 42 24 255
0.040427186 -0.16574918 0.59100002 44 42 24 255
0.042041603 -0.16574584 0.59100002 39 37 19 255
0.043582059 -0.16546193 0.59000003 41 39 21 255
0.045193549 -0.16545835 0.59000003 41 39 21 255
0.046646275 -0.16489379 0.588 44 42 24 255
0.04817003 -0.1646096 0.58700001 46 44 24 255
0.049518641 -0.16376445 0.58400005 43 42 20 255
0.051025797 -0.16348003 0.583 44 43 21 255
0.052527383 -0.16319555 0.58200002 44 42 22 255
0.054023389 -0.16291095 0.58100003 41 39 21 255
0.055513822 -0.1626263 0.58000004 45 43 25 255
0.056998678 -0.16234155 0.57900006 46 44 26 255
0.058579125 -0.16233708 0.57900006 42 40 22 255
0.060159445 -0.1623325 0.57900006 37 35 17 255
0.0619529 -0.16288857 0.58100003 42 39 19 255
0.063538432 -0.16288379 0.58100003 41 37 20 255
0.065011747 -0.16259861 0.58000004 40 36 19 255
0.066479459 -0.16231331 0.57900006 46 42 25 255
0.068059132 -0.16230829 0.57900006 46 42 25 255
0.069638684 -0.16230318 0.57900006 43 39 22 255
0.071095072 -0.16201767 0.57800001 42 38 21 255
0.072545893 -0.16173211 0.57700002 43 40 20 255
0.074248016 -0.16200708 0.57800001 40 35 15 255
0.076086648 -0.16256222 0.58000004 43 38 18 255
0.077668227 -0.16255671 0.58000004 42 37 17 255
0.079113029 -0.16227086 0.57900006 49 42 22 255
0.08041285 -0.1617047 0.57700002 50 43 23 255
0.082127906 -0.16197927 0.57800001 46 39 19 255
0.083703466 -0.16197352 0.57800001 43 38 18 255
0.085573971 -0.16252814 0.58000004 39 33 16 255
0.087304935 -0.16280246 0.58100003 44 36 19 255
0.088888235 -0.16279651 0.58100003 46 38 21 255
0.090315662 -0.16251029 0.58000004 46 40 23 255
0.092212826 -0.1630646 0.58200002 48 42 25 255
0.094120733 -0.1636188 0.58400005 50 45 25 255
0.096203282 -0.16445309 0.58700001 46 40 23 255
0.097968809 -0.16472697 0.588 48 40 23 255
0.099908978 -0.16528095 0.59000003 47 40 20 255
0.10185989 -0.16583483 0.59200001 51 41 22 255
0.10364676 -0.16610852 0.59300005 53 43 24 255
0.10561646 -0.16666229 0.59500003 51 44 24 255
0.1075969 -0.16721596 0.597 50 43 23 255
0.10940512 -0.16748948 0.59800005 48 41 21 255
0.11121865 -0.16776296 0.59900004 49 42 21 255
0.11322588 -0.16831647 0.60100001 54 45 24 255
0.11505275 -0.16858989 0.60200006 55 46 25 255
0.11727261 -0.16942334 0.60500002 55 46 23 255
0.11911554 -0.16969666 0.60600001 59 50 27 255
0.12136233 -0.17052999 0.60900003 57 50 27 255
0.12362532 -0.17136326 0.61200005 57 53 29 255
0.1265187 -0.17303646 0.61800003 60 57 36 255
0.13027433 -0.17582946 0.62800002 60 58 38 255
-0.2155433 -0.22795688 0.80700004 113 103 84 255
-0.20991307 -0.22429173 0.79400003 123 117 100 255
-0.20644672 -0.22288641 0.78900003 91 87 70 255
-0.20378439 -0.22232869 0.78700006 63 60 44 255
-0.20087667 -0.22148849 0.78400004 59 56 40 255
-0.1984922 -0.22121343 0.78300005 55 51 34 255
-0.19536078 -0.22009084 0.77900004 53 49 32 255
-0.19225106 -0.21896827 0.77500004 63 60 46 255
-0.18793629 -0.21643302 0.76600003 77 73 63 255
-0.18269984 -0.21276739 0.75300002 149 146 139 255
-0.17825375 -0.20994933 0.74300003 124 124 114 255
-0.17481072 -0.20826145 0.73700005 113 116 104 255
-0.17186917 -0.20713867 0.73300004 116 119 107 255
-0.16941278 -0.20658112 0.73100001 158 161 149 255
-0.16673814 -0.20574096 0.72800004 147 150 138 255
-0.1640797 -0.20490077 0.72500002 128 131 119 255
-0.15987231 -0.20208219 0.71500003 132 134 124 255
-0.15571916 -0.19926341 0.70500004 150 153 141 255
-0.15271109 -0.19785772 0.70000005 108 111 99 255
-0.15016097 -0.19701727 0.69700003 86 88 71 255
-0.1478398 -0.19645952 0.69500005 82 83 69 255
-0.14510934 -0.19533633 0.69100004 75 74 60 255
-0.14281508 -0.19477846 0.68900001 104 103 89 255
-0.14073615 -0.19450331 0.68800002 106 107 93 255
-0.13886434 -0.19451083 0.68800002 124 125 111 255
-0.13699239 -0.19451837 0.68800002 93 97 80 255
-0.13472752 -0.19396047 0.68600005 65 69 52 255
-0.13286074 -0.193968 0.68600005 70 74 57 255
-0.13061188 -0.19340998 0.68400002 59 61 44 255
-0.12875022 -0.19341746 0.68400002 55 54 40 255
-0.1263319 -0.1925766 0.68100005 56 55 39 255
-0.12429532 -0.19230121 0.68000001 68 68 50 255
-0.12208396 -0.19174302 0.67800003 75 73 55 255
-0.12006068 -0.19146755 0.67700005 77 77 59 255
-0.11786806 -0.19090919 0.67500001 98 96 78 255
-0.11551429 -0.19006795 0.67200005 106 106 86 255
-0.1131767 -0.18922658 0.66900003 69 70 48 255
-0.11102173 -0.18866798 0.66700006 47 50 26 255
-0.10887749 -0.18810928 0.66500002 49 50 26 255
-0.10706598 -0.18811628 0.66500002 46 47 25 255
-0.10525432 -0.18812321 0.66500002 51 49 29 255
-0.10344251 -0.18813014 0.66500002 50 48 30 255
-0.10132486 -0.18757114 0.66300005 46 44 26 255
-0.099368058 -0.18729497 0.66200006 46 44 26 255
-0.097269155 -0.18673576 0.66000003 53 51 33 255
-0.095325656 -0.18645942 0.65900004 54 52 32 255
-0.093671307 -0.18674891 0.66000003 59 58 36 255
-0.092011325 -0.18703832 0.66100001 64 63 41 255
-0.090072803 -0.18676175 0.66000003 66 65 43 255
-0.088273309 -0.18676804 0.66000003 66 65 43 255
-0.086342633 -0.18649127 0.65900004 63 60 40 255
-0.08454556 -0.18649742 0.65900004 67 64 44 255
-0.082497172 -0.18593743 0.65700001 66 63 43 255
-0.08070524 -0.18594337 0.65700001 62 59 38 255
-0.078672931 -0.18538317 0.65500003 58 55 34 255
-0.077003524 -0.18567196 0.65600002 49 48 26 255
-0.075213857 -0.1856776 0.65600002 44 43 19 255
-0.073535971 -0.18596621 0.65700001 51 50 28 255
-0.071634091 -0.1856886 0.65600002 40 39 17 255
-0.069843978 -0.18569396 0.65600002 40 39 17 255
-0.067950003 -0.18541615 0.65500003 47 46 24 255
-0.066162348 -0.18542129 0.65500003 41 40 18 255
-0.06417799 -0.1848601 0.65300006 41 40 16 255
-0.062299971 -0.18458189 0.65200001 40 39 15 255
-0.060334455 -0.18402044 0.65000004 40 38 14 255
-0.058650009 -0.1843082 0.65100002 37 35 11 255
-0.056872614 -0.18431275 0.65100002 35 34 12 255
-0.05517973 -0.18460026 0.65200001 44 42 24 255
-0.053317461 -0.18432145 0.65100002 40 38 20 255
-0.051618878 -0.18460876 0.65200001 43 41 23 255
-0.049761835 -0.18432966 0.65100002 41 39 21 255
-0.047836442 -0.18376727 0.64900005 35 35 17 255
-0.046063818 -0.18377107 0.64900005 40 38 20 255
-0.04435933 -0.18405786 0.65000004 39 37 19 255
-0.04264928 -0.18434456 0.65100002 40 38 20 255
-0.040933669 -0.18463111 0.65200001 39 37 19 255
-0.039092407 -0.18435122 0.65100002 38 36 18 255
-0.03731383 -0.18435434 0.65100002 38 36 18 255
-0.035480585 -0.18407413 0.65000004 37 35 17 255
-0.03375642 -0.18436018 0.65100002 37 35 17 255
-0.031928476 -0.18407968 0.65000004 45 43 25 255
-0.030198699 -0.18436545 0.65100002 43 41 23 255
-0.028463384 -0.18465108 0.65200001 42 40 22 255
-0.026722539 -0.1849366 0.65300006 38 36 18 255
-0.024937971 -0.18493876 0.65300006 36 34 16 255
-0.023153342 -0.18494077 0.65300006 38 36 18 255
-0.021401383 -0.18522584 0.65400004 43 41 21 255
-0.019643905 -0.18551078 0.65500003 54 52 32 255
-0.017880913 -0.18579556 0.65600002 59 57 37 255
-0.01608789 -0.18579699 0.65600002 56 54 34 255
-0.014316616 -0.18608148 0.65700001 52 50 30 255
-0.012539844 -0.18636587 0.65800005 44 42 24 255
-0.01074125 -0.18636686 0.65800005 33 31 13 255
-0.0089290366 -0.18608442 0.65700001 35 33 15 255
-0.0071222694 -0.18580188 0.65600002 38 36 18 255
-0.0053290757 -0.18580242 0.65600002 36 34 16 255
-0.0035358691 -0.18580277 0.65600002 33 30 14 255
-0.0017453104 -0.18608622 0.65700001 34 32 14 255
5.0411498e-05 -0.1852366 0.65400004 31 30 14 255
0.0018100574 -0.18240418 0.64400005 39 37 19 255
0.0034928508 -0.17843863 0.63000005 55 53 35 255
0.0051404852 -0.17588916 0.62100005 52 50 32 255
0.0067719361 -0.17418922 0.61500001 55 53 35 255
0.0084118033 -0.17333889 0.61200005 47 45 27 255
0.010035248 -0.17248841 0.60900003 48 46 26 255
0.011661483 -0.17192104 0.60700005 48 46 26 255
0.013298697 -0.17163676 0.60600001 46 45 23 255
0.014930416 -0.17135236 0.60500002 42 41 19 255
0.016501805 -0.17050134 0.60200006 46 44 26 255
0.018177338 -0.17078312 0.60300004 47 45 27 255
0.019759653 -0.17021507 0.60100001 42 40 22 255
0.021402216 -0.17021337 0.60100001 45 43 25 255
0.022968039 -0.16964509 0.59900004 51 49 31 255
0.024563951 -0.16935991 0.59800005 48 46 26 255
0.026198151 -0.16935778 0.59800005 48 46 26 255
0.027832288 -0.16935556 0.59800005 44 44 24 255
0.029466357 -0.1693532 0.59800005 46 44 26 255
0.030892327 -0.16821791 0.59400004 45 43 25 255
0.032405846 -0.1676489 0.59200001 41 39 21 255
0.03396583 -0.167363 0.59100002 44 42 24 255
0.035580475 -0.16736014 0.59100002 41 39 21 255
0.037195042 -0.16735718 0.59100002 45 43 23 255
0.038743854 -0.16707094 0.59000003 40 38 18 255
0.040355511 -0.16706772 0.59000003 44 42 24 255
0.041895952 -0.16678123 0.58900005 43 41 23 255
0.043578554 -0.16706094 0.59000003 38 36 18 255
0.045113336 -0.16677424 0.58900005 39 37 19 255
0.046563227 -0.1662043 0.58700001 41 39 21 255
0.048084151 -0.16591741 0.58600003 45 43 23 255
0.049514722 -0.16534728 0.58400005 40 39 17 255
0.050846741 -0.16449395 0.58100003 45 44 22 255
0.052342769 -0.16420679 0.58000004 42 41 19 255
0.053926196 -0.16420263 0.58000004 41 39 19 255
0.055509511 -0.16419838 0.58000004 40 38 18 255
0.056895837 -0.16362785 0.57800001 39 37 17 255
0.058473457 -0.16362341 0.57800001 44 42 24 255
0.060154844 -0.16390195 0.57900006 41 39 21 255
0.061734948 -0.16389732 0.57900006 44 41 21 255
0.063424274 -0.16417564 0.58000004 39 35 18 255
0.064782687 -0.16360471 0.57800001 37 33 16 255
0.066359676 -0.1635998 0.57800001 43 39 22 255
0.067819007 -0.16331179 0.57700002 42 38 21 255
0.069513276 -0.16358976 0.57800001 46 42 25 255
0.070966877 -0.16330157 0.57700002 39 36 16 255
0.072540611 -0.16329637 0.57700002 40 37 16 255
0.074242659 -0.16357407 0.57800001 43 38 18 255
0.075950027 -0.16385168 0.57900006 44 39 19 255
0.077662706 -0.16412918 0.58000004 46 40 23 255
0.079107441 -0.16384067 0.57900006 50 43 23 255
0.080546573 -0.16355209 0.57800001 49 42 22 255
0.081838049 -0.16298054 0.57600003 45 38 18 255
0.083552897 -0.16325778 0.57700002 46 38 21 255
0.085273042 -0.16353492 0.57800001 46 38 21 255
0.087148778 -0.16409495 0.58000004 44 37 17 255
0.08888226 -0.16437194 0.58100003 48 40 23 255
0.09030965 -0.16408309 0.58000004 50 42 25 255
0.092206746 -0.16464284 0.58200002 47 42 22 255
0.094114602 -0.16520254 0.58400005 50 43 23 255
0.095869318 -0.16547927 0.58500004 50 42 25 255
0.097962536 -0.16632164 0.588 49 41 24 255
0.09973333 -0.16659825 0.58900005 49 41 24 255
0.10150941 -0.16687477 0.59000003 48 38 19 255
0.10311603 -0.16686842 0.59000003 51 41 22 255
0.105255 -0.16771051 0.59300005 48 41 21 255
0.10741016 -0.16855249 0.59600002 51 44 24 255
0.10921564 -0.1688288 0.597 52 45 25 255
0.11102643 -0.16910508 0.59800005 48 41 21 255
0.1130309 -0.16966408 0.60000002 46 39 19 255
0.11485501 -0.16994026 0.60100001 55 48 27 255
0.11726593 -0.17106467 0.60500002 55 48 27 255
0.11910885 -0.17134078 0.60600001 59 52 29 255
0.12135562 -0.17218234 0.60900003 55 51 27 255
0.12341658 -0.17274109 0.611 51 48 27 255
0.12630717 -0.17443064 0.61700004 56 54 34 255
0.12985258 -0.17696816 0.62600005 60 60 42 255
-0.21580337 -0.23043463 0.80800003 114 101 77 255
-0.2101704 -0.22673403 0.79500002 123 116 96 255
-0.20643963 -0.2250298 0.78900003 91 86 66 255
-0.20377718 -0.22446647 0.78700006 64 62 44 255
-0.20112556 -0.22390318 0.78500003 50 48 30 255
-0.19848478 -0.22334003 0.78300005 53 51 33 255
-0.1953533 -0.22220644 0.77900004 57 53 36 255
-0.19199546 -0.22078764 0.77400005 72 69 53 255
-0.18743804 -0.21794249 0.76400006 101 97 86 255
-0.18269233 -0.214812 0.75300002 148 146 136 255
-0.17824626 -0.21196665 0.74300003 116 116 108 255
-0.17504039 -0.21054766 0.73800004 107 107 97 255
-0.17209609 -0.20941395 0.73400003 106 108 98 255
-0.16940519 -0.20856552 0.73100001 141 144 132 255
-0.16650151 -0.20743178 0.72700006 146 149 137 255
-0.16361947 -0.20629802 0.72300005 119 124 112 255
-0.15964115 -0.20373748 0.71400005 128 130 120 255
-0.15549079 -0.20089145 0.70400006 147 150 138 255
-0.1527036 -0.19975747 0.70000005 110 112 95 255
-0.15015349 -0.19890879 0.69700003 100 102 85 255
-0.14783229 -0.1983455 0.69500005 88 90 73 255
-0.14510185 -0.19721135 0.69100004 70 69 55 255
-0.14260033 -0.19636257 0.68800002 78 75 69 255
-0.14052409 -0.19608459 0.68700004 90 91 79 255
-0.13865502 -0.19609205 0.68700004 100 101 87 255
-0.13678579 -0.1960995 0.68700004 100 104 87 255
-0.13511281 -0.19639242 0.68800002 78 82 65 255
-0.13324057 -0.19639987 0.68800002 68 72 54 255
-0.13117725 -0.19612187 0.68700004 57 59 41 255
-0.12911922 -0.19584385 0.68600005 64 63 47 255
-0.12688099 -0.19528028 0.68400002 61 61 43 255
-0.1246535 -0.19471666 0.68200004 80 80 62 255
-0.12243675 -0.19415297 0.68000001 87 87 69 255
-0.12023073 -0.19358921 0.67800003 88 86 68 255
-0.11786083 -0.19273986 0.67500001 92 90 70 255
-0.11550712 -0.19189039 0.67200005 92 90 70 255
-0.11333875 -0.19132639 0.67000002 63 61 41 255
-0.11118113 -0.19076234 0.66800004 53 52 30 255
-0.10903422 -0.19019815 0.66600001 48 47 23 255
-0.10722004 -0.1902051 0.66600001 48 47 23 255
-0.10556398 -0.19049762 0.66700006 48 47 25 255
-0.1035912 -0.19021884 0.66600001 42 40 20 255
-0.10162374 -0.18994002 0.66500002 42 40 22 255
-0.099511459 -0.18937548 0.66300005 44 42 24 255
-0.097557291 -0.18909648 0.66200006 43 41 23 255
-0.095753066 -0.18910305 0.66200006 47 45 27 255
-0.094090588 -0.1893952 0.66300005 59 57 39 255
-0.092283294 -0.18940164 0.66300005 54 52 34 255
-0.0903394 -0.18912232 0.66200006 63 60 40 255
-0.088400796 -0.18884291 0.66100001 63 60 40 255
-0.08646749 -0.18856341 0.66000003 59 57 39 255
-0.084539481 -0.18828379 0.65900004 54 52 34 255
-0.082616769 -0.18800411 0.65800005 54 52 34 255
-0.0808222 -0.18801001 0.65800005 50 48 28 255
-0.078907363 -0.18773007 0.65700001 43 40 20 255
-0.077115215 -0.18773581 0.65700001 43 40 19 255
-0.075322919 -0.18774143 0.65700001 43 40 19 255
-0.073754318 -0.18831851 0.65900004 44 43 21 255
-0.071956277 -0.18832396 0.65900004 39 37 17 255
-0.069945164 -0.18775773 0.65700001 42 40 20 255
-0.068048559 -0.18747714 0.65600002 39 37 17 255
-0.066258289 -0.18748227 0.65600002 38 36 16 255
-0.064369604 -0.18720147 0.65500003 41 39 19 255
-0.062486246 -0.18692052 0.65400004 44 42 22 255
-0.060515393 -0.18635365 0.65200001 44 42 22 255
-0.05873552 -0.18635829 0.65200001 44 42 22 255
-0.056868147 -0.18607695 0.65100002 40 38 18 255
-0.055090759 -0.18608136 0.65100002 40 38 20 255
-0.053313237 -0.18608561 0.65100002 41 39 21 255
-0.051614769 -0.18637562 0.65200001 52 50 32 255
-0.049910732 -0.18666552 0.65300006 47 45 27 255
-0.048053715 -0.18638356 0.65200001 43 41 23 255
-0.046202052 -0.18610147 0.65100002 48 46 26 255
-0.04435575 -0.18581924 0.65000004 39 37 17 255
-0.042645827 -0.1861086 0.65100002 36 34 14 255
-0.040867571 -0.186112 0.65100002 37 35 17 255
-0.039089222 -0.18611524 0.65100002 33 31 13 255
-0.037368093 -0.18640424 0.65200001 39 37 19 255
-0.035532255 -0.18612133 0.65100002 39 37 19 255
-0.033753648 -0.18612415 0.65100002 39 37 19 255
-0.031974964 -0.18612686 0.65100002 37 35 15 255
-0.030242588 -0.18641533 0.65200001 42 40 20 255
-0.02854833 -0.18698959 0.65400004 44 42 22 255
-0.026720323 -0.18670596 0.65300006 43 41 21 255
-0.024935896 -0.18670809 0.65300006 43 41 21 255
-0.023115959 -0.18642417 0.65200001 44 42 22 255
-0.021399595 -0.18699786 0.65400004 39 37 17 255
-0.019612273 -0.18699956 0.65400004 55 54 32 255
-0.017879417 -0.187573 0.65600002 51 50 28 255
-0.016086541 -0.18757443 0.65600002 58 59 37 255
-0.014293627 -0.1875757 0.65600002 52 52 32 255
-0.012481623 -0.18729088 0.65500003 49 49 31 255
-0.010707701 -0.1875778 0.65600002 38 38 20 255
-0.008928285 -0.18786456 0.65700001 41 39 21 255
-0.0071433834 -0.1881512 0.65800005 35 33 15 255
-0.0053448728 -0.1881517 0.65800005 35 33 15 255
-0.0035409608 -0.18786612 0.65700001 31 29 11 255
-0.0017451631 -0.18786636 0.65700001 32 30 12 255
5.0253093e-05 -0.18643668 0.65200001 39 37 19 255
0.0018014734 -0.18329121 0.64100003 42 40 22 255
0.0034870126 -0.17985964 0.62900001 49 47 27 255
0.0051483288 -0.17785767 0.62200004 45 43 25 255
0.0067823771 -0.17614152 0.61600006 46 46 28 255
0.008424839 -0.17528301 0.61300004 46 46 28 255
0.010050883 -0.17442441 0.61000001 47 45 27 255
0.011679714 -0.17385164 0.60800004 48 46 28 255
0.013341469 -0.17385058 0.60800004 49 47 27 255
0.014953839 -0.17327751 0.60600001 44 42 24 255
0.016555242 -0.17270434 0.60400003 39 36 20 255
0.018175818 -0.17241696 0.60300004 45 42 26 255
0.019790882 -0.17212945 0.60200006 42 39 23 255
0.021436043 -0.17212775 0.60200006 47 44 28 255
0.02296613 -0.17126812 0.59900004 54 52 34 255
0.024561914 -0.17098023 0.59800005 51 49 29 255
0.026195981 -0.17097811 0.59800005 48 46 26 255
0.027783446 -0.17068997 0.597 49 49 31 255
0.029414656 -0.17068762 0.597 50 48 30 255
0.030941788 -0.17011333 0.59500003 44 42 24 255
0.032457925 -0.16953894 0.59300005 45 43 25 255
0.034020521 -0.16925031 0.59200001 39 37 19 255
0.03557758 -0.1689616 0.59100002 42 40 20 255
0.037254952 -0.16924453 0.59200001 42 40 20 255
0.038806379 -0.16895556 0.59100002 41 39 19 255
0.040420651 -0.16895238 0.59100002 43 41 21 255
0.041963704 -0.16866319 0.59000003 43 41 23 255
0.043575063 -0.16865976 0.59000003 42 40 20 255
0.045109738 -0.16837038 0.58900005 39 37 17 255
0.046638839 -0.16808087 0.588 42 40 20 255
0.04816239 -0.16779129 0.58700001 42 41 19 255
0.049510825 -0.16692993 0.58400005 42 41 17 255
0.050755244 -0.16578263 0.58000004 42 41 17 255
0.052248444 -0.16549279 0.57900006 42 41 17 255
0.053922009 -0.16577449 0.58000004 37 36 14 255
0.055600923 -0.16605608 0.58100003 42 39 19 255
0.05698989 -0.16548014 0.57900006 42 40 20 255
0.058367826 -0.16490412 0.57700002 47 45 27 255
0.060046375 -0.16518539 0.57800001 44 41 21 255
0.061623659 -0.1651808 0.57800001 44 40 23 255
0.063310161 -0.1654619 0.57900006 37 33 16 255
0.064777851 -0.16517134 0.57800001 37 33 16 255
0.066239953 -0.16488071 0.57700002 44 41 21 255
0.067696467 -0.16459002 0.57600003 45 42 22 255
0.069267668 -0.16458501 0.57600003 45 42 22 255
0.070838727 -0.1645799 0.57600003 44 41 21 255
0.07240966 -0.16457473 0.57600003 42 39 18 255
0.074237324 -0.16514087 0.57800001 41 38 17 255
0.075682275 -0.16484983 0.57700002 39 36 16 255
0.077389419 -0.16513011 0.57800001 41 38 18 255
0.078828648 -0.16483894 0.57700002 47 42 22 255
0.08054097 -0.16511907 0.57800001 49 42 22 255
0.081832401 -0.16454212 0.57600003 38 33 13 255
0.08369197 -0.16510776 0.57800001 46 39 19 255
0.085267261 -0.16510203 0.57800001 41 34 14 255
0.087142907 -0.16566752 0.58000004 46 39 19 255
0.088723369 -0.16566165 0.58000004 45 38 18 255
0.090459384 -0.16594133 0.58100003 50 43 23 255
0.092359133 -0.16650656 0.583 48 41 20 255
0.094269641 -0.16707171 0.58500004 47 42 21 255
0.096027032 -0.1673512 0.58600003 55 50 30 255
0.097956322 -0.16791618 0.588 46 39 19 255
0.099727072 -0.16819555 0.58900005 47 39 22 255
0.1015031 -0.16847482 0.59000003 51 41 22 255
0.10328446 -0.16875409 0.59100002 49 42 22 255
0.10542609 -0.16960436 0.59400004 50 42 25 255
0.10740372 -0.17016901 0.59600002 52 44 27 255
0.10920915 -0.17044806 0.597 51 43 26 255
0.11101992 -0.17072712 0.59800005 52 44 27 255
0.11302436 -0.17129163 0.60000002 52 44 27 255
0.11503956 -0.17185609 0.60200006 49 42 22 255
0.11745315 -0.17299138 0.60600001 51 46 25 255
0.1194953 -0.1735557 0.60800004 56 51 30 255
0.12174749 -0.17440544 0.611 56 53 32 255
0.1236119 -0.17468424 0.61200005 53 52 30 255
0.12609574 -0.17581929 0.61600006 55 53 35 255
0.12963834 -0.17838132 0.625 59 59 41 255
-0.21579653 -0.23262997 0.80800003 111 100 77 255
-0.20989919 -0.22860596 0.79400003 116 111 90 255
-0.20617102 -0.22688527 0.78800005 76 73 53 255
-0.20351116 -0.22631632 0.78600001 63 61 41 255
-0.2008622 -0.2257475 0.78400004 57 55 35 255
-0.19822405 -0.22517875 0.78200006 55 53 33 255
-0.19509518 -0.22403415 0.77800006 58 56 36 255
-0.19174002 -0.22260159 0.77300006 64 62 44 255
-0.18669465 -0.2191532 0.76100004 109 108 92 255
-0.18195711 -0.21599266 0.75000006 131 132 118 255
-0.1777591 -0.21340798 0.74100006 121 121 113 255
-0.17479582 -0.21226327 0.73700005 117 117 107 255
-0.17208867 -0.21140659 0.73400003 115 116 104 255
-0.16962945 -0.21083793 0.73200005 136 139 127 255
-0.16672303 -0.20969322 0.72800004 156 159 145 255
-0.16338567 -0.20797242 0.72200006 135 140 128 255
-0.15896294 -0.20481119 0.71100003 132 137 126 255
-0.15526251 -0.20251402 0.70300001 133 136 124 255
-0.15204178 -0.20079291 0.69700003 130 133 119 255
-0.14971524 -0.20022407 0.69500005 97 99 82 255
-0.14739946 -0.19965519 0.69300002 83 85 68 255
